# .PCD v.7 - Point Cloud Data file format
VERSION .7
FIELDS x y z rgb
SIZE 4 4 4 4
TYPE F F F F
WIDTH 1875
HEIGHT 1
POINTS 1875
DATA ascii
2.79 5.13 1.39 9.1477e-41
2.82 5.13 1.38 9.1477e-41
2.87 5.13 1.39 9.1477e-41
2.9 5.13 1.38 9.1477e-41
2.95 5.13 1.39 9.1477e-41
2.98 5.13 1.38 9.1477e-41
3.03 5.13 1.39 9.1477e-41
3.07 5.13 1.39 9.1477e-41
3.09 5.13 1.34 9.1477e-41
3.31 5.13 2.12 9.1477e-41
3.35 5.13 2.15 9.1477e-41
3.33 5.13 1.91 9.1477e-41
3.31 5.13 1.63 9.1477e-41
3.34 5.13 1.57 9.1477e-41
0.88 5.22 2.17 9.1477e-41
0.88 5.22 2.1 9.1477e-41
0.87 5.22 2.03 9.1477e-41
0.87 5.22 1.97 9.1477e-41
0.87 5.22 1.9 9.1477e-41
0.87 5.22 1.84 9.1477e-41
0.87 5.22 1.76 9.1477e-41
0.87 5.22 1.69 9.1477e-41
0.86 5.22 1.61 9.1477e-41
0.86 5.22 1.53 9.1477e-41
0.87 5.22 1.47 9.1477e-41
0.88 5.22 1.41 9.1477e-41
0.94 5.22 1.41 9.1477e-41
1 5.22 1.41 9.1477e-41
1.05 5.22 1.4 9.1477e-41
1.11 5.22 1.41 9.1477e-41
1.16 5.22 1.4 9.1477e-41
1.21 5.22 1.4 9.1477e-41
1.27 5.22 1.41 9.1477e-41
1.32 5.22 1.4 9.1477e-41
1.37 5.22 1.4 9.1477e-41
1.42 5.22 1.4 9.1477e-41
1.48 5.22 1.4 9.1477e-41
1.52 5.22 1.4 9.1477e-41
1.58 5.22 1.4 9.1477e-41
1.62 5.22 1.39 9.1477e-41
1.67 5.22 1.39 9.1477e-41
1.72 5.22 1.4 9.1477e-41
1.77 5.22 1.4 9.1477e-41
1.82 5.22 1.39 9.1477e-41
1.86 5.22 1.39 9.1477e-41
1.91 5.22 1.39 9.1477e-41
1.96 5.22 1.39 9.1477e-41
2 5.22 1.39 9.1477e-41
2.05 5.22 1.4 9.1477e-41
2.1 5.22 1.39 9.1477e-41
2.14 5.22 1.39 9.1477e-41
2.18 5.22 1.38 9.1477e-41
2.23 5.22 1.38 9.1477e-41
2.27 5.22 1.39 9.1477e-41
2.32 5.22 1.39 9.1477e-41
2.36 5.22 1.38 9.1477e-41
2.41 5.22 1.4 9.1477e-41
2.45 5.22 1.38 9.1477e-41
2.49 5.22 1.39 9.1477e-41
2.53 5.22 1.38 9.1477e-41
2.58 5.22 1.39 9.1477e-41
2.62 5.22 1.38 9.1477e-41
2.66 5.22 1.39 9.1477e-41
2.7 5.22 1.39 9.1477e-41
2.74 5.22 1.38 9.1477e-41
2.78 5.22 1.38 9.1477e-41
2.83 5.22 1.39 9.1477e-41
2.86 5.22 1.38 9.1477e-41
2.91 5.22 1.39 9.1477e-41
2.95 5.22 1.4 9.1477e-41
2.99 5.22 1.4 9.1477e-41
3.03 5.22 1.39 9.1477e-41
3.07 5.22 1.39 9.1477e-41
3.09 5.22 1.32 9.1477e-41
3.31 5.22 2.13 9.1477e-41
3.34 5.22 2.14 9.1477e-41
3.33 5.22 1.9 9.1477e-41
3.31 5.22 1.63 9.1477e-41
3.33 5.22 1.56 9.1477e-41
0.88 5.31 2.17 9.1477e-41
0.88 5.31 2.1 9.1477e-41
0.87 5.31 2.04 9.1477e-41
0.87 5.31 1.97 9.1477e-41
0.87 5.31 1.9 9.1477e-41
0.87 5.31 1.84 9.1477e-41
0.88 5.31 1.77 9.1477e-41
0.87 5.31 1.69 9.1477e-41
0.86 5.31 1.61 9.1477e-41
0.86 5.31 1.54 9.1477e-41
0.87 5.31 1.47 9.1477e-41
0.88 5.31 1.4 9.1477e-41
0.94 5.31 1.41 9.1477e-41
1 5.31 1.41 9.1477e-41
1.05 5.31 1.4 9.1477e-41
1.11 5.31 1.41 9.1477e-41
1.16 5.31 1.41 9.1477e-41
1.22 5.31 1.41 9.1477e-41
1.26 5.31 1.4 9.1477e-41
1.32 5.31 1.4 9.1477e-41
1.37 5.31 1.4 9.1477e-41
1.42 5.31 1.39 9.1477e-41
1.47 5.31 1.39 9.1477e-41
1.52 5.31 1.4 9.1477e-41
1.57 5.31 1.39 9.1477e-41
1.63 5.31 1.4 9.1477e-41
1.67 5.31 1.39 9.1477e-41
1.72 5.31 1.4 9.1477e-41
1.77 5.31 1.4 9.1477e-41
1.82 5.31 1.4 9.1477e-41
1.86 5.31 1.39 9.1477e-41
1.91 5.31 1.39 9.1477e-41
1.96 5.31 1.39 9.1477e-41
2 5.31 1.39 9.1477e-41
2.05 5.31 1.38 9.1477e-41
2.1 5.31 1.39 9.1477e-41
2.14 5.31 1.39 9.1477e-41
2.19 5.31 1.4 9.1477e-41
2.23 5.31 1.38 9.1477e-41
2.28 5.31 1.39 9.1477e-41
2.32 5.31 1.39 9.1477e-41
2.36 5.31 1.38 9.1477e-41
2.41 5.31 1.4 9.1477e-41
2.45 5.31 1.38 9.1477e-41
2.49 5.31 1.39 9.1477e-41
2.54 5.31 1.39 9.1477e-41
2.57 5.31 1.38 9.1477e-41
2.62 5.31 1.39 9.1477e-41
2.66 5.31 1.38 9.1477e-41
2.7 5.31 1.39 9.1477e-41
2.74 5.31 1.37 9.1477e-41
2.79 5.31 1.39 9.1477e-41
2.83 5.31 1.39 9.1477e-41
2.87 5.31 1.39 9.1477e-41
2.91 5.31 1.39 9.1477e-41
2.95 5.31 1.39 9.1477e-41
2.99 5.31 1.39 9.1477e-41
3.03 5.31 1.39 9.1477e-41
3.07 5.31 1.4 9.1477e-41
3.09 5.31 1.34 9.1477e-41
3.31 5.31 2.12 9.1477e-41
3.34 5.31 2.14 9.1477e-41
3.33 5.31 1.91 9.1477e-41
3.31 5.31 1.63 9.1477e-41
3.33 5.31 1.56 9.1477e-41
0.88 5.4 2.17 9.1477e-41
0.88 5.4 2.1 9.1477e-41
0.87 5.4 2.04 9.1477e-41
0.88 5.4 1.98 9.1477e-41
0.87 5.4 1.9 9.1477e-41
0.87 5.4 1.84 9.1477e-41
0.87 5.4 1.76 9.1477e-41
0.87 5.4 1.69 9.1477e-41
0.86 5.4 1.61 9.1477e-41
0.86 5.4 1.53 9.1477e-41
0.86 5.4 1.46 9.1477e-41
0.88 5.4 1.4 9.1477e-41
0.94 5.4 1.41 9.1477e-41
0.99 5.4 1.4 9.1477e-41
1.05 5.4 1.41 9.1477e-41
1.11 5.4 1.41 9.1477e-41
1.16 5.4 1.41 9.1477e-41
1.22 5.4 1.41 9.1477e-41
1.26 5.4 1.4 9.1477e-41
1.32 5.4 1.4 9.1477e-41
1.38 5.4 1.41 9.1477e-41
1.42 5.4 1.4 9.1477e-41
1.48 5.4 1.4 9.1477e-41
1.52 5.4 1.4 9.1477e-41
1.58 5.4 1.4 9.1477e-41
1.63 5.4 1.4 9.1477e-41
1.68 5.4 1.4 9.1477e-41
1.72 5.4 1.4 9.1477e-41
1.77 5.4 1.4 9.1477e-41
1.82 5.4 1.39 9.1477e-41
1.86 5.4 1.39 9.1477e-41
1.92 5.4 1.41 9.1477e-41
1.96 5.4 1.39 9.1477e-41
2.01 5.4 1.4 9.1477e-41
2.05 5.4 1.4 9.1477e-41
2.1 5.4 1.4 9.1477e-41
2.14 5.4 1.39 9.1477e-41
2.19 5.4 1.39 9.1477e-41
2.23 5.4 1.39 9.1477e-41
2.28 5.4 1.39 9.1477e-41
2.32 5.4 1.4 9.1477e-41
2.36 5.4 1.38 9.1477e-41
2.41 5.4 1.4 9.1477e-41
2.45 5.4 1.39 9.1477e-41
2.49 5.4 1.39 9.1477e-41
2.54 5.4 1.39 9.1477e-41
2.58 5.4 1.4 9.1477e-41
2.62 5.4 1.38 9.1477e-41
2.66 5.4 1.39 9.1477e-41
2.7 5.4 1.39 9.1477e-41
2.74 5.4 1.38 9.1477e-41
2.79 5.4 1.39 9.1477e-41
2.83 5.4 1.39 9.1477e-41
2.87 5.4 1.39 9.1477e-41
2.91 5.4 1.39 9.1477e-41
2.95 5.4 1.39 9.1477e-41
2.99 5.4 1.39 9.1477e-41
3.03 5.4 1.39 9.1477e-41
3.07 5.4 1.39 9.1477e-41
3.09 5.4 1.33 9.1477e-41
3.31 5.4 2.13 9.1477e-41
3.34 5.4 2.1 9.1477e-41
3.32 5.4 1.88 9.1477e-41
3.31 5.4 1.62 9.1477e-41
3.33 5.4 1.56 9.1477e-41
0.88 5.49 2.17 9.1477e-41
0.88 5.49 2.1 9.1477e-41
0.87 5.49 2.04 9.1477e-41
0.87 5.49 1.97 9.1477e-41
0.87 5.49 1.9 9.1477e-41
0.87 5.49 1.84 9.1477e-41
0.86 5.49 1.76 9.1477e-41
0.87 5.49 1.69 9.1477e-41
0.86 5.49 1.61 9.1477e-41
0.86 5.49 1.54 9.1477e-41
0.86 5.49 1.46 9.1477e-41
0.88 5.49 1.41 9.1477e-41
0.94 5.49 1.41 9.1477e-41
0.99 5.49 1.4 9.1477e-41
1.05 5.49 1.41 9.1477e-41
1.11 5.49 1.41 9.1477e-41
1.16 5.49 1.41 9.1477e-41
1.22 5.49 1.41 9.1477e-41
1.26 5.49 1.4 9.1477e-41
1.32 5.49 1.4 9.1477e-41
1.37 5.49 1.4 9.1477e-41
1.42 5.49 1.4 9.1477e-41
1.48 5.49 1.4 9.1477e-41
1.52 5.49 1.4 9.1477e-41
1.57 5.49 1.39 9.1477e-41
1.63 5.49 1.4 9.1477e-41
1.68 5.49 1.4 9.1477e-41
1.72 5.49 1.4 9.1477e-41
1.77 5.49 1.4 9.1477e-41
1.82 5.49 1.39 9.1477e-41
1.87 5.49 1.4 9.1477e-41
1.92 5.49 1.4 9.1477e-41
1.96 5.49 1.4 9.1477e-41
2.01 5.49 1.4 9.1477e-41
2.05 5.49 1.39 9.1477e-41
2.1 5.49 1.4 9.1477e-41
2.15 5.49 1.4 9.1477e-41
2.19 5.49 1.39 9.1477e-41
2.23 5.49 1.39 9.1477e-41
2.28 5.49 1.39 9.1477e-41
2.32 5.49 1.4 9.1477e-41
2.36 5.49 1.39 9.1477e-41
2.41 5.49 1.39 9.1477e-41
2.45 5.49 1.39 9.1477e-41
2.49 5.49 1.39 9.1477e-41
2.54 5.49 1.39 9.1477e-41
2.58 5.49 1.39 9.1477e-41
2.62 5.49 1.38 9.1477e-41
2.66 5.49 1.39 9.1477e-41
2.7 5.49 1.39 9.1477e-41
2.74 5.49 1.39 9.1477e-41
2.78 5.49 1.38 9.1477e-41
2.83 5.49 1.39 9.1477e-41
2.87 5.49 1.39 9.1477e-41
2.91 5.49 1.4 9.1477e-41
2.95 5.49 1.4 9.1477e-41
2.99 5.49 1.39 9.1477e-41
3.03 5.49 1.39 9.1477e-41
3.07 5.49 1.39 9.1477e-41
3.09 5.49 1.33 9.1477e-41
3.31 5.49 2.13 9.1477e-41
3.34 5.49 2.1 9.1477e-41
3.32 5.49 1.88 9.1477e-41
3.31 5.49 1.62 9.1477e-41
3.34 5.49 1.58 9.1477e-41
0.88 5.58 2.17 9.1477e-41
0.88 5.58 2.1 9.1477e-41
0.87 5.58 2.04 9.1477e-41
0.88 5.58 1.98 9.1477e-41
0.87 5.58 1.9 9.1477e-41
0.87 5.58 1.84 9.1477e-41
0.87 5.58 1.76 9.1477e-41
0.86 5.58 1.68 9.1477e-41
0.86 5.58 1.61 9.1477e-41
0.86 5.58 1.54 9.1477e-41
0.86 5.58 1.46 9.1477e-41
0.88 5.58 1.41 9.1477e-41
0.94 5.58 1.41 9.1477e-41
0.99 5.58 1.4 9.1477e-41
1.05 5.58 1.41 9.1477e-41
1.11 5.58 1.41 9.1477e-41
1.16 5.58 1.41 9.1477e-41
1.22 5.58 1.41 9.1477e-41
1.26 5.58 1.4 9.1477e-41
1.32 5.58 1.41 9.1477e-41
1.38 5.58 1.41 9.1477e-41
1.42 5.58 1.4 9.1477e-41
1.48 5.58 1.4 9.1477e-41
1.52 5.58 1.4 9.1477e-41
1.57 5.58 1.39 9.1477e-41
1.63 5.58 1.4 9.1477e-41
1.68 5.58 1.4 9.1477e-41
1.72 5.58 1.39 9.1477e-41
1.78 5.58 1.4 9.1477e-41
1.82 5.58 1.39 9.1477e-41
1.86 5.58 1.39 9.1477e-41
1.91 5.58 1.39 9.1477e-41
1.96 5.58 1.39 9.1477e-41
2.01 5.58 1.4 9.1477e-41
2.05 5.58 1.4 9.1477e-41
2.1 5.58 1.4 9.1477e-41
2.15 5.58 1.4 9.1477e-41
2.19 5.58 1.39 9.1477e-41
2.24 5.58 1.4 9.1477e-41
2.28 5.58 1.39 9.1477e-41
2.32 5.58 1.39 9.1477e-41
2.36 5.58 1.39 9.1477e-41
2.41 5.58 1.4 9.1477e-41
2.45 5.58 1.39 9.1477e-41
2.49 5.58 1.39 9.1477e-41
2.53 5.58 1.38 9.1477e-41
2.58 5.58 1.39 9.1477e-41
2.62 5.58 1.38 9.1477e-41
2.66 5.58 1.39 9.1477e-41
2.7 5.58 1.4 9.1477e-41
2.74 5.58 1.38 9.1477e-41
2.79 5.58 1.39 9.1477e-41
2.83 5.58 1.39 9.1477e-41
2.87 5.58 1.39 9.1477e-41
2.91 5.58 1.4 9.1477e-41
2.95 5.58 1.39 9.1477e-41
2.99 5.58 1.4 9.1477e-41
3.03 5.58 1.39 9.1477e-41
3.07 5.58 1.39 9.1477e-41
3.25 5.58 2.02 9.1477e-41
3.31 5.58 2.13 9.1477e-41
3.33 5.58 2.09 9.1477e-41
3.33 5.58 1.89 9.1477e-41
3.31 5.58 1.62 9.1477e-41
3.34 5.58 1.57 9.1477e-41
0.88 5.67 2.17 9.1477e-41
0.88 5.67 2.1 9.1477e-41
0.87 5.67 2.04 9.1477e-41
0.88 5.67 1.98 9.1477e-41
0.87 5.67 1.9 9.1477e-41
0.87 5.67 1.83 9.1477e-41
0.87 5.67 1.76 9.1477e-41
0.86 5.67 1.68 9.1477e-41
0.87 5.67 1.62 9.1477e-41
0.86 5.67 1.54 9.1477e-41
0.86 5.67 1.46 9.1477e-41
0.88 5.67 1.41 9.1477e-41
0.94 5.67 1.41 9.1477e-41
1 5.67 1.41 9.1477e-41
1.05 5.67 1.4 9.1477e-41
1.11 5.67 1.41 9.1477e-41
1.16 5.67 1.41 9.1477e-41
1.22 5.67 1.41 9.1477e-41
1.27 5.67 1.41 9.1477e-41
1.32 5.67 1.41 9.1477e-41
1.38 5.67 1.41 9.1477e-41
1.42 5.67 1.4 9.1477e-41
1.48 5.67 1.4 9.1477e-41
1.52 5.67 1.4 9.1477e-41
1.57 5.67 1.39 9.1477e-41
1.63 5.67 1.4 9.1477e-41
1.68 5.67 1.4 9.1477e-41
1.72 5.67 1.4 9.1477e-41
1.78 5.67 1.4 9.1477e-41
1.82 5.67 1.4 9.1477e-41
1.87 5.67 1.4 9.1477e-41
1.92 5.67 1.4 9.1477e-41
1.96 5.67 1.4 9.1477e-41
2.01 5.67 1.41 9.1477e-41
2.05 5.67 1.39 9.1477e-41
2.1 5.67 1.4 9.1477e-41
2.15 5.67 1.4 9.1477e-41
2.19 5.67 1.39 9.1477e-41
2.23 5.67 1.39 9.1477e-41
2.27 5.67 1.39 9.1477e-41
2.32 5.67 1.4 9.1477e-41
2.36 5.67 1.39 9.1477e-41
2.41 5.67 1.4 9.1477e-41
2.45 5.67 1.4 9.1477e-41
2.49 5.67 1.39 9.1477e-41
2.54 5.67 1.39 9.1477e-41
2.58 5.67 1.39 9.1477e-41
2.62 5.67 1.39 9.1477e-41
2.66 5.67 1.39 9.1477e-41
2.7 5.67 1.4 9.1477e-41
2.74 5.67 1.39 9.1477e-41
2.79 5.67 1.39 9.1477e-41
2.83 5.67 1.39 9.1477e-41
2.87 5.67 1.4 9.1477e-41
2.91 5.67 1.4 9.1477e-41
2.95 5.67 1.39 9.1477e-41
2.99 5.67 1.4 9.1477e-41
3.03 5.67 1.4 9.1477e-41
3.07 5.67 1.4 9.1477e-41
3.1 5.67 1.36 9.1477e-41
3.31 5.67 2.14 9.1477e-41
3.33 5.67 2.09 9.1477e-41
3.33 5.67 1.89 9.1477e-41
3.31 5.67 1.63 9.1477e-41
3.33 5.67 1.56 9.1477e-41
3.32 5.67 1.28 9.1477e-41
0.88 5.76 2.17 9.1477e-41
0.88 5.76 2.1 9.1477e-41
0.87 5.76 2.04 9.1477e-41
0.88 5.76 1.98 9.1477e-41
0.87 5.76 1.9 9.1477e-41
0.87 5.76 1.83 9.1477e-41
0.87 5.76 1.76 9.1477e-41
0.87 5.76 1.7 9.1477e-41
0.86 5.76 1.61 9.1477e-41
0.86 5.76 1.54 9.1477e-41
0.86 5.76 1.46 9.1477e-41
0.88 5.76 1.4 9.1477e-41
0.94 5.76 1.41 9.1477e-41
1 5.76 1.41 9.1477e-41
1.05 5.76 1.41 9.1477e-41
1.11 5.76 1.41 9.1477e-41
1.16 5.76 1.41 9.1477e-41
1.22 5.76 1.41 9.1477e-41
1.27 5.76 1.41 9.1477e-41
1.32 5.76 1.41 9.1477e-41
1.38 5.76 1.41 9.1477e-41
1.43 5.76 1.41 9.1477e-41
1.48 5.76 1.4 9.1477e-41
1.53 5.76 1.41 9.1477e-41
1.58 5.76 1.4 9.1477e-41
1.63 5.76 1.41 9.1477e-41
1.68 5.76 1.4 9.1477e-41
1.72 5.76 1.4 9.1477e-41
1.78 5.76 1.4 9.1477e-41
1.82 5.76 1.4 9.1477e-41
1.87 5.76 1.4 9.1477e-41
1.92 5.76 1.41 9.1477e-41
1.97 5.76 1.41 9.1477e-41
2.01 5.76 1.4 9.1477e-41
2.05 5.76 1.4 9.1477e-41
2.1 5.76 1.41 9.1477e-41
2.15 5.76 1.4 9.1477e-41
2.19 5.76 1.4 9.1477e-41
2.24 5.76 1.4 9.1477e-41
2.28 5.76 1.4 9.1477e-41
2.32 5.76 1.4 9.1477e-41
2.37 5.76 1.4 9.1477e-41
2.41 5.76 1.4 9.1477e-41
2.45 5.76 1.39 9.1477e-41
2.49 5.76 1.39 9.1477e-41
2.54 5.76 1.39 9.1477e-41
2.58 5.76 1.4 9.1477e-41
2.62 5.76 1.39 9.1477e-41
2.66 5.76 1.4 9.1477e-41
2.7 5.76 1.4 9.1477e-41
2.74 5.76 1.39 9.1477e-41
2.79 5.76 1.39 9.1477e-41
2.83 5.76 1.4 9.1477e-41
2.87 5.76 1.4 9.1477e-41
2.91 5.76 1.4 9.1477e-41
2.95 5.76 1.4 9.1477e-41
2.99 5.76 1.4 9.1477e-41
3.03 5.76 1.4 9.1477e-41
3.07 5.76 1.39 9.1477e-41
3.1 5.76 1.35 9.1477e-41
3.31 5.76 2.14 9.1477e-41
3.34 5.76 2.1 9.1477e-41
3.33 5.76 1.9 9.1477e-41
3.31 5.76 1.63 9.1477e-41
3.34 5.76 1.57 9.1477e-41
3.31 5.76 1.23 9.1477e-41
3.27 5.76 0.75 9.1477e-41
3.3 5.76 0.66 9.1477e-41
0.87 5.85 2.16 9.1477e-41
0.88 5.85 2.1 9.1477e-41
0.87 5.85 2.04 9.1477e-41
0.87 5.85 1.97 9.1477e-41
0.87 5.85 1.9 9.1477e-41
0.87 5.85 1.83 9.1477e-41
0.87 5.85 1.76 9.1477e-41
0.87 5.85 1.69 9.1477e-41
0.86 5.85 1.61 9.1477e-41
0.86 5.85 1.53 9.1477e-41
0.86 5.85 1.45 9.1477e-41
0.88 5.85 1.41 9.1477e-41
0.94 5.85 1.41 9.1477e-41
1 5.85 1.41 9.1477e-41
1.05 5.85 1.41 9.1477e-41
1.11 5.85 1.42 9.1477e-41
1.17 5.85 1.41 9.1477e-41
1.22 5.85 1.41 9.1477e-41
1.27 5.85 1.41 9.1477e-41
1.32 5.85 1.41 9.1477e-41
1.38 5.85 1.41 9.1477e-41
1.43 5.85 1.41 9.1477e-41
1.48 5.85 1.4 9.1477e-41
1.53 5.85 1.41 9.1477e-41
1.58 5.85 1.4 9.1477e-41
1.63 5.85 1.41 9.1477e-41
1.68 5.85 1.4 9.1477e-41
1.73 5.85 1.41 9.1477e-41
1.77 5.85 1.4 9.1477e-41
1.82 5.85 1.39 9.1477e-41
1.87 5.85 1.4 9.1477e-41
1.92 5.85 1.4 9.1477e-41
1.96 5.85 1.4 9.1477e-41
2.01 5.85 1.4 9.1477e-41
2.05 5.85 1.4 9.1477e-41
2.1 5.85 1.4 9.1477e-41
2.15 5.85 1.4 9.1477e-41
2.19 5.85 1.4 9.1477e-41
2.24 5.85 1.4 9.1477e-41
2.28 5.85 1.4 9.1477e-41
2.32 5.85 1.4 9.1477e-41
2.36 5.85 1.39 9.1477e-41
2.41 5.85 1.4 9.1477e-41
2.45 5.85 1.39 9.1477e-41
2.49 5.85 1.39 9.1477e-41
2.54 5.85 1.39 9.1477e-41
2.58 5.85 1.4 9.1477e-41
2.62 5.85 1.4 9.1477e-41
2.66 5.85 1.4 9.1477e-41
2.7 5.85 1.4 9.1477e-41
2.74 5.85 1.39 9.1477e-41
2.79 5.85 1.39 9.1477e-41
2.83 5.85 1.4 9.1477e-41
2.87 5.85 1.4 9.1477e-41
2.91 5.85 1.4 9.1477e-41
2.95 5.85 1.4 9.1477e-41
2.99 5.85 1.39 9.1477e-41
3.03 5.85 1.4 9.1477e-41
3.07 5.85 1.4 9.1477e-41
3.26 5.85 2.06 9.1477e-41
3.31 5.85 2.15 9.1477e-41
3.33 5.85 2.07 9.1477e-41
3.33 5.85 1.89 9.1477e-41
3.31 5.85 1.63 9.1477e-41
3.34 5.85 1.63 3.57e-43
3.31 5.85 1.23 9.1477e-41
3.29 5.85 0.86 9.1477e-41
3.32 5.85 0.77 9.1477e-41
3.33 5.85 0.54 9.1477e-41
0.88 5.94 2.17 9.1477e-41
0.88 5.94 2.1 9.1477e-41
0.87 5.94 2.04 9.1477e-41
0.87 5.94 1.97 9.1477e-41
0.87 5.94 1.9 9.1477e-41
0.87 5.94 1.83 9.1477e-41
0.87 5.94 1.76 9.1477e-41
0.87 5.94 1.7 9.1477e-41
0.86 5.94 1.61 9.1477e-41
0.86 5.94 1.53 9.1477e-41
0.86 5.94 1.45 9.1477e-41
0.88 5.94 1.41 9.1477e-41
0.94 5.94 1.41 9.1477e-41
1 5.94 1.41 9.1477e-41
1.05 5.94 1.41 9.1477e-41
1.11 5.94 1.41 9.1477e-41
1.16 5.94 1.41 9.1477e-41
1.22 5.94 1.41 9.1477e-41
1.27 5.94 1.41 9.1477e-41
1.32 5.94 1.41 9.1477e-41
1.38 5.94 1.41 9.1477e-41
1.42 5.94 1.4 9.1477e-41
1.48 5.94 1.4 9.1477e-41
1.53 5.94 1.41 9.1477e-41
1.57 5.94 1.39 9.1477e-41
1.63 5.94 1.4 9.1477e-41
1.68 5.94 1.4 9.1477e-41
1.72 5.94 1.4 9.1477e-41
1.78 5.94 1.4 9.1477e-41
1.82 5.94 1.4 9.1477e-41
1.87 5.94 1.4 9.1477e-41
1.92 5.94 1.41 9.1477e-41
1.96 5.94 1.4 9.1477e-41
2.01 5.94 1.4 9.1477e-41
2.05 5.94 1.4 9.1477e-41
2.1 5.94 1.4 9.1477e-41
2.15 5.94 1.4 9.1477e-41
2.19 5.94 1.4 9.1477e-41
2.23 5.94 1.39 9.1477e-41
2.28 5.94 1.4 9.1477e-41
2.33 5.94 1.41 9.1477e-41
2.37 5.94 1.4 9.1477e-41
2.41 5.94 1.39 9.1477e-41
2.45 5.94 1.4 9.1477e-41
2.49 5.94 1.39 9.1477e-41
2.54 5.94 1.4 9.1477e-41
2.58 5.94 1.39 9.1477e-41
2.62 5.94 1.39 9.1477e-41
2.66 5.94 1.4 9.1477e-41
2.7 5.94 1.4 9.1477e-41
2.74 5.94 1.39 9.1477e-41
2.79 5.94 1.39 9.1477e-41
2.83 5.94 1.4 9.1477e-41
2.87 5.94 1.39 9.1477e-41
2.91 5.94 1.41 9.1477e-41
2.95 5.94 1.39 9.1477e-41
2.99 5.94 1.4 9.1477e-41
3.03 5.94 1.4 9.1477e-41
3.07 5.94 1.4 9.1477e-41
3.26 5.94 2.05 9.1477e-41
3.32 5.94 2.16 9.1477e-41
3.33 5.94 2.08 9.1477e-41
3.32 5.94 1.88 9.1477e-41
3.31 5.94 1.62 9.1477e-41
3.34 5.94 1.57 9.1477e-41
3.29 5.94 1.12 9.1477e-41
3.3 5.94 0.94 9.1477e-41
3.32 5.94 0.81 9.1477e-41
3.31 5.94 0.42 9.1477e-41
0.88 6.03 2.17 9.1477e-41
0.88 6.03 2.1 9.1477e-41
0.87 6.03 2.03 9.1477e-41
0.87 6.03 1.97 9.1477e-41
0.87 6.03 1.9 9.1477e-41
0.87 6.03 1.83 9.1477e-41
0.86 6.03 1.76 9.1477e-41
0.87 6.03 1.69 9.1477e-41
0.86 6.03 1.61 9.1477e-41
0.86 6.03 1.53 9.1477e-41
0.86 6.03 1.45 9.1477e-41
0.89 6.03 1.42 9.1477e-41
0.94 6.03 1.41 9.1477e-41
1 6.03 1.41 9.1477e-41
1.05 6.03 1.41 9.1477e-41
1.11 6.03 1.42 9.1477e-41
1.17 6.03 1.41 9.1477e-41
1.22 6.03 1.41 9.1477e-41
1.27 6.03 1.41 9.1477e-41
1.33 6.03 1.41 9.1477e-41
1.38 6.03 1.41 9.1477e-41
1.43 6.03 1.41 9.1477e-41
1.48 6.03 1.4 9.1477e-41
1.53 6.03 1.41 9.1477e-41
1.58 6.03 1.41 9.1477e-41
1.63 6.03 1.41 9.1477e-41
1.68 6.03 1.4 9.1477e-41
1.72 6.03 1.4 9.1477e-41
1.78 6.03 1.4 9.1477e-41
1.83 6.03 1.41 9.1477e-41
1.87 6.03 1.41 9.1477e-41
1.92 6.03 1.4 9.1477e-41
1.96 6.03 1.4 9.1477e-41
2.01 6.03 1.4 9.1477e-41
2.06 6.03 1.41 9.1477e-41
2.1 6.03 1.4 9.1477e-41
2.15 6.03 1.41 9.1477e-41
2.19 6.03 1.4 9.1477e-41
2.23 6.03 1.39 9.1477e-41
2.28 6.03 1.39 9.1477e-41
2.32 6.03 1.39 9.1477e-41
2.37 6.03 1.4 9.1477e-41
2.41 6.03 1.4 9.1477e-41
2.45 6.03 1.4 9.1477e-41
2.49 6.03 1.39 9.1477e-41
2.54 6.03 1.39 9.1477e-41
2.58 6.03 1.4 9.1477e-41
2.62 6.03 1.39 9.1477e-41
2.66 6.03 1.4 9.1477e-41
2.7 6.03 1.4 9.1477e-41
2.74 6.03 1.39 9.1477e-41
2.79 6.03 1.4 9.1477e-41
2.83 6.03 1.4 9.1477e-41
2.87 6.03 1.4 9.1477e-41
2.91 6.03 1.4 9.1477e-41
2.95 6.03 1.4 9.1477e-41
2.99 6.03 1.39 9.1477e-41
3.03 6.03 1.4 9.1477e-41
3.07 6.03 1.4 9.1477e-41
3.26 6.03 2.07 9.1477e-41
3.32 6.03 2.17 9.1477e-41
3.33 6.03 2.08 9.1477e-41
3.32 6.03 1.88 9.1477e-41
3.31 6.03 1.62 9.1477e-41
3.34 6.03 1.57 9.1477e-41
3.29 6.03 1.14 9.1477e-41
3.31 6.03 0.98 9.1477e-41
0.88 6.12 2.17 9.1477e-41
0.88 6.12 2.1 9.1477e-41
0.87 6.12 2.04 9.1477e-41
0.87 6.12 1.97 9.1477e-41
0.87 6.12 1.9 9.1477e-41
0.87 6.12 1.83 9.1477e-41
0.87 6.12 1.76 9.1477e-41
0.87 6.12 1.69 9.1477e-41
0.86 6.12 1.61 9.1477e-41
0.86 6.12 1.54 9.1477e-41
0.86 6.12 1.45 9.1477e-41
0.89 6.12 1.42 9.1477e-41
0.94 6.12 1.41 9.1477e-41
1 6.12 1.41 9.1477e-41
1.05 6.12 1.41 9.1477e-41
1.11 6.12 1.41 9.1477e-41
1.16 6.12 1.41 9.1477e-41
1.22 6.12 1.41 9.1477e-41
1.27 6.12 1.41 9.1477e-41
1.32 6.12 1.4 9.1477e-41
1.38 6.12 1.41 9.1477e-41
1.43 6.12 1.41 9.1477e-41
1.48 6.12 1.4 9.1477e-41
1.53 6.12 1.41 9.1477e-41
1.58 6.12 1.4 9.1477e-41
1.63 6.12 1.41 9.1477e-41
1.68 6.12 1.4 9.1477e-41
1.72 6.12 1.4 9.1477e-41
1.78 6.12 1.4 9.1477e-41
1.82 6.12 1.4 9.1477e-41
1.87 6.12 1.41 9.1477e-41
1.92 6.12 1.4 9.1477e-41
1.97 6.12 1.41 9.1477e-41
2.01 6.12 1.4 9.1477e-41
2.05 6.12 1.4 9.1477e-41
2.1 6.12 1.4 9.1477e-41
2.15 6.12 1.4 9.1477e-41
2.2 6.12 1.41 9.1477e-41
2.23 6.12 1.39 9.1477e-41
2.28 6.12 1.39 9.1477e-41
2.32 6.12 1.4 9.1477e-41
2.36 6.12 1.39 9.1477e-41
2.41 6.12 1.4 9.1477e-41
2.45 6.12 1.39 9.1477e-41
2.49 6.12 1.39 9.1477e-41
2.54 6.12 1.39 9.1477e-41
2.58 6.12 1.4 9.1477e-41
2.62 6.12 1.39 9.1477e-41
2.66 6.12 1.4 9.1477e-41
2.7 6.12 1.4 9.1477e-41
2.75 6.12 1.4 9.1477e-41
2.79 6.12 1.4 9.1477e-41
2.83 6.12 1.39 9.1477e-41
2.87 6.12 1.4 9.1477e-41
2.91 6.12 1.4 9.1477e-41
2.95 6.12 1.4 9.1477e-41
2.99 6.12 1.4 9.1477e-41
3.03 6.12 1.4 9.1477e-41
3.07 6.12 1.4 9.1477e-41
3.26 6.12 2.06 9.1477e-41
3.32 6.12 2.18 9.1477e-41
3.33 6.12 2.06 9.1477e-41
3.32 6.12 1.88 9.1477e-41
3.31 6.12 1.61 9.1477e-41
3.34 6.12 1.57 9.1477e-41
3.3 6.12 1.15 9.1477e-41
3.31 6.12 1 9.1477e-41
0.88 6.21 2.17 9.1477e-41
0.88 6.21 2.1 9.1477e-41
0.87 6.21 2.04 9.1477e-41
0.87 6.21 1.97 9.1477e-41
0.87 6.21 1.9 9.1477e-41
0.87 6.21 1.84 9.1477e-41
0.87 6.21 1.76 9.1477e-41
0.87 6.21 1.69 9.1477e-41
0.86 6.21 1.61 9.1477e-41
0.86 6.21 1.54 9.1477e-41
0.86 6.21 1.46 9.1477e-41
0.88 6.21 1.41 9.1477e-41
0.95 6.21 1.42 9.1477e-41
1 6.21 1.41 9.1477e-41
1.05 6.21 1.41 9.1477e-41
1.11 6.21 1.41 9.1477e-41
1.16 6.21 1.41 9.1477e-41
1.22 6.21 1.41 9.1477e-41
1.27 6.21 1.41 9.1477e-41
1.32 6.21 1.41 9.1477e-41
1.38 6.21 1.41 9.1477e-41
1.42 6.21 1.4 9.1477e-41
1.48 6.21 1.41 9.1477e-41
1.52 6.21 1.4 9.1477e-41
1.58 6.21 1.4 9.1477e-41
1.63 6.21 1.4 9.1477e-41
1.68 6.21 1.41 9.1477e-41
1.73 6.21 1.41 9.1477e-41
1.78 6.21 1.4 9.1477e-41
1.82 6.21 1.4 9.1477e-41
1.87 6.21 1.4 9.1477e-41
1.92 6.21 1.4 9.1477e-41
1.96 6.21 1.4 9.1477e-41
2.01 6.21 1.4 9.1477e-41
2.05 6.21 1.4 9.1477e-41
2.1 6.21 1.4 9.1477e-41
2.14 6.21 1.39 9.1477e-41
2.19 6.21 1.4 9.1477e-41
2.23 6.21 1.39 9.1477e-41
2.28 6.21 1.39 9.1477e-41
2.32 6.21 1.39 9.1477e-41
2.36 6.21 1.39 9.1477e-41
2.41 6.21 1.4 9.1477e-41
2.45 6.21 1.4 9.1477e-41
2.49 6.21 1.39 9.1477e-41
2.54 6.21 1.39 9.1477e-41
2.58 6.21 1.4 9.1477e-41
2.62 6.21 1.39 9.1477e-41
2.66 6.21 1.39 9.1477e-41
2.7 6.21 1.4 9.1477e-41
2.74 6.21 1.39 9.1477e-41
2.79 6.21 1.4 9.1477e-41
2.83 6.21 1.4 9.1477e-41
2.87 6.21 1.41 9.1477e-41
2.91 6.21 1.4 9.1477e-41
2.95 6.21 1.41 9.1477e-41
2.99 6.21 1.39 9.1477e-41
3.03 6.21 1.41 9.1477e-41
3.07 6.21 1.4 9.1477e-41
3.26 6.21 2.08 9.1477e-41
3.32 6.21 2.18 9.1477e-41
3.33 6.21 2.07 9.1477e-41
3.32 6.21 1.88 9.1477e-41
3.31 6.21 1.61 9.1477e-41
3.33 6.21 1.56 9.1477e-41
3.31 6.21 1.24 9.1477e-41
3.31 6.21 1.01 9.1477e-41
0.89 6.3 2.17 9.1477e-41
0.88 6.3 2.11 9.1477e-41
0.87 6.3 2.04 9.1477e-41
0.88 6.3 1.98 9.1477e-41
0.87 6.3 1.9 9.1477e-41
0.87 6.3 1.84 9.1477e-41
0.87 6.3 1.76 9.1477e-41
0.87 6.3 1.7 9.1477e-41
0.87 6.3 1.62 9.1477e-41
0.87 6.3 1.55 9.1477e-41
0.86 6.3 1.46 9.1477e-41
0.89 6.3 1.42 9.1477e-41
0.94 6.3 1.41 9.1477e-41
1 6.3 1.41 9.1477e-41
1.05 6.3 1.41 9.1477e-41
1.11 6.3 1.41 9.1477e-41
1.17 6.3 1.41 9.1477e-41
1.22 6.3 1.41 9.1477e-41
1.27 6.3 1.41 9.1477e-41
1.32 6.3 1.41 9.1477e-41
1.38 6.3 1.41 9.1477e-41
1.42 6.3 1.4 9.1477e-41
1.48 6.3 1.4 9.1477e-41
1.53 6.3 1.41 9.1477e-41
1.58 6.3 1.4 9.1477e-41
1.63 6.3 1.4 9.1477e-41
1.68 6.3 1.4 9.1477e-41
1.73 6.3 1.41 9.1477e-41
1.78 6.3 1.4 9.1477e-41
1.82 6.3 1.4 9.1477e-41
1.87 6.3 1.4 9.1477e-41
1.92 6.3 1.4 9.1477e-41
1.96 6.3 1.4 9.1477e-41
2.01 6.3 1.4 9.1477e-41
2.05 6.3 1.4 9.1477e-41
2.1 6.3 1.4 9.1477e-41
2.15 6.3 1.4 9.1477e-41
2.19 6.3 1.4 9.1477e-41
2.23 6.3 1.39 9.1477e-41
2.28 6.3 1.4 9.1477e-41
2.32 6.3 1.39 9.1477e-41
2.36 6.3 1.39 9.1477e-41
2.41 6.3 1.4 9.1477e-41
2.45 6.3 1.39 9.1477e-41
2.49 6.3 1.39 9.1477e-41
2.54 6.3 1.4 9.1477e-41
2.58 6.3 1.4 9.1477e-41
2.62 6.3 1.4 9.1477e-41
2.66 6.3 1.4 9.1477e-41
2.71 6.3 1.4 9.1477e-41
2.75 6.3 1.41 9.1477e-41
2.79 6.3 1.39 9.1477e-41
2.83 6.3 1.41 9.1477e-41
2.87 6.3 1.4 9.1477e-41
2.91 6.3 1.4 9.1477e-41
2.95 6.3 1.41 9.1477e-41
2.99 6.3 1.4 9.1477e-41
3.03 6.3 1.4 9.1477e-41
3.07 6.3 1.4 9.1477e-41
3.27 6.3 2.09 9.1477e-41
3.32 6.3 2.18 9.1477e-41
3.33 6.3 2.06 9.1477e-41
3.32 6.3 1.88 9.1477e-41
3.31 6.3 1.61 9.1477e-41
3.33 6.3 1.56 9.1477e-41
3.29 6.3 1.11 9.1477e-41
3.31 6.3 1.01 9.1477e-41
0.85 6.39 2.19 9.1477e-41
0.85 6.39 2.14 9.1477e-41
0.86 6.39 2.08 9.1477e-41
0.85 6.39 2.01 9.1477e-41
0.85 6.39 1.94 9.1477e-41
0.85 6.39 1.87 9.1477e-41
0.85 6.39 1.81 9.1477e-41
0.87 6.39 1.76 9.1477e-41
0.87 6.39 1.7 9.1477e-41
0.86 6.39 1.61 9.1477e-41
0.86 6.39 1.54 9.1477e-41
0.87 6.39 1.47 9.1477e-41
0.89 6.39 1.42 9.1477e-41
0.94 6.39 1.41 9.1477e-41
1 6.39 1.41 9.1477e-41
1.06 6.39 1.42 9.1477e-41
1.11 6.39 1.41 9.1477e-41
1.17 6.39 1.41 9.1477e-41
1.22 6.39 1.41 9.1477e-41
1.27 6.39 1.41 9.1477e-41
1.33 6.39 1.41 9.1477e-41
1.38 6.39 1.41 9.1477e-41
1.43 6.39 1.41 9.1477e-41
1.47 6.39 1.39 9.1477e-41
1.53 6.39 1.41 9.1477e-41
1.58 6.39 1.4 9.1477e-41
1.63 6.39 1.41 9.1477e-41
1.68 6.39 1.4 9.1477e-41
1.73 6.39 1.41 9.1477e-41
1.78 6.39 1.4 9.1477e-41
1.82 6.39 1.4 9.1477e-41
1.87 6.39 1.41 9.1477e-41
1.92 6.39 1.4 9.1477e-41
1.96 6.39 1.4 9.1477e-41
2.01 6.39 1.41 9.1477e-41
2.06 6.39 1.41 9.1477e-41
2.1 6.39 1.41 9.1477e-41
2.15 6.39 1.41 9.1477e-41
2.19 6.39 1.4 9.1477e-41
2.24 6.39 1.4 9.1477e-41
2.28 6.39 1.39 9.1477e-41
2.32 6.39 1.4 9.1477e-41
2.36 6.39 1.39 9.1477e-41
2.41 6.39 1.4 9.1477e-41
2.45 6.39 1.39 9.1477e-41
2.49 6.39 1.39 9.1477e-41
2.54 6.39 1.4 9.1477e-41
2.58 6.39 1.4 9.1477e-41
2.62 6.39 1.4 9.1477e-41
2.66 6.39 1.39 9.1477e-41
2.71 6.39 1.4 9.1477e-41
2.75 6.39 1.4 9.1477e-41
2.79 6.39 1.39 9.1477e-41
2.83 6.39 1.41 9.1477e-41
2.87 6.39 1.39 9.1477e-41
2.91 6.39 1.42 9.1477e-41
2.95 6.39 1.4 9.1477e-41
2.99 6.39 1.41 9.1477e-41
3.03 6.39 1.4 9.1477e-41
3.07 6.39 1.4 9.1477e-41
3.1 6.39 1.38 9.1477e-41
3.32 6.39 2.19 9.1477e-41
3.32 6.39 2.03 9.1477e-41
3.32 6.39 1.87 9.1477e-41
3.32 6.39 1.7 9.1477e-41
3.32 6.39 1.49 9.1477e-41
3.31 6.39 1.23 9.1477e-41
3.31 6.39 0.99 9.1477e-41
3.32 6.39 0.76 9.1477e-41
0.86 6.48 2.21 9.1477e-41
0.86 6.48 2.14 9.1477e-41
0.86 6.48 2.09 9.1477e-41
0.86 6.48 2.02 9.1477e-41
0.87 6.48 1.96 9.1477e-41
0.86 6.48 1.89 9.1477e-41
0.86 6.48 1.81 9.1477e-41
0.86 6.48 1.75 9.1477e-41
0.86 6.48 1.68 9.1477e-41
0.86 6.48 1.61 9.1477e-41
0.85 6.48 1.52 9.1477e-41
0.86 6.48 1.46 9.1477e-41
0.88 6.48 1.41 9.1477e-41
0.94 6.48 1.41 9.1477e-41
1 6.48 1.42 9.1477e-41
1.06 6.48 1.42 9.1477e-41
1.11 6.48 1.42 9.1477e-41
1.16 6.48 1.41 9.1477e-41
1.22 6.48 1.41 9.1477e-41
1.27 6.48 1.41 9.1477e-41
1.32 6.48 1.4 9.1477e-41
1.37 6.48 1.4 9.1477e-41
1.43 6.48 1.41 9.1477e-41
1.48 6.48 1.4 9.1477e-41
1.53 6.48 1.41 9.1477e-41
1.58 6.48 1.4 9.1477e-41
1.63 6.48 1.41 9.1477e-41
1.68 6.48 1.4 9.1477e-41
1.73 6.48 1.41 9.1477e-41
1.78 6.48 1.4 9.1477e-41
1.82 6.48 1.4 9.1477e-41
1.87 6.48 1.41 9.1477e-41
1.92 6.48 1.4 9.1477e-41
1.97 6.48 1.41 9.1477e-41
2.01 6.48 1.4 9.1477e-41
2.06 6.48 1.41 9.1477e-41
2.1 6.48 1.41 9.1477e-41
2.15 6.48 1.4 9.1477e-41
2.19 6.48 1.4 9.1477e-41
2.24 6.48 1.4 9.1477e-41
2.28 6.48 1.4 9.1477e-41
2.32 6.48 1.39 9.1477e-41
2.36 6.48 1.39 9.1477e-41
2.41 6.48 1.4 9.1477e-41
2.45 6.48 1.4 9.1477e-41
2.49 6.48 1.39 9.1477e-41
2.54 6.48 1.4 9.1477e-41
2.58 6.48 1.4 9.1477e-41
2.62 6.48 1.4 9.1477e-41
2.66 6.48 1.4 9.1477e-41
2.7 6.48 1.4 9.1477e-41
2.75 6.48 1.41 9.1477e-41
2.79 6.48 1.4 9.1477e-41
2.83 6.48 1.4 9.1477e-41
2.87 6.48 1.4 9.1477e-41
2.91 6.48 1.4 9.1477e-41
2.95 6.48 1.41 9.1477e-41
2.99 6.48 1.41 9.1477e-41
3.03 6.48 1.41 9.1477e-41
3.07 6.48 1.4 9.1477e-41
3.1 6.48 1.37 9.1477e-41
3.14 6.48 1.35 9.1477e-41
3.32 6.48 2.05 9.1477e-41
3.32 6.48 1.88 9.1477e-41
3.32 6.48 1.7 9.1477e-41
3.32 6.48 1.5 9.1477e-41
3.33 6.48 1.31 9.1477e-41
3.3 6.48 0.94 9.1477e-41
3.32 6.48 0.81 9.1477e-41
3.31 6.48 0.42 9.1477e-41
0.86 6.57 2.2 9.1477e-41
0.85 6.57 2.14 9.1477e-41
0.86 6.57 2.08 9.1477e-41
0.85 6.57 2.01 9.1477e-41
0.85 6.57 1.94 9.1477e-41
0.85 6.57 1.88 9.1477e-41
0.86 6.57 1.81 9.1477e-41
0.85 6.57 1.74 9.1477e-41
0.85 6.57 1.66 9.1477e-41
0.86 6.57 1.61 9.1477e-41
0.86 6.57 1.53 9.1477e-41
0.85 6.57 1.45 9.1477e-41
0.88 6.57 1.41 9.1477e-41
0.95 6.57 1.42 9.1477e-41
1 6.57 1.41 9.1477e-41
1.06 6.57 1.42 9.1477e-41
1.11 6.57 1.42 9.1477e-41
1.17 6.57 1.41 9.1477e-41
1.22 6.57 1.41 9.1477e-41
1.27 6.57 1.41 9.1477e-41
1.32 6.57 1.41 9.1477e-41
1.38 6.57 1.41 9.1477e-41
1.43 6.57 1.41 9.1477e-41
1.48 6.57 1.4 9.1477e-41
1.53 6.57 1.41 9.1477e-41
1.58 6.57 1.4 9.1477e-41
1.63 6.57 1.41 9.1477e-41
1.68 6.57 1.4 9.1477e-41
1.73 6.57 1.41 9.1477e-41
1.78 6.57 1.4 9.1477e-41
1.82 6.57 1.4 9.1477e-41
1.87 6.57 1.41 9.1477e-41
1.92 6.57 1.4 9.1477e-41
1.97 6.57 1.41 9.1477e-41
2.01 6.57 1.4 9.1477e-41
2.06 6.57 1.41 9.1477e-41
2.1 6.57 1.4 9.1477e-41
2.15 6.57 1.4 9.1477e-41
2.2 6.57 1.41 9.1477e-41
2.24 6.57 1.4 9.1477e-41
2.28 6.57 1.39 9.1477e-41
2.32 6.57 1.4 9.1477e-41
2.37 6.57 1.4 9.1477e-41
2.41 6.57 1.4 9.1477e-41
2.45 6.57 1.4 9.1477e-41
2.49 6.57 1.39 9.1477e-41
2.54 6.57 1.4 9.1477e-41
2.58 6.57 1.39 9.1477e-41
2.62 6.57 1.4 9.1477e-41
2.66 6.57 1.4 9.1477e-41
2.71 6.57 1.4 9.1477e-41
2.75 6.57 1.4 9.1477e-41
2.79 6.57 1.4 9.1477e-41
2.83 6.57 1.4 9.1477e-41
2.87 6.57 1.41 9.1477e-41
2.91 6.57 1.41 9.1477e-41
2.95 6.57 1.4 9.1477e-41
2.99 6.57 1.42 9.1477e-41
3.03 6.57 1.41 9.1477e-41
3.07 6.57 1.41 9.1477e-41
3.27 6.57 2.12 9.1477e-41
3.32 6.57 2.19 9.1477e-41
3.32 6.57 2.03 9.1477e-41
3.33 6.57 1.89 9.1477e-41
3.31 6.57 1.64 9.1477e-41
3.33 6.57 1.56 9.1477e-41
3.28 6.57 1.07 9.1477e-41
3.29 6.57 0.87 9.1477e-41
3.32 6.57 0.78 9.1477e-41
3.33 6.57 0.54 9.1477e-41
0.86 6.66 2.21 9.1477e-41
0.85 6.66 2.14 9.1477e-41
0.86 6.66 2.08 9.1477e-41
0.85 6.66 2.01 9.1477e-41
0.86 6.66 1.95 9.1477e-41
0.85 6.66 1.88 9.1477e-41
0.86 6.66 1.81 9.1477e-41
0.85 6.66 1.74 9.1477e-41
0.85 6.66 1.67 9.1477e-41
0.85 6.66 1.6 9.1477e-41
0.85 6.66 1.52 9.1477e-41
0.86 6.66 1.45 9.1477e-41
0.88 6.66 1.41 9.1477e-41
0.94 6.66 1.41 9.1477e-41
1 6.66 1.41 9.1477e-41
1.06 6.66 1.42 9.1477e-41
1.12 6.66 1.42 9.1477e-41
1.17 6.66 1.41 9.1477e-41
1.22 6.66 1.41 9.1477e-41
1.27 6.66 1.41 9.1477e-41
1.32 6.66 1.41 9.1477e-41
1.38 6.66 1.41 9.1477e-41
1.43 6.66 1.41 9.1477e-41
1.48 6.66 1.4 9.1477e-41
1.53 6.66 1.41 9.1477e-41
1.58 6.66 1.4 9.1477e-41
1.63 6.66 1.41 9.1477e-41
1.68 6.66 1.41 9.1477e-41
1.72 6.66 1.4 9.1477e-41
1.78 6.66 1.4 9.1477e-41
1.82 6.66 1.4 9.1477e-41
1.87 6.66 1.41 9.1477e-41
1.92 6.66 1.41 9.1477e-41
1.97 6.66 1.41 9.1477e-41
2.01 6.66 1.41 9.1477e-41
2.06 6.66 1.41 9.1477e-41
2.1 6.66 1.4 9.1477e-41
2.15 6.66 1.41 9.1477e-41
2.19 6.66 1.39 9.1477e-41
2.23 6.66 1.39 9.1477e-41
2.28 6.66 1.4 9.1477e-41
2.32 6.66 1.4 9.1477e-41
2.37 6.66 1.4 9.1477e-41
2.41 6.66 1.4 9.1477e-41
2.45 6.66 1.4 9.1477e-41
2.49 6.66 1.39 9.1477e-41
2.54 6.66 1.4 9.1477e-41
2.58 6.66 1.4 9.1477e-41
2.62 6.66 1.4 9.1477e-41
2.66 6.66 1.4 9.1477e-41
2.71 6.66 1.4 9.1477e-41
2.74 6.66 1.39 9.1477e-41
2.79 6.66 1.4 9.1477e-41
2.83 6.66 1.41 9.1477e-41
2.87 6.66 1.4 9.1477e-41
2.91 6.66 1.41 9.1477e-41
2.95 6.66 1.4 9.1477e-41
2.99 6.66 1.41 9.1477e-41
3.03 6.66 1.41 9.1477e-41
3.07 6.66 1.41 9.1477e-41
3.27 6.66 2.11 9.1477e-41
3.32 6.66 2.19 9.1477e-41
3.32 6.66 2.03 9.1477e-41
3.32 6.66 1.86 9.1477e-41
3.31 6.66 1.64 9.1477e-41
3.33 6.66 1.64 3.57e-43
3.28 6.66 1.07 9.1477e-41
3.27 6.66 0.74 9.1477e-41
3.3 6.66 0.67 9.1477e-41
0.85 6.75 2.19 9.1477e-41
0.86 6.75 2.14 9.1477e-41
0.86 6.75 2.08 9.1477e-41
0.85 6.75 2.01 9.1477e-41
0.85 6.75 1.95 9.1477e-41
0.85 6.75 1.88 9.1477e-41
0.86 6.75 1.82 9.1477e-41
0.86 6.75 1.75 9.1477e-41
0.85 6.75 1.66 9.1477e-41
0.85 6.75 1.6 9.1477e-41
0.85 6.75 1.52 9.1477e-41
0.85 6.75 1.45 9.1477e-41
0.89 6.75 1.42 9.1477e-41
0.94 6.75 1.41 9.1477e-41
1 6.75 1.42 9.1477e-41
1.06 6.75 1.42 9.1477e-41
1.11 6.75 1.42 9.1477e-41
1.17 6.75 1.41 9.1477e-41
1.22 6.75 1.41 9.1477e-41
1.27 6.75 1.41 9.1477e-41
1.32 6.75 1.41 9.1477e-41
1.38 6.75 1.42 9.1477e-41
1.43 6.75 1.41 9.1477e-41
1.48 6.75 1.41 9.1477e-41
1.53 6.75 1.41 9.1477e-41
1.58 6.75 1.41 9.1477e-41
1.63 6.75 1.41 9.1477e-41
1.68 6.75 1.4 9.1477e-41
1.73 6.75 1.41 9.1477e-41
1.78 6.75 1.4 9.1477e-41
1.83 6.75 1.41 9.1477e-41
1.87 6.75 1.41 9.1477e-41
1.92 6.75 1.41 9.1477e-41
1.96 6.75 1.4 9.1477e-41
2.01 6.75 1.41 9.1477e-41
2.05 6.75 1.4 9.1477e-41
2.1 6.75 1.41 9.1477e-41
2.15 6.75 1.4 9.1477e-41
2.19 6.75 1.4 9.1477e-41
2.24 6.75 1.4 9.1477e-41
2.28 6.75 1.4 9.1477e-41
2.32 6.75 1.4 9.1477e-41
2.37 6.75 1.4 9.1477e-41
2.41 6.75 1.4 9.1477e-41
2.45 6.75 1.4 9.1477e-41
2.5 6.75 1.4 9.1477e-41
2.54 6.75 1.4 9.1477e-41
2.58 6.75 1.4 9.1477e-41
2.62 6.75 1.4 9.1477e-41
2.66 6.75 1.4 9.1477e-41
2.7 6.75 1.4 9.1477e-41
2.75 6.75 1.4 9.1477e-41
2.79 6.75 1.4 9.1477e-41
2.83 6.75 1.4 9.1477e-41
2.87 6.75 1.41 9.1477e-41
2.91 6.75 1.41 9.1477e-41
2.95 6.75 1.41 9.1477e-41
2.99 6.75 1.41 9.1477e-41
3.03 6.75 1.4 9.1477e-41
3.07 6.75 1.4 9.1477e-41
3.27 6.75 2.1 9.1477e-41
3.32 6.75 2.19 9.1477e-41
3.32 6.75 2.02 9.1477e-41
3.32 6.75 1.85 9.1477e-41
3.31 6.75 1.65 9.1477e-41
3.33 6.75 1.56 9.1477e-41
0.86 6.84 2.2 9.1477e-41
0.85 6.84 2.14 9.1477e-41
0.86 6.84 2.08 9.1477e-41
0.86 6.84 2.02 9.1477e-41
0.85 6.84 1.95 9.1477e-41
0.85 6.84 1.88 9.1477e-41
0.86 6.84 1.81 9.1477e-41
0.85 6.84 1.74 9.1477e-41
0.85 6.84 1.66 9.1477e-41
0.85 6.84 1.6 9.1477e-41
0.85 6.84 1.52 9.1477e-41
0.85 6.84 1.45 9.1477e-41
0.88 6.84 1.41 9.1477e-41
0.94 6.84 1.41 9.1477e-41
1 6.84 1.41 9.1477e-41
1.06 6.84 1.42 9.1477e-41
1.11 6.84 1.42 9.1477e-41
1.17 6.84 1.42 9.1477e-41
1.23 6.84 1.42 9.1477e-41
1.27 6.84 1.41 9.1477e-41
1.33 6.84 1.41 9.1477e-41
1.38 6.84 1.41 9.1477e-41
1.43 6.84 1.41 9.1477e-41
1.48 6.84 1.4 9.1477e-41
1.53 6.84 1.41 9.1477e-41
1.58 6.84 1.4 9.1477e-41
1.64 6.84 1.41 9.1477e-41
1.68 6.84 1.4 9.1477e-41
1.73 6.84 1.41 9.1477e-41
1.78 6.84 1.41 9.1477e-41
1.82 6.84 1.39 9.1477e-41
1.87 6.84 1.41 9.1477e-41
1.92 6.84 1.41 9.1477e-41
1.97 6.84 1.41 9.1477e-41
2.01 6.84 1.41 9.1477e-41
2.06 6.84 1.41 9.1477e-41
2.1 6.84 1.41 9.1477e-41
2.15 6.84 1.41 9.1477e-41
2.2 6.84 1.41 9.1477e-41
2.24 6.84 1.4 9.1477e-41
2.29 6.84 1.41 9.1477e-41
2.32 6.84 1.4 9.1477e-41
2.37 6.84 1.41 9.1477e-41
2.41 6.84 1.4 9.1477e-41
2.45 6.84 1.4 9.1477e-41
2.5 6.84 1.4 9.1477e-41
2.54 6.84 1.4 9.1477e-41
2.58 6.84 1.4 9.1477e-41
2.62 6.84 1.4 9.1477e-41
2.67 6.84 1.41 9.1477e-41
2.71 6.84 1.4 9.1477e-41
2.75 6.84 1.4 9.1477e-41
2.79 6.84 1.41 9.1477e-41
2.83 6.84 1.41 9.1477e-41
2.87 6.84 1.41 9.1477e-41
2.91 6.84 1.41 9.1477e-41
2.95 6.84 1.41 9.1477e-41
2.99 6.84 1.41 9.1477e-41
3.03 6.84 1.41 9.1477e-41
3.07 6.84 1.41 9.1477e-41
3.27 6.84 2.12 9.1477e-41
3.32 6.84 2.19 9.1477e-41
3.32 6.84 2.02 9.1477e-41
3.32 6.84 1.84 9.1477e-41
3.31 6.84 1.66 9.1477e-41
3.33 6.84 1.56 9.1477e-41
3.25 6.84 0.89 9.1477e-41
0.86 6.93 2.2 9.1477e-41
0.87 6.93 2.15 9.1477e-41
0.86 6.93 2.08 9.1477e-41
0.85 6.93 2.01 9.1477e-41
0.86 6.93 1.95 9.1477e-41
0.86 6.93 1.89 9.1477e-41
0.86 6.93 1.81 9.1477e-41
0.85 6.93 1.74 9.1477e-41
0.85 6.93 1.66 9.1477e-41
0.86 6.93 1.61 9.1477e-41
0.86 6.93 1.53 9.1477e-41
0.85 6.93 1.45 9.1477e-41
0.89 6.93 1.42 9.1477e-41
0.94 6.93 1.41 9.1477e-41
1 6.93 1.42 9.1477e-41
1.06 6.93 1.42 9.1477e-41
1.11 6.93 1.42 9.1477e-41
1.17 6.93 1.41 9.1477e-41
1.22 6.93 1.41 9.1477e-41
1.27 6.93 1.41 9.1477e-41
1.32 6.93 1.41 9.1477e-41
1.38 6.93 1.42 9.1477e-41
1.43 6.93 1.41 9.1477e-41
1.48 6.93 1.4 9.1477e-41
1.53 6.93 1.41 9.1477e-41
1.58 6.93 1.41 9.1477e-41
1.63 6.93 1.41 9.1477e-41
1.68 6.93 1.4 9.1477e-41
1.73 6.93 1.42 9.1477e-41
1.78 6.93 1.4 9.1477e-41
1.83 6.93 1.41 9.1477e-41
1.87 6.93 1.41 9.1477e-41
1.92 6.93 1.41 9.1477e-41
1.97 6.93 1.41 9.1477e-41
2.01 6.93 1.41 9.1477e-41
2.06 6.93 1.41 9.1477e-41
2.1 6.93 1.41 9.1477e-41
2.15 6.93 1.4 9.1477e-41
2.2 6.93 1.41 9.1477e-41
2.24 6.93 1.4 9.1477e-41
2.29 6.93 1.41 9.1477e-41
2.32 6.93 1.4 9.1477e-41
2.37 6.93 1.4 9.1477e-41
2.41 6.93 1.4 9.1477e-41
2.45 6.93 1.4 9.1477e-41
2.5 6.93 1.4 9.1477e-41
2.54 6.93 1.41 9.1477e-41
2.59 6.93 1.41 9.1477e-41
2.62 6.93 1.4 9.1477e-41
2.67 6.93 1.42 9.1477e-41
2.71 6.93 1.4 9.1477e-41
2.75 6.93 1.4 9.1477e-41
2.79 6.93 1.41 9.1477e-41
2.83 6.93 1.4 9.1477e-41
2.87 6.93 1.41 9.1477e-41
2.91 6.93 1.41 9.1477e-41
2.95 6.93 1.41 9.1477e-41
2.99 6.93 1.41 9.1477e-41
3.03 6.93 1.41 9.1477e-41
3.07 6.93 1.41 9.1477e-41
3.27 6.93 2.11 9.1477e-41
3.32 6.93 2.19 9.1477e-41
3.32 6.93 2.02 9.1477e-41
3.32 6.93 1.85 9.1477e-41
3.31 6.93 1.64 9.1477e-41
3.34 6.93 1.57 9.1477e-41
0.86 7.02 2.21 9.1477e-41
0.85 7.02 2.14 9.1477e-41
0.86 7.02 2.09 9.1477e-41
0.86 7.02 2.02 9.1477e-41
0.86 7.02 1.95 9.1477e-41
0.86 7.02 1.89 9.1477e-41
0.86 7.02 1.81 9.1477e-41
0.85 7.02 1.74 9.1477e-41
0.85 7.02 1.66 9.1477e-41
0.85 7.02 1.6 9.1477e-41
0.85 7.02 1.52 9.1477e-41
0.86 7.02 1.45 9.1477e-41
0.89 7.02 1.42 9.1477e-41
0.95 7.02 1.42 9.1477e-41
1 7.02 1.42 9.1477e-41
1.06 7.02 1.42 9.1477e-41
1.11 7.02 1.42 9.1477e-41
1.17 7.02 1.41 9.1477e-41
1.23 7.02 1.42 9.1477e-41
1.27 7.02 1.41 9.1477e-41
1.33 7.02 1.41 9.1477e-41
1.38 7.02 1.41 9.1477e-41
1.43 7.02 1.41 9.1477e-41
1.48 7.02 1.41 9.1477e-41
1.54 7.02 1.41 9.1477e-41
1.58 7.02 1.4 9.1477e-41
1.63 7.02 1.41 9.1477e-41
1.68 7.02 1.41 9.1477e-41
1.73 7.02 1.41 9.1477e-41
1.78 7.02 1.41 9.1477e-41
1.83 7.02 1.41 9.1477e-41
1.87 7.02 1.4 9.1477e-41
1.92 7.02 1.41 9.1477e-41
1.97 7.02 1.41 9.1477e-41
2.01 7.02 1.41 9.1477e-41
2.06 7.02 1.41 9.1477e-41
2.1 7.02 1.4 9.1477e-41
2.15 7.02 1.41 9.1477e-41
2.2 7.02 1.41 9.1477e-41
2.24 7.02 1.41 9.1477e-41
2.28 7.02 1.4 9.1477e-41
2.32 7.02 1.4 9.1477e-41
2.37 7.02 1.41 9.1477e-41
2.42 7.02 1.41 9.1477e-41
2.46 7.02 1.41 9.1477e-41
2.5 7.02 1.4 9.1477e-41
2.54 7.02 1.4 9.1477e-41
2.58 7.02 1.4 9.1477e-41
2.62 7.02 1.4 9.1477e-41
2.67 7.02 1.41 9.1477e-41
2.71 7.02 1.4 9.1477e-41
2.75 7.02 1.4 9.1477e-41
2.79 7.02 1.41 9.1477e-41
2.83 7.02 1.41 9.1477e-41
2.87 7.02 1.41 9.1477e-41
2.91 7.02 1.42 9.1477e-41
2.95 7.02 1.41 9.1477e-41
2.99 7.02 1.41 9.1477e-41
3.03 7.02 1.41 9.1477e-41
3.07 7.02 1.41 9.1477e-41
3.28 7.02 2.13 9.1477e-41
3.32 7.02 2.19 9.1477e-41
3.32 7.02 2.02 9.1477e-41
3.32 7.02 1.85 9.1477e-41
3.31 7.02 1.64 9.1477e-41
3.33 7.02 1.56 9.1477e-41
0.86 7.11 2.2 9.1477e-41
0.86 7.11 2.14 9.1477e-41
0.86 7.11 2.09 9.1477e-41
0.85 7.11 2.01 9.1477e-41
0.87 7.11 1.96 9.1477e-41
0.85 7.11 1.88 9.1477e-41
0.86 7.11 1.81 9.1477e-41
0.85 7.11 1.74 9.1477e-41
0.85 7.11 1.67 9.1477e-41
0.86 7.11 1.61 9.1477e-41
0.85 7.11 1.52 9.1477e-41
0.85 7.11 1.45 9.1477e-41
0.88 7.11 1.41 9.1477e-41
0.95 7.11 1.42 9.1477e-41
1 7.11 1.42 9.1477e-41
1.06 7.11 1.42 9.1477e-41
1.11 7.11 1.42 9.1477e-41
1.17 7.11 1.42 9.1477e-41
1.23 7.11 1.42 9.1477e-41
1.28 7.11 1.42 9.1477e-41
1.33 7.11 1.41 9.1477e-41
1.38 7.11 1.41 9.1477e-41
1.43 7.11 1.41 9.1477e-41
1.48 7.11 1.4 9.1477e-41
1.54 7.11 1.41 9.1477e-41
1.58 7.11 1.41 9.1477e-41
1.64 7.11 1.41 9.1477e-41
1.68 7.11 1.41 9.1477e-41
1.73 7.11 1.41 9.1477e-41
1.78 7.11 1.41 9.1477e-41
1.83 7.11 1.41 9.1477e-41
1.87 7.11 1.41 9.1477e-41
1.92 7.11 1.41 9.1477e-41
1.97 7.11 1.42 9.1477e-41
2.01 7.11 1.41 9.1477e-41
2.06 7.11 1.41 9.1477e-41
2.1 7.11 1.41 9.1477e-41
2.15 7.11 1.41 9.1477e-41
2.2 7.11 1.41 9.1477e-41
2.24 7.11 1.41 9.1477e-41
2.29 7.11 1.41 9.1477e-41
2.33 7.11 1.41 9.1477e-41
2.37 7.11 1.41 9.1477e-41
2.41 7.11 1.4 9.1477e-41
2.46 7.11 1.42 9.1477e-41
2.5 7.11 1.4 9.1477e-41
2.54 7.11 1.41 9.1477e-41
2.58 7.11 1.4 9.1477e-41
2.63 7.11 1.41 9.1477e-41
2.67 7.11 1.41 9.1477e-41
2.71 7.11 1.4 9.1477e-41
2.75 7.11 1.4 9.1477e-41
2.79 7.11 1.4 9.1477e-41
2.83 7.11 1.42 9.1477e-41
2.87 7.11 1.42 9.1477e-41
2.91 7.11 1.42 9.1477e-41
2.95 7.11 1.41 9.1477e-41
2.99 7.11 1.41 9.1477e-41
3.03 7.11 1.42 9.1477e-41
3.07 7.11 1.41 9.1477e-41
3.28 7.11 2.13 9.1477e-41
3.32 7.11 2.18 9.1477e-41
3.32 7.11 2.02 9.1477e-41
3.32 7.11 1.85 9.1477e-41
3.31 7.11 1.62 9.1477e-41
0.86 7.2 2.2 9.1477e-41
0.86 7.2 2.14 9.1477e-41
0.87 7.2 2.09 9.1477e-41
0.86 7.2 2.02 9.1477e-41
0.87 7.2 1.96 9.1477e-41
0.86 7.2 1.89 9.1477e-41
0.86 7.2 1.81 9.1477e-41
0.85 7.2 1.74 9.1477e-41
0.85 7.2 1.66 9.1477e-41
0.85 7.2 1.59 9.1477e-41
0.85 7.2 1.52 9.1477e-41
0.85 7.2 1.45 9.1477e-41
0.89 7.2 1.42 9.1477e-41
0.94 7.2 1.41 9.1477e-41
1 7.2 1.42 9.1477e-41
1.05 7.2 1.41 9.1477e-41
1.11 7.2 1.42 9.1477e-41
1.16 7.2 1.41 9.1477e-41
1.22 7.2 1.41 9.1477e-41
1.27 7.2 1.41 9.1477e-41
1.32 7.2 1.41 9.1477e-41
1.38 7.2 1.42 9.1477e-41
1.43 7.2 1.42 9.1477e-41
1.48 7.2 1.41 9.1477e-41
1.52 7.2 1.4 9.1477e-41
1.58 7.2 1.4 9.1477e-41
1.63 7.2 1.41 9.1477e-41
1.68 7.2 1.41 9.1477e-41
1.73 7.2 1.42 9.1477e-41
1.78 7.2 1.4 9.1477e-41
1.83 7.2 1.41 9.1477e-41
1.88 7.2 1.42 9.1477e-41
1.92 7.2 1.42 9.1477e-41
1.97 7.2 1.41 9.1477e-41
2.01 7.2 1.41 9.1477e-41
2.06 7.2 1.41 9.1477e-41
2.1 7.2 1.4 9.1477e-41
2.15 7.2 1.41 9.1477e-41
2.19 7.2 1.4 9.1477e-41
2.24 7.2 1.4 9.1477e-41
2.28 7.2 1.4 9.1477e-41
2.32 7.2 1.4 9.1477e-41
2.37 7.2 1.41 9.1477e-41
2.41 7.2 1.4 9.1477e-41
2.45 7.2 1.4 9.1477e-41
2.5 7.2 1.4 9.1477e-41
2.54 7.2 1.41 9.1477e-41
2.58 7.2 1.4 9.1477e-41
2.63 7.2 1.41 9.1477e-41
2.66 7.2 1.4 9.1477e-41
2.71 7.2 1.4 9.1477e-41
2.75 7.2 1.41 9.1477e-41
2.79 7.2 1.4 9.1477e-41
2.83 7.2 1.41 9.1477e-41
2.87 7.2 1.41 9.1477e-41
2.91 7.2 1.41 9.1477e-41
2.95 7.2 1.41 9.1477e-41
2.99 7.2 1.42 9.1477e-41
3.03 7.2 1.42 9.1477e-41
3.07 7.2 1.42 9.1477e-41
3.28 7.2 2.13 9.1477e-41
3.32 7.2 2.19 9.1477e-41
3.31 7.2 1.99 9.1477e-41
3.32 7.2 1.86 9.1477e-41
3.31 7.2 1.63 9.1477e-41
3.33 7.2 1.56 9.1477e-41
0.86 7.29 2.21 9.1477e-41
0.87 7.29 2.15 9.1477e-41
0.87 7.29 2.09 9.1477e-41
0.86 7.29 2.02 9.1477e-41
0.86 7.29 1.95 9.1477e-41
0.86 7.29 1.89 9.1477e-41
0.86 7.29 1.81 9.1477e-41
0.86 7.29 1.75 9.1477e-41
0.85 7.29 1.67 9.1477e-41
0.85 7.29 1.6 9.1477e-41
0.85 7.29 1.52 9.1477e-41
0.86 7.29 1.45 9.1477e-41
0.89 7.29 1.42 9.1477e-41
0.94 7.29 1.41 9.1477e-41
1 7.29 1.41 9.1477e-41
1.06 7.29 1.42 9.1477e-41
1.11 7.29 1.41 9.1477e-41
1.17 7.29 1.41 9.1477e-41
1.22 7.29 1.41 9.1477e-41
1.27 7.29 1.41 9.1477e-41
1.32 7.29 1.41 9.1477e-41
1.38 7.29 1.41 9.1477e-41
1.43 7.29 1.41 9.1477e-41
1.48 7.29 1.4 9.1477e-41
1.53 7.29 1.41 9.1477e-41
1.58 7.29 1.41 9.1477e-41
1.63 7.29 1.4 9.1477e-41
1.68 7.29 1.41 9.1477e-41
1.73 7.29 1.42 9.1477e-41
1.78 7.29 1.41 9.1477e-41
1.83 7.29 1.41 9.1477e-41
1.87 7.29 1.41 9.1477e-41
1.92 7.29 1.41 9.1477e-41
1.97 7.29 1.42 9.1477e-41
2.02 7.29 1.41 9.1477e-41
2.06 7.29 1.41 9.1477e-41
2.11 7.29 1.42 9.1477e-41
2.15 7.29 1.41 9.1477e-41
2.2 7.29 1.41 9.1477e-41
2.24 7.29 1.4 9.1477e-41
2.29 7.29 1.41 9.1477e-41
2.33 7.29 1.41 9.1477e-41
2.37 7.29 1.4 9.1477e-41
2.41 7.29 1.4 9.1477e-41
2.46 7.29 1.41 9.1477e-41
2.5 7.29 1.4 9.1477e-41
2.54 7.29 1.41 9.1477e-41
2.58 7.29 1.4 9.1477e-41
2.62 7.29 1.4 9.1477e-41
2.67 7.29 1.41 9.1477e-41
2.7 7.29 1.4 9.1477e-41
2.75 7.29 1.4 9.1477e-41
2.79 7.29 1.4 9.1477e-41
2.83 7.29 1.4 9.1477e-41
2.87 7.29 1.4 9.1477e-41
2.91 7.29 1.41 9.1477e-41
2.95 7.29 1.41 9.1477e-41
2.99 7.29 1.41 9.1477e-41
3.03 7.29 1.42 9.1477e-41
3.07 7.29 1.41 9.1477e-41
3.28 7.29 2.13 9.1477e-41
3.32 7.29 2.2 9.1477e-41
3.32 7.29 2.02 9.1477e-41
3.32 7.29 1.86 9.1477e-41
3.31 7.29 1.61 9.1477e-41
3.33 7.29 1.56 9.1477e-41
0.86 7.38 2.21 9.1477e-41
0.86 7.38 2.14 9.1477e-41
0.86 7.38 2.09 9.1477e-41
0.86 7.38 2.02 9.1477e-41
0.86 7.38 1.95 9.1477e-41
0.85 7.38 1.88 9.1477e-41
0.86 7.38 1.81 9.1477e-41
0.85 7.38 1.74 9.1477e-41
0.84 7.38 1.66 9.1477e-41
0.86 7.38 1.61 9.1477e-41
0.85 7.38 1.52 9.1477e-41
0.85 7.38 1.45 9.1477e-41
0.89 7.38 1.42 9.1477e-41
0.94 7.38 1.41 9.1477e-41
1 7.38 1.42 9.1477e-41
1.06 7.38 1.42 9.1477e-41
1.11 7.38 1.41 9.1477e-41
1.17 7.38 1.41 9.1477e-41
1.23 7.38 1.42 9.1477e-41
1.27 7.38 1.41 9.1477e-41
1.33 7.38 1.41 9.1477e-41
1.38 7.38 1.41 9.1477e-41
1.43 7.38 1.41 9.1477e-41
1.48 7.38 1.4 9.1477e-41
1.53 7.38 1.41 9.1477e-41
1.58 7.38 1.4 9.1477e-41
1.64 7.38 1.41 9.1477e-41
1.68 7.38 1.41 9.1477e-41
1.73 7.38 1.41 9.1477e-41
1.78 7.38 1.4 9.1477e-41
1.83 7.38 1.41 9.1477e-41
1.87 7.38 1.4 9.1477e-41
1.92 7.38 1.41 9.1477e-41
1.96 7.38 1.4 9.1477e-41
2.01 7.38 1.41 9.1477e-41
2.06 7.38 1.41 9.1477e-41
2.11 7.38 1.42 9.1477e-41
2.15 7.38 1.41 9.1477e-41
2.2 7.38 1.41 9.1477e-41
2.24 7.38 1.4 9.1477e-41
2.29 7.38 1.41 9.1477e-41
2.33 7.38 1.41 9.1477e-41
2.37 7.38 1.4 9.1477e-41
2.42 7.38 1.41 9.1477e-41
2.45 7.38 1.4 9.1477e-41
2.5 7.38 1.4 9.1477e-41
2.54 7.38 1.41 9.1477e-41
2.58 7.38 1.4 9.1477e-41
2.63 7.38 1.41 9.1477e-41
2.67 7.38 1.41 9.1477e-41
2.71 7.38 1.4 9.1477e-41
2.75 7.38 1.4 9.1477e-41
2.79 7.38 1.41 9.1477e-41
2.83 7.38 1.42 9.1477e-41
2.87 7.38 1.41 9.1477e-41
2.91 7.38 1.42 9.1477e-41
2.95 7.38 1.42 9.1477e-41
2.99 7.38 1.42 9.1477e-41
3.03 7.38 1.41 9.1477e-41
3.07 7.38 1.42 9.1477e-41
3.28 7.38 2.13 9.1477e-41
3.32 7.38 2.19 9.1477e-41
3.31 7.38 1.99 9.1477e-41
3.31 7.38 1.83 9.1477e-41
3.31 7.38 1.61 9.1477e-41
0.86 7.47 2.2 9.1477e-41
0.86 7.47 2.14 9.1477e-41
0.86 7.47 2.08 9.1477e-41
0.86 7.47 2.02 9.1477e-41
0.85 7.47 1.95 9.1477e-41
0.85 7.47 1.88 9.1477e-41
0.86 7.47 1.81 9.1477e-41
0.85 7.47 1.74 9.1477e-41
0.85 7.47 1.66 9.1477e-41
0.85 7.47 1.6 9.1477e-41
0.85 7.47 1.52 9.1477e-41
0.85 7.47 1.45 9.1477e-41
0.89 7.47 1.42 9.1477e-41
0.94 7.47 1.41 9.1477e-41
1 7.47 1.41 9.1477e-41
1.05 7.47 1.41 9.1477e-41
1.11 7.47 1.42 9.1477e-41
1.17 7.47 1.41 9.1477e-41
1.22 7.47 1.41 9.1477e-41
1.27 7.47 1.41 9.1477e-41
1.33 7.47 1.41 9.1477e-41
1.38 7.47 1.41 9.1477e-41
1.43 7.47 1.42 9.1477e-41
1.48 7.47 1.4 9.1477e-41
1.53 7.47 1.41 9.1477e-41
1.58 7.47 1.41 9.1477e-41
1.63 7.47 1.41 9.1477e-41
1.69 7.47 1.42 9.1477e-41
1.73 7.47 1.41 9.1477e-41
1.78 7.47 1.41 9.1477e-41
1.83 7.47 1.41 9.1477e-41
1.87 7.47 1.41 9.1477e-41
1.92 7.47 1.41 9.1477e-41
1.97 7.47 1.41 9.1477e-41
2.01 7.47 1.41 9.1477e-41
2.06 7.47 1.41 9.1477e-41
2.11 7.47 1.42 9.1477e-41
2.15 7.47 1.4 9.1477e-41
2.2 7.47 1.41 9.1477e-41
2.24 7.47 1.41 9.1477e-41
2.29 7.47 1.41 9.1477e-41
2.33 7.47 1.41 9.1477e-41
2.37 7.47 1.4 9.1477e-41
2.42 7.47 1.41 9.1477e-41
2.45 7.47 1.4 9.1477e-41
2.5 7.47 1.41 9.1477e-41
2.54 7.47 1.41 9.1477e-41
2.58 7.47 1.4 9.1477e-41
2.63 7.47 1.41 9.1477e-41
2.67 7.47 1.41 9.1477e-41
2.71 7.47 1.41 9.1477e-41
2.75 7.47 1.4 9.1477e-41
2.79 7.47 1.41 9.1477e-41
2.83 7.47 1.42 9.1477e-41
2.87 7.47 1.41 9.1477e-41
2.91 7.47 1.41 9.1477e-41
2.95 7.47 1.41 9.1477e-41
2.99 7.47 1.42 9.1477e-41
3.03 7.47 1.41 9.1477e-41
3.07 7.47 1.41 9.1477e-41
3.28 7.47 2.14 9.1477e-41
3.32 7.47 2.2 9.1477e-41
3.31 7.47 1.99 9.1477e-41
3.31 7.47 1.82 9.1477e-41
3.31 7.47 1.61 9.1477e-41
0.86 7.56 2.2 9.1477e-41
0.86 7.56 2.14 9.1477e-41
0.86 7.56 2.08 9.1477e-41
0.86 7.56 2.02 9.1477e-41
0.86 7.56 1.95 9.1477e-41
0.86 7.56 1.89 9.1477e-41
0.86 7.56 1.82 9.1477e-41
0.86 7.56 1.76 9.1477e-41
0.85 7.56 1.67 9.1477e-41
0.86 7.56 1.61 9.1477e-41
0.86 7.56 1.53 9.1477e-41
0.85 7.56 1.45 9.1477e-41
0.89 7.56 1.42 9.1477e-41
0.95 7.56 1.42 9.1477e-41
1 7.56 1.41 9.1477e-41
1.06 7.56 1.42 9.1477e-41
1.11 7.56 1.41 9.1477e-41
1.17 7.56 1.41 9.1477e-41
1.22 7.56 1.41 9.1477e-41
1.27 7.56 1.41 9.1477e-41
1.32 7.56 1.41 9.1477e-41
1.38 7.56 1.41 9.1477e-41
1.43 7.56 1.41 9.1477e-41
1.48 7.56 1.41 9.1477e-41
1.54 7.56 1.41 9.1477e-41
1.58 7.56 1.4 9.1477e-41
1.63 7.56 1.41 9.1477e-41
1.68 7.56 1.41 9.1477e-41
1.73 7.56 1.41 9.1477e-41
1.78 7.56 1.4 9.1477e-41
1.83 7.56 1.41 9.1477e-41
1.87 7.56 1.41 9.1477e-41
1.92 7.56 1.41 9.1477e-41
1.97 7.56 1.42 9.1477e-41
2.01 7.56 1.41 9.1477e-41
2.06 7.56 1.41 9.1477e-41
2.1 7.56 1.41 9.1477e-41
2.15 7.56 1.42 9.1477e-41
2.2 7.56 1.41 9.1477e-41
2.24 7.56 1.41 9.1477e-41
2.29 7.56 1.41 9.1477e-41
2.33 7.56 1.42 9.1477e-41
2.37 7.56 1.4 9.1477e-41
2.42 7.56 1.41 9.1477e-41
2.46 7.56 1.41 9.1477e-41
2.5 7.56 1.4 9.1477e-41
2.54 7.56 1.41 9.1477e-41
2.59 7.56 1.41 9.1477e-41
2.63 7.56 1.41 9.1477e-41
2.67 7.56 1.41 9.1477e-41
2.71 7.56 1.41 9.1477e-41
2.75 7.56 1.41 9.1477e-41
2.79 7.56 1.41 9.1477e-41
2.83 7.56 1.42 9.1477e-41
2.87 7.56 1.41 9.1477e-41
2.91 7.56 1.41 9.1477e-41
2.95 7.56 1.41 9.1477e-41
2.99 7.56 1.42 9.1477e-41
3.03 7.56 1.41 9.1477e-41
3.07 7.56 1.43 9.1477e-41
3.28 7.56 2.15 9.1477e-41
3.32 7.56 2.19 9.1477e-41
3.31 7.56 2 9.1477e-41
3.31 7.56 1.82 9.1477e-41
3.31 7.56 1.61 9.1477e-41
3.33 7.56 1.56 9.1477e-41
0.86 7.65 2.21 9.1477e-41
0.85 7.65 2.14 9.1477e-41
0.86 7.65 2.08 9.1477e-41
0.86 7.65 2.02 9.1477e-41
0.86 7.65 1.95 9.1477e-41
0.85 7.65 1.88 9.1477e-41
0.86 7.65 1.82 9.1477e-41
0.85 7.65 1.74 9.1477e-41
0.85 7.65 1.66 9.1477e-41
0.85 7.65 1.6 9.1477e-41
0.85 7.65 1.52 9.1477e-41
0.85 7.65 1.45 9.1477e-41
0.89 7.65 1.42 9.1477e-41
0.94 7.65 1.41 9.1477e-41
1.01 7.65 1.43 9.1477e-41
1.06 7.65 1.42 9.1477e-41
1.11 7.65 1.42 9.1477e-41
1.17 7.65 1.41 9.1477e-41
1.22 7.65 1.41 9.1477e-41
1.27 7.65 1.41 9.1477e-41
1.33 7.65 1.41 9.1477e-41
1.38 7.65 1.42 9.1477e-41
1.43 7.65 1.42 9.1477e-41
1.48 7.65 1.41 9.1477e-41
1.54 7.65 1.41 9.1477e-41
1.58 7.65 1.41 9.1477e-41
1.63 7.65 1.41 9.1477e-41
1.68 7.65 1.41 9.1477e-41
1.73 7.65 1.42 9.1477e-41
1.78 7.65 1.41 9.1477e-41
1.83 7.65 1.41 9.1477e-41
1.88 7.65 1.42 9.1477e-41
1.92 7.65 1.41 9.1477e-41
1.97 7.65 1.41 9.1477e-41
2.02 7.65 1.41 9.1477e-41
2.06 7.65 1.41 9.1477e-41
2.11 7.65 1.42 9.1477e-41
2.15 7.65 1.41 9.1477e-41
2.2 7.65 1.41 9.1477e-41
2.24 7.65 1.41 9.1477e-41
2.29 7.65 1.41 9.1477e-41
2.33 7.65 1.42 9.1477e-41
2.38 7.65 1.42 9.1477e-41
2.42 7.65 1.41 9.1477e-41
2.46 7.65 1.41 9.1477e-41
2.5 7.65 1.4 9.1477e-41
2.54 7.65 1.41 9.1477e-41
2.58 7.65 1.4 9.1477e-41
2.63 7.65 1.42 9.1477e-41
2.67 7.65 1.42 9.1477e-41
2.71 7.65 1.4 9.1477e-41
2.75 7.65 1.41 9.1477e-41
2.79 7.65 1.42 9.1477e-41
2.83 7.65 1.41 9.1477e-41
2.87 7.65 1.41 9.1477e-41
2.91 7.65 1.42 9.1477e-41
2.95 7.65 1.42 9.1477e-41
2.99 7.65 1.42 9.1477e-41
3.03 7.65 1.41 9.1477e-41
3.07 7.65 1.42 9.1477e-41
