# .PCD v.7 - Point Cloud Data file format
VERSION .7
FIELDS x y z rgb
SIZE 4 4 4 4
TYPE F F F F
WIDTH 1875
HEIGHT 1
POINTS 1875
DATA ascii
1.67 5.07 1.39 9.1477e-41
1.72 5.07 1.39 9.1477e-41
1.77 5.07 1.39 9.1477e-41
1.82 5.07 1.39 9.1477e-41
1.87 5.07 1.4 9.1477e-41
1.91 5.07 1.39 9.1477e-41
1.96 5.07 1.39 9.1477e-41
2 5.07 1.39 9.1477e-41
2.05 5.07 1.39 9.1477e-41
2.1 5.07 1.4 9.1477e-41
2.14 5.07 1.39 9.1477e-41
2.19 5.07 1.39 9.1477e-41
2.23 5.07 1.38 9.1477e-41
2.27 5.07 1.39 9.1477e-41
2.32 5.07 1.39 9.1477e-41
2.36 5.07 1.38 9.1477e-41
2.41 5.07 1.39 9.1477e-41
2.45 5.07 1.38 9.1477e-41
2.49 5.07 1.39 9.1477e-41
2.53 5.07 1.37 9.1477e-41
2.57 5.07 1.38 9.1477e-41
2.62 5.07 1.38 9.1477e-41
2.65 5.07 1.37 9.1477e-41
2.7 5.07 1.38 9.1477e-41
2.74 5.07 1.38 9.1477e-41
2.78 5.07 1.38 9.1477e-41
2.82 5.07 1.38 9.1477e-41
2.86 5.07 1.38 9.1477e-41
2.91 5.07 1.39 9.1477e-41
2.94 5.07 1.38 9.1477e-41
2.98 5.07 1.38 9.1477e-41
3.02 5.07 1.38 9.1477e-41
3.06 5.07 1.38 9.1477e-41
3.1 5.07 1.37 9.1477e-41
3.14 5.07 1.38 9.1477e-41
3.17 5.07 1.32 9.1477e-41
3.37 5.07 2.13 9.1477e-41
3.37 5.07 1.94 9.1477e-41
3.36 5.07 1.72 9.1477e-41
3.36 5.07 1.52 9.1477e-41
0.9 5.1 2.19 9.1477e-41
0.92 5.1 2.15 9.1477e-41
0.91 5.1 2.07 9.1477e-41
0.91 5.1 2.01 9.1477e-41
0.91 5.1 1.95 9.1477e-41
0.91 5.1 1.88 9.1477e-41
0.91 5.1 1.81 9.1477e-41
0.91 5.1 1.74 9.1477e-41
0.91 5.1 1.67 9.1477e-41
0.9 5.1 1.59 9.1477e-41
0.91 5.1 1.53 9.1477e-41
0.91 5.1 1.44 9.1477e-41
0.93 5.1 1.4 9.1477e-41
0.99 5.1 1.4 9.1477e-41
1.04 5.1 1.39 9.1477e-41
1.1 5.1 1.39 9.1477e-41
1.15 5.1 1.39 9.1477e-41
1.22 5.1 1.41 9.1477e-41
1.26 5.1 1.39 9.1477e-41
1.32 5.1 1.4 9.1477e-41
1.37 5.1 1.4 9.1477e-41
1.42 5.1 1.4 9.1477e-41
1.47 5.1 1.39 9.1477e-41
1.52 5.1 1.4 9.1477e-41
1.58 5.1 1.4 9.1477e-41
1.62 5.1 1.39 9.1477e-41
1.67 5.1 1.38 9.1477e-41
1.72 5.1 1.4 9.1477e-41
1.77 5.1 1.39 9.1477e-41
1.81 5.1 1.38 9.1477e-41
1.86 5.1 1.39 9.1477e-41
1.91 5.1 1.39 9.1477e-41
1.96 5.1 1.39 9.1477e-41
2 5.1 1.39 9.1477e-41
2.05 5.1 1.39 9.1477e-41
2.1 5.1 1.39 9.1477e-41
2.14 5.1 1.39 9.1477e-41
2.19 5.1 1.39 9.1477e-41
2.23 5.1 1.38 9.1477e-41
2.27 5.1 1.39 9.1477e-41
2.32 5.1 1.39 9.1477e-41
2.36 5.1 1.38 9.1477e-41
2.4 5.1 1.38 9.1477e-41
2.44 5.1 1.37 9.1477e-41
2.49 5.1 1.38 9.1477e-41
2.53 5.1 1.37 9.1477e-41
2.58 5.1 1.39 9.1477e-41
2.61 5.1 1.37 9.1477e-41
2.66 5.1 1.39 9.1477e-41
2.7 5.1 1.38 9.1477e-41
2.74 5.1 1.38 9.1477e-41
2.78 5.1 1.38 9.1477e-41
2.82 5.1 1.38 9.1477e-41
2.86 5.1 1.37 9.1477e-41
2.9 5.1 1.37 9.1477e-41
2.94 5.1 1.38 9.1477e-41
2.98 5.1 1.37 9.1477e-41
3.03 5.1 1.39 9.1477e-41
3.06 5.1 1.37 9.1477e-41
3.1 5.1 1.37 9.1477e-41
3.14 5.1 1.37 9.1477e-41
3.17 5.1 1.33 9.1477e-41
3.21 5.1 1.31 9.1477e-41
3.37 5.1 1.94 9.1477e-41
3.36 5.1 1.73 9.1477e-41
3.36 5.1 1.53 9.1477e-41
0.9 5.13 2.19 9.1477e-41
0.92 5.13 2.15 9.1477e-41
0.91 5.13 2.08 9.1477e-41
0.91 5.13 2.01 9.1477e-41
0.91 5.13 1.95 9.1477e-41
0.91 5.13 1.88 9.1477e-41
0.9 5.13 1.8 9.1477e-41
0.9 5.13 1.73 9.1477e-41
0.91 5.13 1.67 9.1477e-41
0.9 5.13 1.59 9.1477e-41
0.9 5.13 1.51 9.1477e-41
0.9 5.13 1.43 9.1477e-41
0.93 5.13 1.4 9.1477e-41
0.99 5.13 1.4 9.1477e-41
1.05 5.13 1.41 9.1477e-41
1.1 5.13 1.39 9.1477e-41
1.16 5.13 1.4 9.1477e-41
1.22 5.13 1.41 9.1477e-41
1.26 5.13 1.4 9.1477e-41
1.32 5.13 1.4 9.1477e-41
1.37 5.13 1.4 9.1477e-41
1.42 5.13 1.4 9.1477e-41
1.47 5.13 1.39 9.1477e-41
1.52 5.13 1.4 9.1477e-41
1.57 5.13 1.38 9.1477e-41
1.62 5.13 1.39 9.1477e-41
1.67 5.13 1.39 9.1477e-41
1.72 5.13 1.4 9.1477e-41
1.77 5.13 1.39 9.1477e-41
1.82 5.13 1.4 9.1477e-41
1.86 5.13 1.38 9.1477e-41
1.91 5.13 1.39 9.1477e-41
1.96 5.13 1.39 9.1477e-41
2 5.13 1.39 9.1477e-41
2.05 5.13 1.39 9.1477e-41
2.1 5.13 1.39 9.1477e-41
2.14 5.13 1.39 9.1477e-41
2.19 5.13 1.39 9.1477e-41
2.23 5.13 1.39 9.1477e-41
2.27 5.13 1.39 9.1477e-41
2.32 5.13 1.38 9.1477e-41
2.36 5.13 1.38 9.1477e-41
2.4 5.13 1.38 9.1477e-41
2.45 5.13 1.38 9.1477e-41
2.49 5.13 1.38 9.1477e-41
2.53 5.13 1.38 9.1477e-41
2.57 5.13 1.38 9.1477e-41
2.61 5.13 1.37 9.1477e-41
2.66 5.13 1.39 9.1477e-41
2.7 5.13 1.38 9.1477e-41
2.74 5.13 1.37 9.1477e-41
2.78 5.13 1.37 9.1477e-41
2.82 5.13 1.38 9.1477e-41
2.86 5.13 1.38 9.1477e-41
2.9 5.13 1.38 9.1477e-41
2.94 5.13 1.37 9.1477e-41
2.98 5.13 1.38 9.1477e-41
3.02 5.13 1.38 9.1477e-41
3.06 5.13 1.38 9.1477e-41
3.1 5.13 1.37 9.1477e-41
3.14 5.13 1.38 9.1477e-41
3.17 5.13 1.32 9.1477e-41
3.37 5.13 2.13 9.1477e-41
3.37 5.13 1.94 9.1477e-41
3.36 5.13 1.72 9.1477e-41
3.36 5.13 1.53 9.1477e-41
0.9 5.16 2.19 9.1477e-41
0.9 5.16 2.13 9.1477e-41
0.91 5.16 2.08 9.1477e-41
0.91 5.16 2.01 9.1477e-41
0.91 5.16 1.94 9.1477e-41
0.91 5.16 1.88 9.1477e-41
0.9 5.16 1.8 9.1477e-41
0.9 5.16 1.73 9.1477e-41
0.9 5.16 1.66 9.1477e-41
0.9 5.16 1.59 9.1477e-41
0.89 5.16 1.5 9.1477e-41
0.9 5.16 1.43 9.1477e-41
0.94 5.16 1.41 9.1477e-41
0.99 5.16 1.4 9.1477e-41
1.05 5.16 1.4 9.1477e-41
1.1 5.16 1.4 9.1477e-41
1.16 5.16 1.4 9.1477e-41
1.21 5.16 1.4 9.1477e-41
1.26 5.16 1.4 9.1477e-41
1.32 5.16 1.4 9.1477e-41
1.37 5.16 1.39 9.1477e-41
1.41 5.16 1.38 9.1477e-41
1.47 5.16 1.39 9.1477e-41
1.52 5.16 1.4 9.1477e-41
1.57 5.16 1.39 9.1477e-41
1.62 5.16 1.39 9.1477e-41
1.67 5.16 1.39 9.1477e-41
1.72 5.16 1.39 9.1477e-41
1.77 5.16 1.39 9.1477e-41
1.82 5.16 1.39 9.1477e-41
1.86 5.16 1.39 9.1477e-41
1.91 5.16 1.39 9.1477e-41
1.96 5.16 1.39 9.1477e-41
2 5.16 1.39 9.1477e-41
2.05 5.16 1.38 9.1477e-41
2.1 5.16 1.39 9.1477e-41
2.14 5.16 1.39 9.1477e-41
2.18 5.16 1.38 9.1477e-41
2.23 5.16 1.39 9.1477e-41
2.27 5.16 1.39 9.1477e-41
2.32 5.16 1.38 9.1477e-41
2.36 5.16 1.39 9.1477e-41
2.41 5.16 1.39 9.1477e-41
2.45 5.16 1.38 9.1477e-41
2.49 5.16 1.39 9.1477e-41
2.53 5.16 1.38 9.1477e-41
2.57 5.16 1.38 9.1477e-41
2.61 5.16 1.37 9.1477e-41
2.65 5.16 1.37 9.1477e-41
2.7 5.16 1.38 9.1477e-41
2.74 5.16 1.37 9.1477e-41
2.78 5.16 1.38 9.1477e-41
2.82 5.16 1.36 9.1477e-41
2.86 5.16 1.38 9.1477e-41
2.9 5.16 1.38 9.1477e-41
2.94 5.16 1.38 9.1477e-41
2.98 5.16 1.38 9.1477e-41
3.02 5.16 1.38 9.1477e-41
3.06 5.16 1.38 9.1477e-41
3.1 5.16 1.37 9.1477e-41
3.14 5.16 1.37 9.1477e-41
3.17 5.16 1.31 9.1477e-41
3.37 5.16 2.13 9.1477e-41
3.37 5.16 1.93 9.1477e-41
3.36 5.16 1.71 9.1477e-41
3.36 5.16 1.53 9.1477e-41
0.9 5.19 2.19 9.1477e-41
0.91 5.19 2.14 9.1477e-41
0.91 5.19 2.07 9.1477e-41
0.91 5.19 2.01 9.1477e-41
0.91 5.19 1.95 9.1477e-41
0.91 5.19 1.88 9.1477e-41
0.9 5.19 1.8 9.1477e-41
0.9 5.19 1.73 9.1477e-41
0.91 5.19 1.67 9.1477e-41
0.9 5.19 1.59 9.1477e-41
0.9 5.19 1.51 9.1477e-41
0.89 5.19 1.43 9.1477e-41
0.94 5.19 1.41 9.1477e-41
0.99 5.19 1.4 9.1477e-41
1.05 5.19 1.4 9.1477e-41
1.1 5.19 1.4 9.1477e-41
1.16 5.19 1.4 9.1477e-41
1.21 5.19 1.4 9.1477e-41
1.26 5.19 1.39 9.1477e-41
1.32 5.19 1.4 9.1477e-41
1.37 5.19 1.4 9.1477e-41
1.42 5.19 1.39 9.1477e-41
1.47 5.19 1.39 9.1477e-41
1.52 5.19 1.39 9.1477e-41
1.58 5.19 1.4 9.1477e-41
1.63 5.19 1.4 9.1477e-41
1.67 5.19 1.39 9.1477e-41
1.72 5.19 1.4 9.1477e-41
1.76 5.19 1.38 9.1477e-41
1.82 5.19 1.39 9.1477e-41
1.86 5.19 1.39 9.1477e-41
1.91 5.19 1.39 9.1477e-41
1.96 5.19 1.39 9.1477e-41
2 5.19 1.39 9.1477e-41
2.05 5.19 1.39 9.1477e-41
2.09 5.19 1.37 9.1477e-41
2.14 5.19 1.39 9.1477e-41
2.18 5.19 1.38 9.1477e-41
2.23 5.19 1.38 9.1477e-41
2.27 5.19 1.39 9.1477e-41
2.32 5.19 1.38 9.1477e-41
2.36 5.19 1.38 9.1477e-41
2.4 5.19 1.38 9.1477e-41
2.45 5.19 1.38 9.1477e-41
2.49 5.19 1.38 9.1477e-41
2.53 5.19 1.38 9.1477e-41
2.57 5.19 1.38 9.1477e-41
2.62 5.19 1.38 9.1477e-41
2.66 5.19 1.38 9.1477e-41
2.7 5.19 1.37 9.1477e-41
2.74 5.19 1.37 9.1477e-41
2.78 5.19 1.37 9.1477e-41
2.82 5.19 1.37 9.1477e-41
2.86 5.19 1.38 9.1477e-41
2.9 5.19 1.37 9.1477e-41
2.94 5.19 1.38 9.1477e-41
2.98 5.19 1.38 9.1477e-41
3.02 5.19 1.37 9.1477e-41
3.06 5.19 1.38 9.1477e-41
3.1 5.19 1.38 9.1477e-41
3.13 5.19 1.33 9.1477e-41
3.33 5.19 2.07 9.1477e-41
3.38 5.19 2.15 9.1477e-41
3.37 5.19 1.93 9.1477e-41
3.36 5.19 1.73 9.1477e-41
3.37 5.19 1.56 9.1477e-41
0.9 5.22 2.19 9.1477e-41
0.91 5.22 2.14 9.1477e-41
0.91 5.22 2.07 9.1477e-41
0.91 5.22 2.01 9.1477e-41
0.91 5.22 1.95 9.1477e-41
0.9 5.22 1.87 9.1477e-41
0.9 5.22 1.8 9.1477e-41
0.9 5.22 1.73 9.1477e-41
0.9 5.22 1.66 9.1477e-41
0.9 5.22 1.59 9.1477e-41
0.9 5.22 1.51 9.1477e-41
0.9 5.22 1.43 9.1477e-41
0.93 5.22 1.4 9.1477e-41
0.99 5.22 1.4 9.1477e-41
1.04 5.22 1.39 9.1477e-41
1.1 5.22 1.39 9.1477e-41
1.16 5.22 1.4 9.1477e-41
1.21 5.22 1.4 9.1477e-41
1.26 5.22 1.4 9.1477e-41
1.32 5.22 1.4 9.1477e-41
1.37 5.22 1.39 9.1477e-41
1.42 5.22 1.39 9.1477e-41
1.47 5.22 1.39 9.1477e-41
1.52 5.22 1.4 9.1477e-41
1.57 5.22 1.39 9.1477e-41
1.63 5.22 1.4 9.1477e-41
1.67 5.22 1.38 9.1477e-41
1.72 5.22 1.39 9.1477e-41
1.77 5.22 1.4 9.1477e-41
1.81 5.22 1.38 9.1477e-41
1.87 5.22 1.4 9.1477e-41
1.92 5.22 1.4 9.1477e-41
1.96 5.22 1.39 9.1477e-41
2 5.22 1.39 9.1477e-41
2.05 5.22 1.39 9.1477e-41
2.1 5.22 1.39 9.1477e-41
2.14 5.22 1.38 9.1477e-41
2.19 5.22 1.39 9.1477e-41
2.23 5.22 1.39 9.1477e-41
2.27 5.22 1.38 9.1477e-41
2.32 5.22 1.39 9.1477e-41
2.36 5.22 1.38 9.1477e-41
2.41 5.22 1.39 9.1477e-41
2.44 5.22 1.37 9.1477e-41
2.49 5.22 1.39 9.1477e-41
2.53 5.22 1.38 9.1477e-41
2.57 5.22 1.38 9.1477e-41
2.61 5.22 1.37 9.1477e-41
2.66 5.22 1.38 9.1477e-41
2.7 5.22 1.37 9.1477e-41
2.74 5.22 1.38 9.1477e-41
2.78 5.22 1.37 9.1477e-41
2.82 5.22 1.38 9.1477e-41
2.86 5.22 1.37 9.1477e-41
2.9 5.22 1.38 9.1477e-41
2.94 5.22 1.38 9.1477e-41
2.98 5.22 1.37 9.1477e-41
3.02 5.22 1.37 9.1477e-41
3.06 5.22 1.37 9.1477e-41
3.1 5.22 1.38 9.1477e-41
3.14 5.22 1.35 9.1477e-41
3.33 5.22 2.08 9.1477e-41
3.38 5.22 2.08 3.57e-43
3.37 5.22 1.93 9.1477e-41
3.36 5.22 1.72 9.1477e-41
3.37 5.22 1.57 9.1477e-41
0.91 5.25 2.14 9.1477e-41
0.91 5.25 2.08 9.1477e-41
0.91 5.25 2.01 9.1477e-41
0.91 5.25 1.94 9.1477e-41
0.91 5.25 1.88 9.1477e-41
0.9 5.25 1.8 9.1477e-41
0.9 5.25 1.73 9.1477e-41
0.91 5.25 1.67 9.1477e-41
0.91 5.25 1.59 9.1477e-41
0.9 5.25 1.51 9.1477e-41
0.9 5.25 1.43 9.1477e-41
0.93 5.25 1.4 9.1477e-41
0.99 5.25 1.4 9.1477e-41
1.05 5.25 1.41 9.1477e-41
1.1 5.25 1.39 9.1477e-41
1.16 5.25 1.4 9.1477e-41
1.21 5.25 1.4 9.1477e-41
1.26 5.25 1.4 9.1477e-41
1.32 5.25 1.4 9.1477e-41
1.37 5.25 1.39 9.1477e-41
1.42 5.25 1.39 9.1477e-41
1.47 5.25 1.39 9.1477e-41
1.52 5.25 1.39 9.1477e-41
1.57 5.25 1.38 9.1477e-41
1.63 5.25 1.4 9.1477e-41
1.67 5.25 1.38 9.1477e-41
1.72 5.25 1.39 9.1477e-41
1.77 5.25 1.4 9.1477e-41
1.81 5.25 1.38 9.1477e-41
1.86 5.25 1.39 9.1477e-41
1.91 5.25 1.38 9.1477e-41
1.96 5.25 1.39 9.1477e-41
2.01 5.25 1.4 9.1477e-41
2.05 5.25 1.39 9.1477e-41
2.09 5.25 1.38 9.1477e-41
2.14 5.25 1.39 9.1477e-41
2.18 5.25 1.38 9.1477e-41
2.23 5.25 1.39 9.1477e-41
2.27 5.25 1.39 9.1477e-41
2.32 5.25 1.38 9.1477e-41
2.36 5.25 1.38 9.1477e-41
2.41 5.25 1.39 9.1477e-41
2.45 5.25 1.38 9.1477e-41
2.49 5.25 1.38 9.1477e-41
2.53 5.25 1.38 9.1477e-41
2.58 5.25 1.39 9.1477e-41
2.62 5.25 1.38 9.1477e-41
2.66 5.25 1.38 9.1477e-41
2.7 5.25 1.38 9.1477e-41
2.74 5.25 1.37 9.1477e-41
2.78 5.25 1.37 9.1477e-41
2.82 5.25 1.37 9.1477e-41
2.86 5.25 1.37 9.1477e-41
2.9 5.25 1.38 9.1477e-41
2.94 5.25 1.38 9.1477e-41
2.98 5.25 1.38 9.1477e-41
3.02 5.25 1.38 9.1477e-41
3.06 5.25 1.37 9.1477e-41
3.1 5.25 1.38 9.1477e-41
3.14 5.25 1.38 9.1477e-41
3.33 5.25 2.07 9.1477e-41
3.38 5.25 2.15 9.1477e-41
3.37 5.25 1.93 9.1477e-41
3.36 5.25 1.73 9.1477e-41
3.37 5.25 1.56 9.1477e-41
0.91 5.28 2.2 9.1477e-41
0.91 5.28 2.14 9.1477e-41
0.91 5.28 2.07 9.1477e-41
0.91 5.28 2.01 9.1477e-41
0.91 5.28 1.95 9.1477e-41
0.91 5.28 1.88 9.1477e-41
0.91 5.28 1.81 9.1477e-41
0.9 5.28 1.73 9.1477e-41
0.9 5.28 1.66 9.1477e-41
0.9 5.28 1.59 9.1477e-41
0.9 5.28 1.51 9.1477e-41
0.9 5.28 1.43 9.1477e-41
0.93 5.28 1.4 9.1477e-41
0.99 5.28 1.4 9.1477e-41
1.04 5.28 1.39 9.1477e-41
1.1 5.28 1.4 9.1477e-41
1.16 5.28 1.4 9.1477e-41
1.21 5.28 1.4 9.1477e-41
1.26 5.28 1.4 9.1477e-41
1.32 5.28 1.4 9.1477e-41
1.37 5.28 1.4 9.1477e-41
1.42 5.28 1.39 9.1477e-41
1.47 5.28 1.39 9.1477e-41
1.52 5.28 1.39 9.1477e-41
1.57 5.28 1.39 9.1477e-41
1.63 5.28 1.4 9.1477e-41
1.67 5.28 1.39 9.1477e-41
1.72 5.28 1.39 9.1477e-41
1.77 5.28 1.39 9.1477e-41
1.82 5.28 1.39 9.1477e-41
1.86 5.28 1.38 9.1477e-41
1.91 5.28 1.39 9.1477e-41
1.96 5.28 1.39 9.1477e-41
2 5.28 1.38 9.1477e-41
2.05 5.28 1.39 9.1477e-41
2.1 5.28 1.39 9.1477e-41
2.14 5.28 1.39 9.1477e-41
2.18 5.28 1.38 9.1477e-41
2.23 5.28 1.39 9.1477e-41
2.27 5.28 1.38 9.1477e-41
2.32 5.28 1.38 9.1477e-41
2.36 5.28 1.37 9.1477e-41
2.41 5.28 1.39 9.1477e-41
2.45 5.28 1.38 9.1477e-41
2.48 5.28 1.37 9.1477e-41
2.53 5.28 1.37 9.1477e-41
2.57 5.28 1.38 9.1477e-41
2.62 5.28 1.38 9.1477e-41
2.66 5.28 1.38 9.1477e-41
2.7 5.28 1.38 9.1477e-41
2.74 5.28 1.37 9.1477e-41
2.78 5.28 1.37 9.1477e-41
2.82 5.28 1.38 9.1477e-41
2.86 5.28 1.37 9.1477e-41
2.9 5.28 1.38 9.1477e-41
2.94 5.28 1.37 9.1477e-41
2.98 5.28 1.37 9.1477e-41
3.02 5.28 1.38 9.1477e-41
3.06 5.28 1.37 9.1477e-41
3.1 5.28 1.38 9.1477e-41
3.14 5.28 1.36 9.1477e-41
3.33 5.28 2.09 9.1477e-41
3.38 5.28 2.15 9.1477e-41
3.36 5.28 1.92 9.1477e-41
3.36 5.28 1.71 9.1477e-41
3.37 5.28 1.55 9.1477e-41
0.9 5.31 2.19 9.1477e-41
0.91 5.31 2.14 9.1477e-41
0.91 5.31 2.07 9.1477e-41
0.91 5.31 2.01 9.1477e-41
0.91 5.31 1.94 9.1477e-41
0.91 5.31 1.88 9.1477e-41
0.9 5.31 1.8 9.1477e-41
0.9 5.31 1.73 9.1477e-41
0.9 5.31 1.66 9.1477e-41
0.9 5.31 1.59 9.1477e-41
0.9 5.31 1.51 9.1477e-41
0.9 5.31 1.43 9.1477e-41
0.94 5.31 1.41 9.1477e-41
0.99 5.31 1.4 9.1477e-41
1.05 5.31 1.4 9.1477e-41
1.1 5.31 1.4 9.1477e-41
1.16 5.31 1.4 9.1477e-41
1.22 5.31 1.41 9.1477e-41
1.26 5.31 1.4 9.1477e-41
1.32 5.31 1.4 9.1477e-41
1.37 5.31 1.4 9.1477e-41
1.42 5.31 1.39 9.1477e-41
1.47 5.31 1.39 9.1477e-41
1.52 5.31 1.39 9.1477e-41
1.58 5.31 1.4 9.1477e-41
1.62 5.31 1.39 9.1477e-41
1.67 5.31 1.39 9.1477e-41
1.72 5.31 1.4 9.1477e-41
1.77 5.31 1.39 9.1477e-41
1.82 5.31 1.4 9.1477e-41
1.86 5.31 1.39 9.1477e-41
1.91 5.31 1.39 9.1477e-41
1.96 5.31 1.39 9.1477e-41
2 5.31 1.39 9.1477e-41
2.05 5.31 1.4 9.1477e-41
2.09 5.31 1.38 9.1477e-41
2.14 5.31 1.39 9.1477e-41
2.18 5.31 1.38 9.1477e-41
2.23 5.31 1.38 9.1477e-41
2.27 5.31 1.39 9.1477e-41
2.32 5.31 1.39 9.1477e-41
2.36 5.31 1.39 9.1477e-41
2.4 5.31 1.38 9.1477e-41
2.45 5.31 1.38 9.1477e-41
2.49 5.31 1.38 9.1477e-41
2.53 5.31 1.37 9.1477e-41
2.57 5.31 1.38 9.1477e-41
2.62 5.31 1.38 9.1477e-41
2.66 5.31 1.38 9.1477e-41
2.7 5.31 1.37 9.1477e-41
2.74 5.31 1.38 9.1477e-41
2.78 5.31 1.38 9.1477e-41
2.82 5.31 1.37 9.1477e-41
2.86 5.31 1.38 9.1477e-41
2.9 5.31 1.38 9.1477e-41
2.94 5.31 1.37 9.1477e-41
2.98 5.31 1.38 9.1477e-41
3.02 5.31 1.38 9.1477e-41
3.06 5.31 1.37 9.1477e-41
3.1 5.31 1.37 9.1477e-41
3.14 5.31 1.38 9.1477e-41
3.34 5.31 2.1 9.1477e-41
3.38 5.31 2.16 9.1477e-41
3.37 5.31 1.94 9.1477e-41
3.35 5.31 1.63 9.1477e-41
3.37 5.31 1.56 9.1477e-41
0.9 5.34 2.19 9.1477e-41
0.92 5.34 2.15 9.1477e-41
0.91 5.34 2.07 9.1477e-41
0.91 5.34 2.01 9.1477e-41
0.91 5.34 1.94 9.1477e-41
0.91 5.34 1.88 9.1477e-41
0.9 5.34 1.8 9.1477e-41
0.9 5.34 1.73 9.1477e-41
0.9 5.34 1.65 9.1477e-41
0.89 5.34 1.58 9.1477e-41
0.9 5.34 1.51 9.1477e-41
0.9 5.34 1.43 9.1477e-41
0.93 5.34 1.4 9.1477e-41
0.99 5.34 1.4 9.1477e-41
1.04 5.34 1.39 9.1477e-41
1.11 5.34 1.41 9.1477e-41
1.16 5.34 1.4 9.1477e-41
1.21 5.34 1.4 9.1477e-41
1.26 5.34 1.4 9.1477e-41
1.32 5.34 1.4 9.1477e-41
1.37 5.34 1.39 9.1477e-41
1.42 5.34 1.39 9.1477e-41
1.47 5.34 1.39 9.1477e-41
1.52 5.34 1.39 9.1477e-41
1.57 5.34 1.39 9.1477e-41
1.62 5.34 1.39 9.1477e-41
1.68 5.34 1.4 9.1477e-41
1.72 5.34 1.39 9.1477e-41
1.77 5.34 1.39 9.1477e-41
1.82 5.34 1.39 9.1477e-41
1.86 5.34 1.38 9.1477e-41
1.91 5.34 1.39 9.1477e-41
1.96 5.34 1.39 9.1477e-41
2 5.34 1.39 9.1477e-41
2.05 5.34 1.39 9.1477e-41
2.1 5.34 1.39 9.1477e-41
2.14 5.34 1.39 9.1477e-41
2.18 5.34 1.38 9.1477e-41
2.23 5.34 1.38 9.1477e-41
2.27 5.34 1.39 9.1477e-41
2.32 5.34 1.38 9.1477e-41
2.36 5.34 1.39 9.1477e-41
2.4 5.34 1.38 9.1477e-41
2.45 5.34 1.38 9.1477e-41
2.49 5.34 1.38 9.1477e-41
2.53 5.34 1.38 9.1477e-41
2.57 5.34 1.38 9.1477e-41
2.61 5.34 1.37 9.1477e-41
2.66 5.34 1.38 9.1477e-41
2.7 5.34 1.38 9.1477e-41
2.74 5.34 1.37 9.1477e-41
2.78 5.34 1.38 9.1477e-41
2.82 5.34 1.38 9.1477e-41
2.86 5.34 1.37 9.1477e-41
2.9 5.34 1.37 9.1477e-41
2.94 5.34 1.37 9.1477e-41
2.98 5.34 1.38 9.1477e-41
3.02 5.34 1.38 9.1477e-41
3.06 5.34 1.38 9.1477e-41
3.1 5.34 1.38 9.1477e-41
3.14 5.34 1.38 9.1477e-41
3.34 5.34 2.1 9.1477e-41
3.38 5.34 2.16 9.1477e-41
3.36 5.34 1.92 9.1477e-41
3.34 5.34 1.6 9.1477e-41
3.37 5.34 1.57 9.1477e-41
0.9 5.37 2.13 9.1477e-41
0.91 5.37 2.08 9.1477e-41
0.91 5.37 2.01 9.1477e-41
0.91 5.37 1.95 9.1477e-41
0.91 5.37 1.88 9.1477e-41
0.9 5.37 1.8 9.1477e-41
0.91 5.37 1.74 9.1477e-41
0.9 5.37 1.66 9.1477e-41
0.9 5.37 1.59 9.1477e-41
0.9 5.37 1.51 9.1477e-41
0.9 5.37 1.43 9.1477e-41
0.93 5.37 1.4 9.1477e-41
0.99 5.37 1.4 9.1477e-41
1.05 5.37 1.4 9.1477e-41
1.1 5.37 1.4 9.1477e-41
1.15 5.37 1.39 9.1477e-41
1.22 5.37 1.41 9.1477e-41
1.26 5.37 1.39 9.1477e-41
1.32 5.37 1.4 9.1477e-41
1.37 5.37 1.39 9.1477e-41
1.42 5.37 1.39 9.1477e-41
1.47 5.37 1.39 9.1477e-41
1.52 5.37 1.4 9.1477e-41
1.57 5.37 1.39 9.1477e-41
1.62 5.37 1.39 9.1477e-41
1.67 5.37 1.39 9.1477e-41
1.72 5.37 1.39 9.1477e-41
1.77 5.37 1.39 9.1477e-41
1.81 5.37 1.38 9.1477e-41
1.86 5.37 1.39 9.1477e-41
1.91 5.37 1.39 9.1477e-41
1.96 5.37 1.39 9.1477e-41
2.01 5.37 1.4 9.1477e-41
2.05 5.37 1.39 9.1477e-41
2.1 5.37 1.39 9.1477e-41
2.14 5.37 1.39 9.1477e-41
2.18 5.37 1.38 9.1477e-41
2.23 5.37 1.38 9.1477e-41
2.27 5.37 1.39 9.1477e-41
2.32 5.37 1.39 9.1477e-41
2.36 5.37 1.37 9.1477e-41
2.41 5.37 1.39 9.1477e-41
2.45 5.37 1.38 9.1477e-41
2.49 5.37 1.38 9.1477e-41
2.53 5.37 1.38 9.1477e-41
2.57 5.37 1.38 9.1477e-41
2.62 5.37 1.38 9.1477e-41
2.65 5.37 1.37 9.1477e-41
2.7 5.37 1.38 9.1477e-41
2.74 5.37 1.37 9.1477e-41
2.78 5.37 1.38 9.1477e-41
2.82 5.37 1.37 9.1477e-41
2.86 5.37 1.38 9.1477e-41
2.9 5.37 1.38 9.1477e-41
2.94 5.37 1.38 9.1477e-41
2.98 5.37 1.38 9.1477e-41
3.02 5.37 1.38 9.1477e-41
3.06 5.37 1.38 9.1477e-41
3.1 5.37 1.38 9.1477e-41
3.14 5.37 1.38 9.1477e-41
3.33 5.37 2.09 9.1477e-41
3.38 5.37 2.16 9.1477e-41
3.37 5.37 1.93 9.1477e-41
3.34 5.37 1.62 9.1477e-41
3.37 5.37 1.57 9.1477e-41
0.9 5.4 2.19 9.1477e-41
0.91 5.4 2.14 9.1477e-41
0.91 5.4 2.07 9.1477e-41
0.9 5.4 2 9.1477e-41
0.91 5.4 1.94 9.1477e-41
0.91 5.4 1.88 9.1477e-41
0.9 5.4 1.8 9.1477e-41
0.91 5.4 1.74 9.1477e-41
0.9 5.4 1.66 9.1477e-41
0.9 5.4 1.59 9.1477e-41
0.9 5.4 1.51 9.1477e-41
0.9 5.4 1.43 9.1477e-41
0.93 5.4 1.4 9.1477e-41
0.99 5.4 1.4 9.1477e-41
1.05 5.4 1.4 9.1477e-41
1.1 5.4 1.4 9.1477e-41
1.16 5.4 1.4 9.1477e-41
1.22 5.4 1.41 9.1477e-41
1.26 5.4 1.4 9.1477e-41
1.32 5.4 1.4 9.1477e-41
1.37 5.4 1.4 9.1477e-41
1.42 5.4 1.39 9.1477e-41
1.47 5.4 1.39 9.1477e-41
1.52 5.4 1.4 9.1477e-41
1.57 5.4 1.39 9.1477e-41
1.63 5.4 1.4 9.1477e-41
1.67 5.4 1.38 9.1477e-41
1.72 5.4 1.4 9.1477e-41
1.77 5.4 1.39 9.1477e-41
1.82 5.4 1.39 9.1477e-41
1.86 5.4 1.39 9.1477e-41
1.91 5.4 1.39 9.1477e-41
1.95 5.4 1.38 9.1477e-41
2 5.4 1.38 9.1477e-41
2.05 5.4 1.4 9.1477e-41
2.1 5.4 1.39 9.1477e-41
2.14 5.4 1.39 9.1477e-41
2.19 5.4 1.39 9.1477e-41
2.23 5.4 1.39 9.1477e-41
2.27 5.4 1.39 9.1477e-41
2.32 5.4 1.39 9.1477e-41
2.36 5.4 1.38 9.1477e-41
2.41 5.4 1.39 9.1477e-41
2.45 5.4 1.38 9.1477e-41
2.49 5.4 1.38 9.1477e-41
2.53 5.4 1.38 9.1477e-41
2.58 5.4 1.39 9.1477e-41
2.62 5.4 1.38 9.1477e-41
2.65 5.4 1.37 9.1477e-41
2.7 5.4 1.38 9.1477e-41
2.74 5.4 1.38 9.1477e-41
2.78 5.4 1.37 9.1477e-41
2.82 5.4 1.37 9.1477e-41
2.86 5.4 1.38 9.1477e-41
2.9 5.4 1.38 9.1477e-41
2.94 5.4 1.38 9.1477e-41
2.98 5.4 1.38 9.1477e-41
3.02 5.4 1.37 9.1477e-41
3.06 5.4 1.38 9.1477e-41
3.1 5.4 1.38 9.1477e-41
3.14 5.4 1.38 9.1477e-41
3.34 5.4 2.1 9.1477e-41
3.38 5.4 2.16 9.1477e-41
3.36 5.4 1.91 9.1477e-41
3.34 5.4 1.61 9.1477e-41
3.37 5.4 1.56 9.1477e-41
0.9 5.43 2.19 9.1477e-41
0.91 5.43 2.14 9.1477e-41
0.9 5.43 2.07 9.1477e-41
0.91 5.43 2.01 9.1477e-41
0.91 5.43 1.94 9.1477e-41
0.91 5.43 1.88 9.1477e-41
0.9 5.43 1.8 9.1477e-41
0.9 5.43 1.73 9.1477e-41
0.9 5.43 1.65 9.1477e-41
0.9 5.43 1.59 9.1477e-41
0.9 5.43 1.51 9.1477e-41
0.89 5.43 1.43 9.1477e-41
0.93 5.43 1.4 9.1477e-41
0.99 5.43 1.4 9.1477e-41
1.05 5.43 1.4 9.1477e-41
1.1 5.43 1.4 9.1477e-41
1.16 5.43 1.4 9.1477e-41
1.21 5.43 1.4 9.1477e-41
1.26 5.43 1.39 9.1477e-41
1.32 5.43 1.4 9.1477e-41
1.37 5.43 1.39 9.1477e-41
1.42 5.43 1.4 9.1477e-41
1.47 5.43 1.39 9.1477e-41
1.52 5.43 1.4 9.1477e-41
1.58 5.43 1.4 9.1477e-41
1.62 5.43 1.39 9.1477e-41
1.67 5.43 1.38 9.1477e-41
1.72 5.43 1.39 9.1477e-41
1.77 5.43 1.4 9.1477e-41
1.82 5.43 1.39 9.1477e-41
1.86 5.43 1.38 9.1477e-41
1.91 5.43 1.39 9.1477e-41
1.95 5.43 1.38 9.1477e-41
2 5.43 1.39 9.1477e-41
2.05 5.43 1.39 9.1477e-41
2.1 5.43 1.39 9.1477e-41
2.14 5.43 1.38 9.1477e-41
2.19 5.43 1.39 9.1477e-41
2.23 5.43 1.39 9.1477e-41
2.27 5.43 1.38 9.1477e-41
2.32 5.43 1.38 9.1477e-41
2.36 5.43 1.39 9.1477e-41
2.4 5.43 1.38 9.1477e-41
2.45 5.43 1.39 9.1477e-41
2.49 5.43 1.38 9.1477e-41
2.53 5.43 1.38 9.1477e-41
2.57 5.43 1.38 9.1477e-41
2.61 5.43 1.37 9.1477e-41
2.65 5.43 1.37 9.1477e-41
2.7 5.43 1.38 9.1477e-41
2.74 5.43 1.37 9.1477e-41
2.78 5.43 1.37 9.1477e-41
2.82 5.43 1.38 9.1477e-41
2.86 5.43 1.38 9.1477e-41
2.9 5.43 1.38 9.1477e-41
2.94 5.43 1.38 9.1477e-41
2.98 5.43 1.37 9.1477e-41
3.02 5.43 1.38 9.1477e-41
3.06 5.43 1.38 9.1477e-41
3.1 5.43 1.38 9.1477e-41
3.14 5.43 1.37 9.1477e-41
3.34 5.43 2.1 9.1477e-41
3.38 5.43 2.16 9.1477e-41
3.36 5.43 1.92 9.1477e-41
3.34 5.43 1.6 9.1477e-41
3.37 5.43 1.56 9.1477e-41
0.9 5.46 2.19 9.1477e-41
0.9 5.46 2.13 9.1477e-41
0.91 5.46 2.07 9.1477e-41
0.91 5.46 2.01 9.1477e-41
0.91 5.46 1.95 9.1477e-41
0.91 5.46 1.88 9.1477e-41
0.9 5.46 1.8 9.1477e-41
0.9 5.46 1.73 9.1477e-41
0.9 5.46 1.65 9.1477e-41
0.9 5.46 1.59 9.1477e-41
0.9 5.46 1.51 9.1477e-41
0.9 5.46 1.43 9.1477e-41
0.93 5.46 1.4 9.1477e-41
0.99 5.46 1.4 9.1477e-41
1.05 5.46 1.4 9.1477e-41
1.1 5.46 1.4 9.1477e-41
1.16 5.46 1.41 9.1477e-41
1.21 5.46 1.4 9.1477e-41
1.26 5.46 1.39 9.1477e-41
1.32 5.46 1.4 9.1477e-41
1.37 5.46 1.4 9.1477e-41
1.42 5.46 1.4 9.1477e-41
1.47 5.46 1.39 9.1477e-41
1.52 5.46 1.4 9.1477e-41
1.57 5.46 1.38 9.1477e-41
1.62 5.46 1.39 9.1477e-41
1.67 5.46 1.39 9.1477e-41
1.72 5.46 1.4 9.1477e-41
1.77 5.46 1.4 9.1477e-41
1.82 5.46 1.39 9.1477e-41
1.86 5.46 1.38 9.1477e-41
1.91 5.46 1.39 9.1477e-41
1.96 5.46 1.4 9.1477e-41
2 5.46 1.39 9.1477e-41
2.05 5.46 1.38 9.1477e-41
2.09 5.46 1.38 9.1477e-41
2.14 5.46 1.38 9.1477e-41
2.19 5.46 1.39 9.1477e-41
2.23 5.46 1.38 9.1477e-41
2.27 5.46 1.39 9.1477e-41
2.32 5.46 1.38 9.1477e-41
2.36 5.46 1.38 9.1477e-41
2.41 5.46 1.39 9.1477e-41
2.45 5.46 1.38 9.1477e-41
2.49 5.46 1.39 9.1477e-41
2.53 5.46 1.38 9.1477e-41
2.58 5.46 1.39 9.1477e-41
2.61 5.46 1.37 9.1477e-41
2.66 5.46 1.38 9.1477e-41
2.7 5.46 1.37 9.1477e-41
2.74 5.46 1.37 9.1477e-41
2.78 5.46 1.38 9.1477e-41
2.82 5.46 1.37 9.1477e-41
2.86 5.46 1.38 9.1477e-41
2.9 5.46 1.38 9.1477e-41
2.94 5.46 1.37 9.1477e-41
2.98 5.46 1.38 9.1477e-41
3.02 5.46 1.37 9.1477e-41
3.06 5.46 1.38 9.1477e-41
3.1 5.46 1.38 9.1477e-41
3.14 5.46 1.38 9.1477e-41
3.34 5.46 2.1 9.1477e-41
3.38 5.46 2.16 9.1477e-41
3.36 5.46 1.92 9.1477e-41
3.34 5.46 1.6 9.1477e-41
3.37 5.46 1.56 9.1477e-41
0.91 5.49 2.2 9.1477e-41
0.91 5.49 2.14 9.1477e-41
0.91 5.49 2.08 9.1477e-41
0.91 5.49 2.01 9.1477e-41
0.91 5.49 1.95 9.1477e-41
0.9 5.49 1.87 9.1477e-41
0.9 5.49 1.8 9.1477e-41
0.9 5.49 1.73 9.1477e-41
0.9 5.49 1.66 9.1477e-41
0.9 5.49 1.59 9.1477e-41
0.9 5.49 1.51 9.1477e-41
0.9 5.49 1.43 9.1477e-41
0.94 5.49 1.41 9.1477e-41
0.99 5.49 1.4 9.1477e-41
1.05 5.49 1.4 9.1477e-41
1.1 5.49 1.4 9.1477e-41
1.16 5.49 1.4 9.1477e-41
1.21 5.49 1.4 9.1477e-41
1.26 5.49 1.4 9.1477e-41
1.32 5.49 1.4 9.1477e-41
1.37 5.49 1.39 9.1477e-41
1.42 5.49 1.4 9.1477e-41
1.47 5.49 1.39 9.1477e-41
1.52 5.49 1.4 9.1477e-41
1.57 5.49 1.39 9.1477e-41
1.62 5.49 1.39 9.1477e-41
1.67 5.49 1.39 9.1477e-41
1.72 5.49 1.39 9.1477e-41
1.77 5.49 1.4 9.1477e-41
1.82 5.49 1.39 9.1477e-41
1.86 5.49 1.39 9.1477e-41
1.91 5.49 1.39 9.1477e-41
1.96 5.49 1.39 9.1477e-41
2 5.49 1.38 9.1477e-41
2.05 5.49 1.38 9.1477e-41
2.1 5.49 1.39 9.1477e-41
2.14 5.49 1.38 9.1477e-41
2.18 5.49 1.38 9.1477e-41
2.23 5.49 1.38 9.1477e-41
2.28 5.49 1.39 9.1477e-41
2.32 5.49 1.38 9.1477e-41
2.36 5.49 1.38 9.1477e-41
2.4 5.49 1.38 9.1477e-41
2.45 5.49 1.39 9.1477e-41
2.49 5.49 1.38 9.1477e-41
2.53 5.49 1.37 9.1477e-41
2.57 5.49 1.38 9.1477e-41
2.61 5.49 1.36 9.1477e-41
2.66 5.49 1.38 9.1477e-41
2.7 5.49 1.38 9.1477e-41
2.74 5.49 1.37 9.1477e-41
2.78 5.49 1.38 9.1477e-41
2.82 5.49 1.38 9.1477e-41
2.86 5.49 1.38 9.1477e-41
2.9 5.49 1.37 9.1477e-41
2.94 5.49 1.38 9.1477e-41
2.98 5.49 1.37 9.1477e-41
3.02 5.49 1.38 9.1477e-41
3.06 5.49 1.37 9.1477e-41
3.1 5.49 1.38 9.1477e-41
3.14 5.49 1.37 9.1477e-41
3.34 5.49 2.1 9.1477e-41
3.38 5.49 2.16 9.1477e-41
3.36 5.49 1.91 9.1477e-41
3.34 5.49 1.6 9.1477e-41
3.37 5.49 1.56 9.1477e-41
0.9 5.52 2.19 9.1477e-41
0.91 5.52 2.14 9.1477e-41
0.91 5.52 2.08 9.1477e-41
0.91 5.52 2.01 9.1477e-41
0.91 5.52 1.94 9.1477e-41
0.91 5.52 1.88 9.1477e-41
0.9 5.52 1.8 9.1477e-41
0.9 5.52 1.73 9.1477e-41
0.9 5.52 1.65 9.1477e-41
0.9 5.52 1.59 9.1477e-41
0.9 5.52 1.51 9.1477e-41
0.9 5.52 1.43 9.1477e-41
0.93 5.52 1.4 9.1477e-41
0.99 5.52 1.4 9.1477e-41
1.05 5.52 1.4 9.1477e-41
1.1 5.52 1.4 9.1477e-41
1.16 5.52 1.4 9.1477e-41
1.21 5.52 1.4 9.1477e-41
1.26 5.52 1.4 9.1477e-41
1.32 5.52 1.4 9.1477e-41
1.37 5.52 1.4 9.1477e-41
1.42 5.52 1.39 9.1477e-41
1.47 5.52 1.39 9.1477e-41
1.52 5.52 1.39 9.1477e-41
1.57 5.52 1.39 9.1477e-41
1.62 5.52 1.39 9.1477e-41
1.67 5.52 1.39 9.1477e-41
1.72 5.52 1.39 9.1477e-41
1.77 5.52 1.39 9.1477e-41
1.82 5.52 1.39 9.1477e-41
1.86 5.52 1.39 9.1477e-41
1.91 5.52 1.39 9.1477e-41
1.95 5.52 1.38 9.1477e-41
2 5.52 1.39 9.1477e-41
2.05 5.52 1.38 9.1477e-41
2.09 5.52 1.38 9.1477e-41
2.14 5.52 1.39 9.1477e-41
2.18 5.52 1.38 9.1477e-41
2.23 5.52 1.38 9.1477e-41
2.27 5.52 1.38 9.1477e-41
2.31 5.52 1.37 9.1477e-41
2.36 5.52 1.39 9.1477e-41
2.4 5.52 1.38 9.1477e-41
2.45 5.52 1.38 9.1477e-41
2.49 5.52 1.39 9.1477e-41
2.53 5.52 1.38 9.1477e-41
2.57 5.52 1.38 9.1477e-41
2.62 5.52 1.38 9.1477e-41
2.66 5.52 1.38 9.1477e-41
2.7 5.52 1.38 9.1477e-41
2.74 5.52 1.37 9.1477e-41
2.78 5.52 1.38 9.1477e-41
2.82 5.52 1.37 9.1477e-41
2.86 5.52 1.38 9.1477e-41
2.9 5.52 1.38 9.1477e-41
2.94 5.52 1.38 9.1477e-41
2.98 5.52 1.38 9.1477e-41
3.02 5.52 1.37 9.1477e-41
3.06 5.52 1.38 9.1477e-41
3.1 5.52 1.38 9.1477e-41
3.14 5.52 1.38 9.1477e-41
3.34 5.52 2.1 9.1477e-41
3.38 5.52 2.16 9.1477e-41
3.36 5.52 1.9 9.1477e-41
3.34 5.52 1.6 9.1477e-41
3.37 5.52 1.56 9.1477e-41
0.9 5.55 2.19 9.1477e-41
0.9 5.55 2.13 9.1477e-41
0.91 5.55 2.07 9.1477e-41
0.91 5.55 2.01 9.1477e-41
0.91 5.55 1.95 9.1477e-41
0.9 5.55 1.87 9.1477e-41
0.9 5.55 1.8 9.1477e-41
0.9 5.55 1.73 9.1477e-41
0.9 5.55 1.66 9.1477e-41
0.9 5.55 1.59 9.1477e-41
0.9 5.55 1.51 9.1477e-41
0.89 5.55 1.43 9.1477e-41
0.93 5.55 1.4 9.1477e-41
0.99 5.55 1.4 9.1477e-41
1.05 5.55 1.4 9.1477e-41
1.11 5.55 1.41 9.1477e-41
1.16 5.55 1.4 9.1477e-41
1.22 5.55 1.41 9.1477e-41
1.26 5.55 1.4 9.1477e-41
1.32 5.55 1.4 9.1477e-41
1.37 5.55 1.39 9.1477e-41
1.42 5.55 1.39 9.1477e-41
1.47 5.55 1.39 9.1477e-41
1.52 5.55 1.39 9.1477e-41
1.57 5.55 1.39 9.1477e-41
1.62 5.55 1.39 9.1477e-41
1.67 5.55 1.38 9.1477e-41
1.72 5.55 1.39 9.1477e-41
1.77 5.55 1.4 9.1477e-41
1.82 5.55 1.39 9.1477e-41
1.86 5.55 1.39 9.1477e-41
1.91 5.55 1.39 9.1477e-41
1.96 5.55 1.39 9.1477e-41
2 5.55 1.39 9.1477e-41
2.05 5.55 1.39 9.1477e-41
2.1 5.55 1.39 9.1477e-41
2.14 5.55 1.39 9.1477e-41
2.19 5.55 1.39 9.1477e-41
2.23 5.55 1.38 9.1477e-41
2.27 5.55 1.39 9.1477e-41
2.32 5.55 1.38 9.1477e-41
2.36 5.55 1.38 9.1477e-41
2.41 5.55 1.4 9.1477e-41
2.44 5.55 1.37 9.1477e-41
2.49 5.55 1.39 9.1477e-41
2.53 5.55 1.38 9.1477e-41
2.58 5.55 1.39 9.1477e-41
2.62 5.55 1.38 9.1477e-41
2.65 5.55 1.37 9.1477e-41
2.7 5.55 1.38 9.1477e-41
2.74 5.55 1.37 9.1477e-41
2.78 5.55 1.37 9.1477e-41
2.82 5.55 1.38 9.1477e-41
2.86 5.55 1.38 9.1477e-41
2.9 5.55 1.38 9.1477e-41
2.94 5.55 1.38 9.1477e-41
2.98 5.55 1.38 9.1477e-41
3.02 5.55 1.38 9.1477e-41
3.06 5.55 1.38 9.1477e-41
3.1 5.55 1.38 9.1477e-41
3.14 5.55 1.36 9.1477e-41
3.34 5.55 2.11 9.1477e-41
3.38 5.55 2.16 9.1477e-41
3.36 5.55 1.9 9.1477e-41
3.34 5.55 1.6 9.1477e-41
3.37 5.55 1.56 9.1477e-41
0.91 5.58 2.2 9.1477e-41
0.9 5.58 2.13 9.1477e-41
0.91 5.58 2.07 9.1477e-41
0.91 5.58 2.01 9.1477e-41
0.91 5.58 1.94 9.1477e-41
0.9 5.58 1.87 9.1477e-41
0.9 5.58 1.8 9.1477e-41
0.9 5.58 1.73 9.1477e-41
0.9 5.58 1.66 9.1477e-41
0.9 5.58 1.59 9.1477e-41
0.89 5.58 1.5 9.1477e-41
0.9 5.58 1.43 9.1477e-41
0.94 5.58 1.41 9.1477e-41
0.99 5.58 1.4 9.1477e-41
1.05 5.58 1.4 9.1477e-41
1.11 5.58 1.41 9.1477e-41
1.16 5.58 1.4 9.1477e-41
1.21 5.58 1.4 9.1477e-41
1.26 5.58 1.4 9.1477e-41
1.32 5.58 1.4 9.1477e-41
1.37 5.58 1.4 9.1477e-41
1.42 5.58 1.4 9.1477e-41
1.47 5.58 1.39 9.1477e-41
1.52 5.58 1.4 9.1477e-41
1.57 5.58 1.39 9.1477e-41
1.62 5.58 1.39 9.1477e-41
1.67 5.58 1.39 9.1477e-41
1.72 5.58 1.39 9.1477e-41
1.77 5.58 1.4 9.1477e-41
1.82 5.58 1.39 9.1477e-41
1.87 5.58 1.4 9.1477e-41
1.91 5.58 1.38 9.1477e-41
1.96 5.58 1.39 9.1477e-41
2 5.58 1.38 9.1477e-41
2.05 5.58 1.39 9.1477e-41
2.1 5.58 1.39 9.1477e-41
2.14 5.58 1.39 9.1477e-41
2.19 5.58 1.39 9.1477e-41
2.23 5.58 1.38 9.1477e-41
2.27 5.58 1.38 9.1477e-41
2.32 5.58 1.38 9.1477e-41
2.36 5.58 1.38 9.1477e-41
2.41 5.58 1.39 9.1477e-41
2.44 5.58 1.37 9.1477e-41
2.49 5.58 1.39 9.1477e-41
2.53 5.58 1.37 9.1477e-41
2.57 5.58 1.38 9.1477e-41
2.62 5.58 1.38 9.1477e-41
2.66 5.58 1.38 9.1477e-41
2.7 5.58 1.39 9.1477e-41
2.74 5.58 1.37 9.1477e-41
2.78 5.58 1.37 9.1477e-41
2.82 5.58 1.37 9.1477e-41
2.86 5.58 1.38 9.1477e-41
2.9 5.58 1.37 9.1477e-41
2.94 5.58 1.37 9.1477e-41
2.98 5.58 1.38 9.1477e-41
3.02 5.58 1.38 9.1477e-41
3.06 5.58 1.38 9.1477e-41
3.1 5.58 1.38 9.1477e-41
3.14 5.58 1.37 9.1477e-41
3.34 5.58 2.1 9.1477e-41
3.38 5.58 2.16 9.1477e-41
3.36 5.58 1.91 9.1477e-41
3.34 5.58 1.6 9.1477e-41
3.37 5.58 1.57 9.1477e-41
0.9 5.61 2.19 9.1477e-41
0.91 5.61 2.14 9.1477e-41
0.91 5.61 2.07 9.1477e-41
0.91 5.61 2.01 9.1477e-41
0.91 5.61 1.95 9.1477e-41
0.9 5.61 1.87 9.1477e-41
0.9 5.61 1.8 9.1477e-41
0.9 5.61 1.73 9.1477e-41
0.9 5.61 1.66 9.1477e-41
0.9 5.61 1.59 9.1477e-41
0.89 5.61 1.5 9.1477e-41
0.89 5.61 1.43 9.1477e-41
0.94 5.61 1.41 9.1477e-41
0.99 5.61 1.4 9.1477e-41
1.04 5.61 1.39 9.1477e-41
1.11 5.61 1.41 9.1477e-41
1.16 5.61 1.4 9.1477e-41
1.21 5.61 1.4 9.1477e-41
1.26 5.61 1.4 9.1477e-41
1.32 5.61 1.41 9.1477e-41
1.37 5.61 1.4 9.1477e-41
1.42 5.61 1.39 9.1477e-41
1.47 5.61 1.39 9.1477e-41
1.52 5.61 1.39 9.1477e-41
1.57 5.61 1.39 9.1477e-41
1.62 5.61 1.39 9.1477e-41
1.67 5.61 1.38 9.1477e-41
1.72 5.61 1.39 9.1477e-41
1.77 5.61 1.4 9.1477e-41
1.82 5.61 1.39 9.1477e-41
1.86 5.61 1.38 9.1477e-41
1.91 5.61 1.39 9.1477e-41
1.95 5.61 1.38 9.1477e-41
2 5.61 1.39 9.1477e-41
2.05 5.61 1.4 9.1477e-41
2.1 5.61 1.39 9.1477e-41
2.15 5.61 1.4 9.1477e-41
2.19 5.61 1.39 9.1477e-41
2.23 5.61 1.38 9.1477e-41
2.27 5.61 1.39 9.1477e-41
2.32 5.61 1.39 9.1477e-41
2.36 5.61 1.39 9.1477e-41
2.4 5.61 1.38 9.1477e-41
2.45 5.61 1.39 9.1477e-41
2.48 5.61 1.37 9.1477e-41
2.53 5.61 1.38 9.1477e-41
2.57 5.61 1.38 9.1477e-41
2.61 5.61 1.37 9.1477e-41
2.66 5.61 1.38 9.1477e-41
2.7 5.61 1.38 9.1477e-41
2.74 5.61 1.37 9.1477e-41
2.78 5.61 1.37 9.1477e-41
2.83 5.61 1.39 9.1477e-41
2.86 5.61 1.38 9.1477e-41
2.9 5.61 1.38 9.1477e-41
2.94 5.61 1.38 9.1477e-41
2.98 5.61 1.38 9.1477e-41
3.03 5.61 1.39 9.1477e-41
3.06 5.61 1.38 9.1477e-41
3.1 5.61 1.38 9.1477e-41
3.14 5.61 1.37 9.1477e-41
3.34 5.61 2.11 9.1477e-41
3.38 5.61 2.16 9.1477e-41
3.36 5.61 1.92 9.1477e-41
3.34 5.61 1.6 9.1477e-41
3.37 5.61 1.56 9.1477e-41
0.92 5.64 2.15 9.1477e-41
0.91 5.64 2.08 9.1477e-41
0.91 5.64 2.01 9.1477e-41
0.91 5.64 1.95 9.1477e-41
0.91 5.64 1.88 9.1477e-41
0.9 5.64 1.8 9.1477e-41
0.91 5.64 1.74 9.1477e-41
0.9 5.64 1.66 9.1477e-41
0.9 5.64 1.59 9.1477e-41
0.9 5.64 1.51 9.1477e-41
0.9 5.64 1.43 9.1477e-41
0.93 5.64 1.4 9.1477e-41
0.99 5.64 1.4 9.1477e-41
1.05 5.64 1.4 9.1477e-41
1.1 5.64 1.39 9.1477e-41
1.15 5.64 1.39 9.1477e-41
1.21 5.64 1.4 9.1477e-41
1.26 5.64 1.4 9.1477e-41
1.32 5.64 1.4 9.1477e-41
1.37 5.64 1.39 9.1477e-41
1.42 5.64 1.39 9.1477e-41
1.47 5.64 1.39 9.1477e-41
1.52 5.64 1.39 9.1477e-41
1.57 5.64 1.39 9.1477e-41
1.62 5.64 1.38 9.1477e-41
1.68 5.64 1.4 9.1477e-41
1.72 5.64 1.39 9.1477e-41
1.77 5.64 1.4 9.1477e-41
1.81 5.64 1.38 9.1477e-41
1.86 5.64 1.39 9.1477e-41
1.91 5.64 1.38 9.1477e-41
1.96 5.64 1.39 9.1477e-41
2 5.64 1.38 9.1477e-41
2.05 5.64 1.39 9.1477e-41
2.1 5.64 1.39 9.1477e-41
2.14 5.64 1.38 9.1477e-41
2.19 5.64 1.39 9.1477e-41
2.23 5.64 1.39 9.1477e-41
2.27 5.64 1.39 9.1477e-41
2.32 5.64 1.38 9.1477e-41
2.36 5.64 1.38 9.1477e-41
2.4 5.64 1.38 9.1477e-41
2.44 5.64 1.37 9.1477e-41
2.49 5.64 1.38 9.1477e-41
2.53 5.64 1.38 9.1477e-41
2.58 5.64 1.39 9.1477e-41
2.62 5.64 1.38 9.1477e-41
2.65 5.64 1.37 9.1477e-41
2.7 5.64 1.38 9.1477e-41
2.74 5.64 1.37 9.1477e-41
2.78 5.64 1.37 9.1477e-41
2.82 5.64 1.38 9.1477e-41
2.86 5.64 1.38 9.1477e-41
2.9 5.64 1.38 9.1477e-41
2.94 5.64 1.38 9.1477e-41
2.98 5.64 1.38 9.1477e-41
3.02 5.64 1.38 9.1477e-41
3.06 5.64 1.38 9.1477e-41
3.1 5.64 1.38 9.1477e-41
3.14 5.64 1.37 9.1477e-41
3.33 5.64 2.09 9.1477e-41
3.38 5.64 2.17 9.1477e-41
3.37 5.64 1.94 9.1477e-41
3.34 5.64 1.62 9.1477e-41
3.37 5.64 1.56 9.1477e-41
0.91 5.67 2.2 9.1477e-41
0.91 5.67 2.14 9.1477e-41
0.91 5.67 2.07 9.1477e-41
0.91 5.67 2.01 9.1477e-41
0.91 5.67 1.95 9.1477e-41
0.9 5.67 1.87 9.1477e-41
0.9 5.67 1.8 9.1477e-41
0.9 5.67 1.73 9.1477e-41
0.9 5.67 1.66 9.1477e-41
0.89 5.67 1.58 9.1477e-41
0.91 5.67 1.52 9.1477e-41
0.89 5.67 1.43 9.1477e-41
0.94 5.67 1.41 9.1477e-41
0.99 5.67 1.4 9.1477e-41
1.05 5.67 1.4 9.1477e-41
1.1 5.67 1.4 9.1477e-41
1.16 5.67 1.4 9.1477e-41
1.22 5.67 1.41 9.1477e-41
1.26 5.67 1.4 9.1477e-41
1.32 5.67 1.4 9.1477e-41
1.36 5.67 1.38 9.1477e-41
1.42 5.67 1.39 9.1477e-41
1.47 5.67 1.39 9.1477e-41
1.52 5.67 1.39 9.1477e-41
1.57 5.67 1.39 9.1477e-41
1.62 5.67 1.39 9.1477e-41
1.67 5.67 1.39 9.1477e-41
1.72 5.67 1.4 9.1477e-41
1.77 5.67 1.4 9.1477e-41
1.82 5.67 1.39 9.1477e-41
1.86 5.67 1.39 9.1477e-41
1.91 5.67 1.39 9.1477e-41
1.96 5.67 1.39 9.1477e-41
2 5.67 1.39 9.1477e-41
2.05 5.67 1.38 9.1477e-41
2.09 5.67 1.38 9.1477e-41
2.14 5.67 1.38 9.1477e-41
2.18 5.67 1.38 9.1477e-41
2.23 5.67 1.38 9.1477e-41
2.27 5.67 1.39 9.1477e-41
2.32 5.67 1.38 9.1477e-41
2.36 5.67 1.39 9.1477e-41
2.4 5.67 1.38 9.1477e-41
2.45 5.67 1.38 9.1477e-41
2.49 5.67 1.39 9.1477e-41
2.53 5.67 1.38 9.1477e-41
2.58 5.67 1.39 9.1477e-41
2.61 5.67 1.37 9.1477e-41
2.66 5.67 1.38 9.1477e-41
2.7 5.67 1.37 9.1477e-41
2.74 5.67 1.37 9.1477e-41
2.78 5.67 1.38 9.1477e-41
2.82 5.67 1.38 9.1477e-41
2.86 5.67 1.37 9.1477e-41
2.9 5.67 1.38 9.1477e-41
2.94 5.67 1.38 9.1477e-41
2.98 5.67 1.38 9.1477e-41
3.02 5.67 1.38 9.1477e-41
3.07 5.67 1.39 9.1477e-41
3.1 5.67 1.38 9.1477e-41
3.14 5.67 1.37 9.1477e-41
3.34 5.67 2.11 9.1477e-41
3.38 5.67 2.16 9.1477e-41
3.36 5.67 1.92 9.1477e-41
3.34 5.67 1.61 9.1477e-41
3.37 5.67 1.56 9.1477e-41
0.9 5.7 2.19 9.1477e-41
0.9 5.7 2.13 9.1477e-41
0.91 5.7 2.07 9.1477e-41
0.91 5.7 2.01 9.1477e-41
0.91 5.7 1.94 9.1477e-41
0.91 5.7 1.88 9.1477e-41
0.9 5.7 1.8 9.1477e-41
0.9 5.7 1.73 9.1477e-41
0.9 5.7 1.66 9.1477e-41
0.89 5.7 1.58 9.1477e-41
0.9 5.7 1.51 9.1477e-41
0.9 5.7 1.43 9.1477e-41
0.93 5.7 1.4 9.1477e-41
0.99 5.7 1.4 9.1477e-41
1.05 5.7 1.4 9.1477e-41
1.1 5.7 1.4 9.1477e-41
1.16 5.7 1.4 9.1477e-41
1.21 5.7 1.4 9.1477e-41
1.26 5.7 1.39 9.1477e-41
1.32 5.7 1.41 9.1477e-41
1.37 5.7 1.39 9.1477e-41
1.42 5.7 1.39 9.1477e-41
1.47 5.7 1.39 9.1477e-41
1.52 5.7 1.4 9.1477e-41
1.57 5.7 1.38 9.1477e-41
1.62 5.7 1.38 9.1477e-41
1.68 5.7 1.4 9.1477e-41
1.72 5.7 1.39 9.1477e-41
1.77 5.7 1.4 9.1477e-41
1.82 5.7 1.39 9.1477e-41
1.87 5.7 1.4 9.1477e-41
1.91 5.7 1.38 9.1477e-41
1.96 5.7 1.4 9.1477e-41
2 5.7 1.39 9.1477e-41
2.05 5.7 1.39 9.1477e-41
2.1 5.7 1.39 9.1477e-41
2.14 5.7 1.38 9.1477e-41
2.18 5.7 1.38 9.1477e-41
2.23 5.7 1.38 9.1477e-41
2.27 5.7 1.39 9.1477e-41
2.32 5.7 1.38 9.1477e-41
2.36 5.7 1.39 9.1477e-41
2.4 5.7 1.38 9.1477e-41
2.45 5.7 1.38 9.1477e-41
2.49 5.7 1.38 9.1477e-41
2.53 5.7 1.38 9.1477e-41
2.58 5.7 1.39 9.1477e-41
2.62 5.7 1.38 9.1477e-41
2.66 5.7 1.38 9.1477e-41
2.7 5.7 1.38 9.1477e-41
2.74 5.7 1.38 9.1477e-41
2.78 5.7 1.38 9.1477e-41
2.82 5.7 1.38 9.1477e-41
2.86 5.7 1.37 9.1477e-41
2.9 5.7 1.38 9.1477e-41
2.95 5.7 1.39 9.1477e-41
2.98 5.7 1.38 9.1477e-41
3.02 5.7 1.38 9.1477e-41
3.06 5.7 1.37 9.1477e-41
3.1 5.7 1.38 9.1477e-41
3.14 5.7 1.37 9.1477e-41
3.34 5.7 2.1 9.1477e-41
3.38 5.7 2.16 9.1477e-41
3.36 5.7 1.92 9.1477e-41
3.34 5.7 1.61 9.1477e-41
3.37 5.7 1.57 9.1477e-41
0.91 5.73 2.2 9.1477e-41
0.91 5.73 2.14 9.1477e-41
0.91 5.73 2.07 9.1477e-41
0.91 5.73 2.01 9.1477e-41
0.91 5.73 1.94 9.1477e-41
0.89 5.73 1.86 9.1477e-41
0.9 5.73 1.79 9.1477e-41
0.9 5.73 1.73 9.1477e-41
0.9 5.73 1.66 9.1477e-41
0.89 5.73 1.58 9.1477e-41
0.9 5.73 1.51 9.1477e-41
0.9 5.73 1.43 9.1477e-41
0.94 5.73 1.41 9.1477e-41
0.99 5.73 1.4 9.1477e-41
1.05 5.73 1.4 9.1477e-41
1.1 5.73 1.4 9.1477e-41
1.16 5.73 1.4 9.1477e-41
1.21 5.73 1.4 9.1477e-41
1.27 5.73 1.41 9.1477e-41
1.32 5.73 1.4 9.1477e-41
1.37 5.73 1.39 9.1477e-41
1.42 5.73 1.39 9.1477e-41
1.47 5.73 1.39 9.1477e-41
1.52 5.73 1.39 9.1477e-41
1.57 5.73 1.39 9.1477e-41
1.63 5.73 1.4 9.1477e-41
1.68 5.73 1.4 9.1477e-41
1.72 5.73 1.39 9.1477e-41
1.77 5.73 1.4 9.1477e-41
1.82 5.73 1.39 9.1477e-41
1.86 5.73 1.38 9.1477e-41
1.91 5.73 1.39 9.1477e-41
1.96 5.73 1.39 9.1477e-41
2 5.73 1.39 9.1477e-41
2.05 5.73 1.39 9.1477e-41
2.1 5.73 1.39 9.1477e-41
2.14 5.73 1.38 9.1477e-41
2.18 5.73 1.38 9.1477e-41
2.23 5.73 1.38 9.1477e-41
2.27 5.73 1.39 9.1477e-41
2.32 5.73 1.38 9.1477e-41
2.36 5.73 1.37 9.1477e-41
2.41 5.73 1.39 9.1477e-41
2.45 5.73 1.38 9.1477e-41
2.49 5.73 1.38 9.1477e-41
2.53 5.73 1.38 9.1477e-41
2.57 5.73 1.38 9.1477e-41
2.62 5.73 1.38 9.1477e-41
2.65 5.73 1.37 9.1477e-41
2.7 5.73 1.38 9.1477e-41
2.74 5.73 1.38 9.1477e-41
2.78 5.73 1.37 9.1477e-41
2.82 5.73 1.38 9.1477e-41
2.86 5.73 1.38 9.1477e-41
2.9 5.73 1.38 9.1477e-41
2.94 5.73 1.38 9.1477e-41
2.98 5.73 1.38 9.1477e-41
3.02 5.73 1.38 9.1477e-41
3.06 5.73 1.37 9.1477e-41
3.1 5.73 1.38 9.1477e-41
3.14 5.73 1.37 9.1477e-41
3.34 5.73 2.1 9.1477e-41
3.38 5.73 2.16 9.1477e-41
3.36 5.73 1.92 9.1477e-41
3.34 5.73 1.61 9.1477e-41
3.37 5.73 1.57 9.1477e-41
0.91 5.76 2.14 9.1477e-41
0.91 5.76 2.08 9.1477e-41
0.91 5.76 2.01 9.1477e-41
0.91 5.76 1.94 9.1477e-41
0.91 5.76 1.88 9.1477e-41
0.91 5.76 1.81 9.1477e-41
0.9 5.76 1.73 9.1477e-41
0.9 5.76 1.65 9.1477e-41
0.89 5.76 1.58 9.1477e-41
0.9 5.76 1.51 9.1477e-41
0.9 5.76 1.43 9.1477e-41
0.94 5.76 1.41 9.1477e-41
0.99 5.76 1.4 9.1477e-41
1.04 5.76 1.39 9.1477e-41
1.1 5.76 1.4 9.1477e-41
1.16 5.76 1.4 9.1477e-41
1.21 5.76 1.4 9.1477e-41
1.26 5.76 1.4 9.1477e-41
1.31 5.76 1.39 9.1477e-41
1.37 5.76 1.39 9.1477e-41
1.42 5.76 1.39 9.1477e-41
1.47 5.76 1.39 9.1477e-41
1.52 5.76 1.39 9.1477e-41
1.57 5.76 1.39 9.1477e-41
1.62 5.76 1.39 9.1477e-41
1.67 5.76 1.39 9.1477e-41
1.71 5.76 1.38 9.1477e-41
1.77 5.76 1.4 9.1477e-41
1.82 5.76 1.39 9.1477e-41
1.86 5.76 1.39 9.1477e-41
1.91 5.76 1.39 9.1477e-41
1.96 5.76 1.39 9.1477e-41
2 5.76 1.38 9.1477e-41
2.05 5.76 1.39 9.1477e-41
2.1 5.76 1.39 9.1477e-41
2.14 5.76 1.39 9.1477e-41
2.18 5.76 1.38 9.1477e-41
2.23 5.76 1.38 9.1477e-41
2.27 5.76 1.39 9.1477e-41
2.32 5.76 1.38 9.1477e-41
2.36 5.76 1.38 9.1477e-41
2.41 5.76 1.39 9.1477e-41
2.45 5.76 1.38 9.1477e-41
2.49 5.76 1.38 9.1477e-41
2.53 5.76 1.38 9.1477e-41
2.57 5.76 1.38 9.1477e-41
2.61 5.76 1.37 9.1477e-41
2.66 5.76 1.38 9.1477e-41
2.7 5.76 1.37 9.1477e-41
2.74 5.76 1.37 9.1477e-41
2.78 5.76 1.37 9.1477e-41
2.82 5.76 1.37 9.1477e-41
2.86 5.76 1.38 9.1477e-41
2.9 5.76 1.38 9.1477e-41
2.94 5.76 1.38 9.1477e-41
2.98 5.76 1.38 9.1477e-41
3.02 5.76 1.38 9.1477e-41
3.06 5.76 1.38 9.1477e-41
3.1 5.76 1.38 9.1477e-41
3.14 5.76 1.38 9.1477e-41
3.34 5.76 2.1 9.1477e-41
3.38 5.76 2.15 9.1477e-41
3.37 5.76 1.94 9.1477e-41
3.34 5.76 1.6 9.1477e-41
3.37 5.76 1.57 9.1477e-41
0.91 5.79 2.2 9.1477e-41
0.91 5.79 2.14 9.1477e-41
0.91 5.79 2.07 9.1477e-41
0.91 5.79 2.01 9.1477e-41
0.91 5.79 1.94 9.1477e-41
0.9 5.79 1.87 9.1477e-41
0.9 5.79 1.8 9.1477e-41
0.9 5.79 1.73 9.1477e-41
0.9 5.79 1.65 9.1477e-41
0.9 5.79 1.59 9.1477e-41
0.9 5.79 1.51 9.1477e-41
0.89 5.79 1.43 9.1477e-41
0.93 5.79 1.4 9.1477e-41
0.99 5.79 1.4 9.1477e-41
1.05 5.79 1.4 9.1477e-41
1.1 5.79 1.4 9.1477e-41
1.16 5.79 1.41 9.1477e-41
1.21 5.79 1.4 9.1477e-41
1.26 5.79 1.4 9.1477e-41
1.32 5.79 1.4 9.1477e-41
1.37 5.79 1.4 9.1477e-41
1.41 5.79 1.38 9.1477e-41
1.47 5.79 1.39 9.1477e-41
1.52 5.79 1.4 9.1477e-41
1.57 5.79 1.39 9.1477e-41
1.63 5.79 1.4 9.1477e-41
1.67 5.79 1.38 9.1477e-41
1.72 5.79 1.4 9.1477e-41
1.77 5.79 1.39 9.1477e-41
1.82 5.79 1.39 9.1477e-41
1.86 5.79 1.39 9.1477e-41
1.92 5.79 1.4 9.1477e-41
1.96 5.79 1.4 9.1477e-41
2 5.79 1.39 9.1477e-41
2.05 5.79 1.39 9.1477e-41
2.1 5.79 1.39 9.1477e-41
2.14 5.79 1.39 9.1477e-41
2.18 5.79 1.38 9.1477e-41
2.23 5.79 1.38 9.1477e-41
2.28 5.79 1.39 9.1477e-41
2.32 5.79 1.38 9.1477e-41
2.36 5.79 1.37 9.1477e-41
2.41 5.79 1.39 9.1477e-41
2.44 5.79 1.37 9.1477e-41
2.49 5.79 1.38 9.1477e-41
2.53 5.79 1.38 9.1477e-41
2.57 5.79 1.38 9.1477e-41
2.61 5.79 1.37 9.1477e-41
2.65 5.79 1.37 9.1477e-41
2.7 5.79 1.38 9.1477e-41
2.74 5.79 1.37 9.1477e-41
2.78 5.79 1.38 9.1477e-41
2.82 5.79 1.38 9.1477e-41
2.86 5.79 1.38 9.1477e-41
2.9 5.79 1.38 9.1477e-41
2.94 5.79 1.37 9.1477e-41
2.98 5.79 1.37 9.1477e-41
3.02 5.79 1.38 9.1477e-41
3.06 5.79 1.38 9.1477e-41
3.1 5.79 1.38 9.1477e-41
3.14 5.79 1.38 9.1477e-41
3.34 5.79 2.1 9.1477e-41
3.38 5.79 2.16 9.1477e-41
3.36 5.79 1.92 9.1477e-41
3.34 5.79 1.61 9.1477e-41
3.37 5.79 1.56 9.1477e-41
0.91 5.82 2.2 9.1477e-41
0.91 5.82 2.14 9.1477e-41
0.91 5.82 2.07 9.1477e-41
0.91 5.82 2.01 9.1477e-41
0.91 5.82 1.94 9.1477e-41
0.91 5.82 1.88 9.1477e-41
0.91 5.82 1.81 9.1477e-41
0.9 5.82 1.73 9.1477e-41
0.9 5.82 1.66 9.1477e-41
0.9 5.82 1.59 9.1477e-41
0.9 5.82 1.51 9.1477e-41
0.89 5.82 1.43 9.1477e-41
0.94 5.82 1.41 9.1477e-41
0.99 5.82 1.4 9.1477e-41
1.05 5.82 1.4 9.1477e-41
1.1 5.82 1.4 9.1477e-41
1.16 5.82 1.41 9.1477e-41
1.21 5.82 1.4 9.1477e-41
1.27 5.82 1.41 9.1477e-41
1.31 5.82 1.39 9.1477e-41
1.37 5.82 1.4 9.1477e-41
1.42 5.82 1.39 9.1477e-41
1.47 5.82 1.39 9.1477e-41
1.52 5.82 1.39 9.1477e-41
1.57 5.82 1.39 9.1477e-41
1.63 5.82 1.4 9.1477e-41
1.67 5.82 1.39 9.1477e-41
1.72 5.82 1.4 9.1477e-41
1.77 5.82 1.4 9.1477e-41
1.82 5.82 1.39 9.1477e-41
1.86 5.82 1.39 9.1477e-41
1.91 5.82 1.39 9.1477e-41
1.96 5.82 1.39 9.1477e-41
2.01 5.82 1.4 9.1477e-41
2.05 5.82 1.4 9.1477e-41
2.1 5.82 1.39 9.1477e-41
2.14 5.82 1.39 9.1477e-41
2.18 5.82 1.38 9.1477e-41
2.23 5.82 1.38 9.1477e-41
2.27 5.82 1.39 9.1477e-41
2.32 5.82 1.39 9.1477e-41
2.36 5.82 1.38 9.1477e-41
2.41 5.82 1.39 9.1477e-41
2.45 5.82 1.38 9.1477e-41
2.49 5.82 1.38 9.1477e-41
2.53 5.82 1.38 9.1477e-41
2.57 5.82 1.38 9.1477e-41
2.62 5.82 1.38 9.1477e-41
2.66 5.82 1.38 9.1477e-41
2.7 5.82 1.38 9.1477e-41
2.74 5.82 1.36 9.1477e-41
2.78 5.82 1.38 9.1477e-41
2.83 5.82 1.39 9.1477e-41
2.86 5.82 1.38 9.1477e-41
2.9 5.82 1.38 9.1477e-41
2.94 5.82 1.38 9.1477e-41
2.98 5.82 1.38 9.1477e-41
3.02 5.82 1.38 9.1477e-41
3.06 5.82 1.38 9.1477e-41
3.1 5.82 1.37 9.1477e-41
3.14 5.82 1.37 9.1477e-41
3.34 5.82 2.11 9.1477e-41
3.38 5.82 2.15 9.1477e-41
3.36 5.82 1.92 9.1477e-41
3.34 5.82 1.6 9.1477e-41
3.37 5.82 1.57 9.1477e-41
0.91 5.85 2.2 9.1477e-41
0.91 5.85 2.14 9.1477e-41
0.9 5.85 2.07 9.1477e-41
0.91 5.85 2.01 9.1477e-41
0.91 5.85 1.95 9.1477e-41
0.91 5.85 1.88 9.1477e-41
0.91 5.85 1.81 9.1477e-41
0.91 5.85 1.74 9.1477e-41
0.9 5.85 1.66 9.1477e-41
0.9 5.85 1.59 9.1477e-41
0.89 5.85 1.5 9.1477e-41
0.9 5.85 1.43 9.1477e-41
0.94 5.85 1.41 9.1477e-41
0.99 5.85 1.4 9.1477e-41
1.05 5.85 1.4 9.1477e-41
1.1 5.85 1.4 9.1477e-41
1.16 5.85 1.4 9.1477e-41
1.21 5.85 1.4 9.1477e-41
1.27 5.85 1.41 9.1477e-41
1.32 5.85 1.4 9.1477e-41
1.37 5.85 1.4 9.1477e-41
1.42 5.85 1.4 9.1477e-41
1.47 5.85 1.39 9.1477e-41
1.52 5.85 1.39 9.1477e-41
1.57 5.85 1.39 9.1477e-41
1.62 5.85 1.39 9.1477e-41
1.67 5.85 1.38 9.1477e-41
1.72 5.85 1.39 9.1477e-41
1.77 5.85 1.4 9.1477e-41
1.82 5.85 1.39 9.1477e-41
1.86 5.85 1.39 9.1477e-41
1.91 5.85 1.39 9.1477e-41
1.96 5.85 1.39 9.1477e-41
2 5.85 1.39 9.1477e-41
2.05 5.85 1.4 9.1477e-41
2.1 5.85 1.39 9.1477e-41
2.14 5.85 1.39 9.1477e-41
2.19 5.85 1.39 9.1477e-41
2.22 5.85 1.37 9.1477e-41
2.27 5.85 1.39 9.1477e-41
2.32 5.85 1.39 9.1477e-41
2.36 5.85 1.38 9.1477e-41
2.41 5.85 1.39 9.1477e-41
2.45 5.85 1.38 9.1477e-41
2.49 5.85 1.38 9.1477e-41
2.53 5.85 1.38 9.1477e-41
2.57 5.85 1.38 9.1477e-41
2.61 5.85 1.37 9.1477e-41
2.66 5.85 1.38 9.1477e-41
2.7 5.85 1.38 9.1477e-41
2.74 5.85 1.38 9.1477e-41
2.78 5.85 1.37 9.1477e-41
2.82 5.85 1.38 9.1477e-41
2.86 5.85 1.38 9.1477e-41
2.9 5.85 1.38 9.1477e-41
2.94 5.85 1.38 9.1477e-41
2.98 5.85 1.38 9.1477e-41
3.02 5.85 1.37 9.1477e-41
3.06 5.85 1.38 9.1477e-41
3.11 5.85 1.39 9.1477e-41
3.14 5.85 1.38 9.1477e-41
3.34 5.85 2.1 9.1477e-41
3.38 5.85 2.15 9.1477e-41
3.36 5.85 1.92 9.1477e-41
3.34 5.85 1.61 9.1477e-41
3.37 5.85 1.57 9.1477e-41
0.91 5.88 2.2 9.1477e-41
0.91 5.88 2.14 9.1477e-41
0.91 5.88 2.07 9.1477e-41
0.91 5.88 2.01 9.1477e-41
0.91 5.88 1.94 9.1477e-41
0.91 5.88 1.88 9.1477e-41
0.9 5.88 1.8 9.1477e-41
0.9 5.88 1.73 9.1477e-41
0.9 5.88 1.65 9.1477e-41
0.9 5.88 1.59 9.1477e-41
0.9 5.88 1.51 9.1477e-41
0.89 5.88 1.43 9.1477e-41
0.93 5.88 1.4 9.1477e-41
0.99 5.88 1.4 9.1477e-41
1.05 5.88 1.41 9.1477e-41
1.1 5.88 1.39 9.1477e-41
1.16 5.88 1.4 9.1477e-41
1.21 5.88 1.4 9.1477e-41
1.26 5.88 1.4 9.1477e-41
1.31 5.88 1.39 9.1477e-41
1.37 5.88 1.4 9.1477e-41
1.42 5.88 1.39 9.1477e-41
1.47 5.88 1.39 9.1477e-41
1.52 5.88 1.39 9.1477e-41
1.57 5.88 1.39 9.1477e-41
1.63 5.88 1.4 9.1477e-41
1.67 5.88 1.39 9.1477e-41
1.72 5.88 1.39 9.1477e-41
1.77 5.88 1.39 9.1477e-41
1.82 5.88 1.39 9.1477e-41
1.86 5.88 1.39 9.1477e-41
1.91 5.88 1.39 9.1477e-41
1.96 5.88 1.39 9.1477e-41
2 5.88 1.39 9.1477e-41
2.05 5.88 1.39 9.1477e-41
2.1 5.88 1.39 9.1477e-41
2.14 5.88 1.39 9.1477e-41
2.19 5.88 1.39 9.1477e-41
2.23 5.88 1.39 9.1477e-41
2.27 5.88 1.39 9.1477e-41
2.32 5.88 1.39 9.1477e-41
2.36 5.88 1.37 9.1477e-41
2.4 5.88 1.38 9.1477e-41
2.45 5.88 1.38 9.1477e-41
2.49 5.88 1.38 9.1477e-41
2.53 5.88 1.38 9.1477e-41
2.57 5.88 1.37 9.1477e-41
2.62 5.88 1.38 9.1477e-41
2.65 5.88 1.37 9.1477e-41
2.7 5.88 1.38 9.1477e-41
2.74 5.88 1.38 9.1477e-41
2.78 5.88 1.37 9.1477e-41
2.82 5.88 1.37 9.1477e-41
2.86 5.88 1.37 9.1477e-41
2.9 5.88 1.38 9.1477e-41
2.94 5.88 1.38 9.1477e-41
2.98 5.88 1.38 9.1477e-41
3.02 5.88 1.37 9.1477e-41
3.06 5.88 1.37 9.1477e-41
3.1 5.88 1.37 9.1477e-41
3.14 5.88 1.37 9.1477e-41
3.34 5.88 2.1 9.1477e-41
3.38 5.88 2.16 9.1477e-41
3.36 5.88 1.91 9.1477e-41
3.34 5.88 1.61 9.1477e-41
3.37 5.88 1.56 9.1477e-41
0.9 5.91 2.19 9.1477e-41
0.91 5.91 2.14 9.1477e-41
0.91 5.91 2.07 9.1477e-41
0.91 5.91 2.01 9.1477e-41
0.91 5.91 1.94 9.1477e-41
0.91 5.91 1.88 9.1477e-41
0.9 5.91 1.8 9.1477e-41
0.9 5.91 1.73 9.1477e-41
0.9 5.91 1.66 9.1477e-41
0.9 5.91 1.59 9.1477e-41
0.9 5.91 1.51 9.1477e-41
0.89 5.91 1.43 9.1477e-41
0.93 5.91 1.4 9.1477e-41
0.99 5.91 1.4 9.1477e-41
1.05 5.91 1.4 9.1477e-41
1.1 5.91 1.4 9.1477e-41
1.16 5.91 1.41 9.1477e-41
1.21 5.91 1.4 9.1477e-41
1.26 5.91 1.4 9.1477e-41
1.32 5.91 1.4 9.1477e-41
1.37 5.91 1.39 9.1477e-41
1.42 5.91 1.4 9.1477e-41
1.47 5.91 1.39 9.1477e-41
1.52 5.91 1.4 9.1477e-41
1.57 5.91 1.39 9.1477e-41
1.62 5.91 1.39 9.1477e-41
1.67 5.91 1.39 9.1477e-41
1.72 5.91 1.39 9.1477e-41
1.77 5.91 1.39 9.1477e-41
1.82 5.91 1.39 9.1477e-41
1.86 5.91 1.39 9.1477e-41
1.91 5.91 1.39 9.1477e-41
1.96 5.91 1.39 9.1477e-41
2 5.91 1.39 9.1477e-41
2.05 5.91 1.38 9.1477e-41
2.1 5.91 1.39 9.1477e-41
2.14 5.91 1.39 9.1477e-41
2.18 5.91 1.38 9.1477e-41
2.23 5.91 1.39 9.1477e-41
2.28 5.91 1.39 9.1477e-41
2.32 5.91 1.39 9.1477e-41
2.36 5.91 1.38 9.1477e-41
2.4 5.91 1.38 9.1477e-41
2.45 5.91 1.38 9.1477e-41
2.49 5.91 1.38 9.1477e-41
2.54 5.91 1.39 9.1477e-41
2.57 5.91 1.38 9.1477e-41
2.61 5.91 1.37 9.1477e-41
2.65 5.91 1.37 9.1477e-41
2.7 5.91 1.39 9.1477e-41
2.74 5.91 1.38 9.1477e-41
2.78 5.91 1.37 9.1477e-41
2.82 5.91 1.38 9.1477e-41
2.86 5.91 1.38 9.1477e-41
2.9 5.91 1.38 9.1477e-41
2.94 5.91 1.38 9.1477e-41
2.98 5.91 1.38 9.1477e-41
