# .PCD v.7 - Point Cloud Data file format
VERSION .7
FIELDS x y z rgb
SIZE 4 4 4 4
TYPE F F F F
WIDTH 1873
HEIGHT 1
POINTS 1873
DATA ascii
2.82 1.12 3.23 9.1477e-41
2.85 1.12 3.22 9.1477e-41
2.87 1.12 3.22 9.1477e-41
2.9 1.12 3.23 9.1477e-41
2.92 1.12 3.22 9.1477e-41
2.95 1.12 3.23 9.1477e-41
2.98 1.12 3.23 9.1477e-41
3 1.12 3.22 9.1477e-41
3.03 1.12 3.23 9.1477e-41
3.06 1.12 3.23 9.1477e-41
3.08 1.12 3.24 9.1477e-41
3.11 1.12 3.24 9.1477e-41
3.13 1.12 3.24 9.1477e-41
3.16 1.12 3.24 9.1477e-41
3.18 1.12 3.24 9.1477e-41
3.21 1.12 3.23 9.1477e-41
3.22 1.12 3.21 9.1477e-41
3.24 1.12 3.18 9.1477e-41
3.23 1.12 3.08 9.1477e-41
3.23 1.12 3.01 9.1477e-41
3.21 1.12 2.88 9.1477e-41
3.2 1.12 2.76 9.1477e-41
3.23 1.12 2.76 9.1477e-41
3.26 1.12 2.75 9.1477e-41
3.29 1.12 2.76 9.1477e-41
3.31 1.12 2.75 9.1477e-41
3.33 1.12 2.72 9.1477e-41
3.35 1.12 2.69 9.1477e-41
3.37 1.12 2.65 9.1477e-41
3.4 1.12 2.65 9.1477e-41
3.39 1.12 2.5 9.1477e-41
3.39 1.12 2.38 9.1477e-41
3.4 1.12 2.26 9.1477e-41
3.4 1.12 2.11 9.1477e-41
3.41 1.12 1.96 9.1477e-41
3.41 1.12 1.8 9.1477e-41
3.42 1.12 1.62 9.1477e-41
3.42 1.12 1.43 9.1477e-41
3.44 1.12 1.32 9.1477e-41
3.48 1.12 1.27 9.1477e-41
3.44 1.12 0.72 9.1477e-41
3.48 1.12 0.64 9.1477e-41
1.44 1.26 3.37 9.1477e-41
1.49 1.26 3.37 9.1477e-41
1.52 1.26 3.36 9.1477e-41
1.57 1.26 3.36 9.1477e-41
1.61 1.26 3.36 9.1477e-41
1.66 1.26 3.36 9.1477e-41
1.69 1.26 3.35 9.1477e-41
1.73 1.26 3.35 9.1477e-41
1.78 1.26 3.36 9.1477e-41
1.82 1.26 3.36 9.1477e-41
1.85 1.26 3.35 9.1477e-41
1.89 1.26 3.35 9.1477e-41
1.93 1.26 3.35 9.1477e-41
1.96 1.26 3.35 9.1477e-41
1.99 1.26 3.34 9.1477e-41
2.04 1.26 3.35 9.1477e-41
2.07 1.26 3.34 9.1477e-41
2.1 1.26 3.34 9.1477e-41
2.14 1.26 3.35 9.1477e-41
2.17 1.26 3.34 9.1477e-41
2.2 1.26 3.34 9.1477e-41
2.23 1.26 3.34 9.1477e-41
2.27 1.26 3.33 9.1477e-41
2.29 1.26 3.33 9.1477e-41
2.34 1.26 3.34 9.1477e-41
2.36 1.26 3.33 9.1477e-41
2.39 1.26 3.33 9.1477e-41
2.42 1.26 3.33 9.1477e-41
2.45 1.26 3.33 9.1477e-41
2.49 1.26 3.33 9.1477e-41
2.51 1.26 3.33 9.1477e-41
2.54 1.26 3.33 9.1477e-41
2.57 1.26 3.33 9.1477e-41
2.6 1.26 3.33 9.1477e-41
2.62 1.26 3.32 9.1477e-41
2.66 1.26 3.33 9.1477e-41
2.68 1.26 3.33 9.1477e-41
2.7 1.26 3.31 9.1477e-41
2.74 1.26 3.32 9.1477e-41
2.76 1.26 3.32 9.1477e-41
2.79 1.26 3.31 9.1477e-41
2.82 1.26 3.32 9.1477e-41
2.84 1.26 3.32 9.1477e-41
2.87 1.26 3.32 9.1477e-41
2.89 1.26 3.31 9.1477e-41
2.92 1.26 3.31 9.1477e-41
2.94 1.26 3.31 9.1477e-41
2.97 1.26 3.31 9.1477e-41
2.99 1.26 3.31 9.1477e-41
3.02 1.26 3.31 9.1477e-41
3.05 1.26 3.32 9.1477e-41
3.07 1.26 3.31 9.1477e-41
3.09 1.26 3.32 9.1477e-41
3.12 1.26 3.32 9.1477e-41
3.14 1.26 3.3 9.1477e-41
3.17 1.26 3.32 9.1477e-41
3.19 1.26 3.31 9.1477e-41
3.21 1.26 3.31 9.1477e-41
3.23 1.26 3.29 9.1477e-41
3.25 1.26 3.28 9.1477e-41
3.26 1.26 3.25 9.1477e-41
3.26 1.26 3.18 9.1477e-41
3.25 1.26 3.09 9.1477e-41
3.24 1.26 2.96 9.1477e-41
3.21 1.26 2.77 9.1477e-41
3.23 1.26 2.76 9.1477e-41
3.26 1.26 2.75 9.1477e-41
3.29 1.26 2.76 9.1477e-41
3.31 1.26 2.75 9.1477e-41
3.33 1.26 2.73 9.1477e-41
3.35 1.26 2.69 9.1477e-41
3.37 1.26 2.64 9.1477e-41
3.38 1.26 2.6 9.1477e-41
3.37 1.26 2.4 9.1477e-41
3.38 1.26 2.29 9.1477e-41
3.38 1.26 2.17 9.1477e-41
3.39 1.26 2.02 9.1477e-41
3.4 1.26 1.91 9.1477e-41
3.41 1.26 1.8 9.1477e-41
3.4 1.26 1.51 9.1477e-41
3.41 1.26 1.38 9.1477e-41
3.44 1.26 1.32 9.1477e-41
3.47 1.26 1.26 9.1477e-41
3.44 1.26 0.72 9.1477e-41
3.48 1.26 0.64 9.1477e-41
1.41 1.4 3.43 9.1477e-41
1.46 1.4 3.42 9.1477e-41
1.51 1.4 3.42 9.1477e-41
1.54 1.4 3.42 9.1477e-41
1.59 1.4 3.42 9.1477e-41
1.63 1.4 3.42 9.1477e-41
1.68 1.4 3.42 9.1477e-41
1.72 1.4 3.42 9.1477e-41
1.76 1.4 3.42 9.1477e-41
1.8 1.4 3.42 9.1477e-41
1.84 1.4 3.42 9.1477e-41
1.88 1.4 3.42 9.1477e-41
1.91 1.4 3.41 9.1477e-41
1.95 1.4 3.42 9.1477e-41
1.99 1.4 3.42 9.1477e-41
2.02 1.4 3.41 9.1477e-41
2.06 1.4 3.42 9.1477e-41
2.09 1.4 3.41 9.1477e-41
2.13 1.4 3.41 9.1477e-41
2.15 1.4 3.4 9.1477e-41
2.19 1.4 3.41 9.1477e-41
2.22 1.4 3.4 9.1477e-41
2.26 1.4 3.41 9.1477e-41
2.28 1.4 3.4 9.1477e-41
2.32 1.4 3.4 9.1477e-41
2.35 1.4 3.4 9.1477e-41
2.38 1.4 3.4 9.1477e-41
2.41 1.4 3.4 9.1477e-41
2.44 1.4 3.39 9.1477e-41
2.46 1.4 3.39 9.1477e-41
2.5 1.4 3.4 9.1477e-41
2.53 1.4 3.4 9.1477e-41
2.55 1.4 3.39 9.1477e-41
2.58 1.4 3.39 9.1477e-41
2.61 1.4 3.39 9.1477e-41
2.64 1.4 3.39 9.1477e-41
2.66 1.4 3.39 9.1477e-41
2.7 1.4 3.4 9.1477e-41
2.72 1.4 3.39 9.1477e-41
2.74 1.4 3.38 9.1477e-41
2.78 1.4 3.39 9.1477e-41
2.8 1.4 3.39 9.1477e-41
2.82 1.4 3.38 9.1477e-41
2.85 1.4 3.39 9.1477e-41
2.88 1.4 3.39 9.1477e-41
2.9 1.4 3.38 9.1477e-41
2.93 1.4 3.39 9.1477e-41
2.95 1.4 3.38 9.1477e-41
2.98 1.4 3.38 9.1477e-41
3 1.4 3.38 9.1477e-41
3.03 1.4 3.38 9.1477e-41
3.05 1.4 3.37 9.1477e-41
3.07 1.4 3.37 9.1477e-41
3.09 1.4 3.37 9.1477e-41
3.12 1.4 3.37 9.1477e-41
3.15 1.4 3.38 9.1477e-41
3.17 1.4 3.38 9.1477e-41
3.19 1.4 3.37 9.1477e-41
3.21 1.4 3.37 9.1477e-41
3.23 1.4 3.37 9.1477e-41
3.26 1.4 3.37 9.1477e-41
3.27 1.4 3.36 9.1477e-41
3.29 1.4 3.33 9.1477e-41
3.31 1.4 3.32 9.1477e-41
3.31 1.4 3.27 9.1477e-41
3.31 1.4 3.2 9.1477e-41
3.32 1.4 3.13 9.1477e-41
3.29 1.4 2.97 9.1477e-41
3.26 1.4 2.76 9.1477e-41
3.29 1.4 2.76 9.1477e-41
3.31 1.4 2.75 9.1477e-41
3.33 1.4 2.72 9.1477e-41
3.35 1.4 2.69 9.1477e-41
3.37 1.4 2.64 9.1477e-41
3.38 1.4 2.6 9.1477e-41
3.37 1.4 2.41 9.1477e-41
3.38 1.4 2.3 9.1477e-41
3.38 1.4 2.17 9.1477e-41
3.39 1.4 2.03 9.1477e-41
3.4 1.4 1.9 9.1477e-41
3.41 1.4 1.8 9.1477e-41
3.4 1.4 1.5 9.1477e-41
3.41 1.4 1.36 9.1477e-41
3.45 1.4 1.33 9.1477e-41
3.48 1.4 1.28 9.1477e-41
3.41 1.4 0.51 9.1477e-41
1.34 1.54 2.82 9.1477e-41
1.38 1.54 2.82 9.1477e-41
1.44 1.54 2.83 9.1477e-41
1.48 1.54 2.82 9.1477e-41
1.53 1.54 2.82 9.1477e-41
1.58 1.54 2.83 9.1477e-41
1.61 1.54 2.81 9.1477e-41
1.66 1.54 2.82 9.1477e-41
1.71 1.54 2.83 9.1477e-41
1.76 1.54 2.84 9.1477e-41
1.79 1.54 2.82 9.1477e-41
1.83 1.54 2.83 9.1477e-41
1.87 1.54 2.82 9.1477e-41
1.91 1.54 2.83 9.1477e-41
1.94 1.54 2.82 9.1477e-41
1.98 1.54 2.81 9.1477e-41
2.03 1.54 2.83 9.1477e-41
2.06 1.54 2.83 9.1477e-41
2.09 1.54 2.82 9.1477e-41
2.13 1.54 2.82 9.1477e-41
2.16 1.54 2.81 9.1477e-41
2.2 1.54 2.81 9.1477e-41
2.23 1.54 2.81 9.1477e-41
2.27 1.54 2.82 9.1477e-41
2.31 1.54 2.83 9.1477e-41
2.33 1.54 2.8 9.1477e-41
2.37 1.54 2.81 9.1477e-41
2.4 1.54 2.81 9.1477e-41
2.45 1.54 2.82 9.1477e-41
2.47 1.54 2.81 9.1477e-41
2.5 1.54 2.81 9.1477e-41
2.54 1.54 2.81 9.1477e-41
2.57 1.54 2.81 9.1477e-41
2.6 1.54 2.81 9.1477e-41
2.63 1.54 2.81 9.1477e-41
2.67 1.54 2.81 9.1477e-41
2.7 1.54 2.82 9.1477e-41
2.73 1.54 2.8 9.1477e-41
2.76 1.54 2.8 9.1477e-41
2.79 1.54 2.82 9.1477e-41
2.82 1.54 2.82 9.1477e-41
2.85 1.54 2.8 9.1477e-41
2.88 1.54 2.81 9.1477e-41
2.9 1.54 2.8 9.1477e-41
2.93 1.54 2.79 9.1477e-41
2.96 1.54 2.8 9.1477e-41
2.99 1.54 2.8 9.1477e-41
3.01 1.54 2.78 9.1477e-41
3.04 1.54 2.78 9.1477e-41
3.07 1.54 2.78 9.1477e-41
3.1 1.54 2.78 9.1477e-41
3.13 1.54 2.78 9.1477e-41
3.16 1.54 2.78 9.1477e-41
3.18 1.54 2.79 9.1477e-41
3.21 1.54 2.77 9.1477e-41
3.23 1.54 2.77 9.1477e-41
3.26 1.54 2.76 9.1477e-41
3.29 1.54 2.76 9.1477e-41
3.31 1.54 2.76 9.1477e-41
3.33 1.54 2.73 9.1477e-41
3.35 1.54 2.69 9.1477e-41
3.37 1.54 2.65 9.1477e-41
3.38 1.54 2.59 9.1477e-41
3.37 1.54 2.41 9.1477e-41
3.38 1.54 2.29 9.1477e-41
3.38 1.54 2.18 9.1477e-41
3.39 1.54 2.02 9.1477e-41
3.4 1.54 1.91 9.1477e-41
3.41 1.54 1.81 9.1477e-41
3.4 1.54 1.51 9.1477e-41
3.41 1.54 1.32 9.1477e-41
3.43 1.54 1.23 9.1477e-41
3.47 1.54 1.2 9.1477e-41
3.44 1.54 0.7 9.1477e-41
1.34 1.68 2.83 9.1477e-41
1.39 1.68 2.82 9.1477e-41
1.44 1.68 2.83 9.1477e-41
1.49 1.68 2.83 9.1477e-41
1.53 1.68 2.83 9.1477e-41
1.58 1.68 2.83 9.1477e-41
1.62 1.68 2.82 9.1477e-41
1.66 1.68 2.82 9.1477e-41
1.71 1.68 2.83 9.1477e-41
1.75 1.68 2.84 9.1477e-41
1.8 1.68 2.84 9.1477e-41
1.83 1.68 2.83 9.1477e-41
1.87 1.68 2.83 9.1477e-41
1.91 1.68 2.83 9.1477e-41
1.95 1.68 2.83 9.1477e-41
1.98 1.68 2.82 9.1477e-41
2.02 1.68 2.82 9.1477e-41
2.06 1.68 2.83 9.1477e-41
2.1 1.68 2.82 9.1477e-41
2.13 1.68 2.82 9.1477e-41
2.17 1.68 2.81 9.1477e-41
2.2 1.68 2.81 9.1477e-41
2.23 1.68 2.81 9.1477e-41
2.27 1.68 2.82 9.1477e-41
2.31 1.68 2.82 9.1477e-41
2.34 1.68 2.81 9.1477e-41
2.37 1.68 2.81 9.1477e-41
2.41 1.68 2.81 9.1477e-41
2.45 1.68 2.82 9.1477e-41
2.47 1.68 2.81 9.1477e-41
2.51 1.68 2.81 9.1477e-41
2.54 1.68 2.81 9.1477e-41
2.57 1.68 2.81 9.1477e-41
2.61 1.68 2.82 9.1477e-41
2.64 1.68 2.81 9.1477e-41
2.66 1.68 2.8 9.1477e-41
2.7 1.68 2.81 9.1477e-41
2.73 1.68 2.81 9.1477e-41
2.76 1.68 2.81 9.1477e-41
2.79 1.68 2.82 9.1477e-41
2.82 1.68 2.82 9.1477e-41
2.85 1.68 2.81 9.1477e-41
2.88 1.68 2.8 9.1477e-41
2.9 1.68 2.79 9.1477e-41
2.93 1.68 2.79 9.1477e-41
2.96 1.68 2.79 9.1477e-41
2.99 1.68 2.8 9.1477e-41
3.02 1.68 2.79 9.1477e-41
3.04 1.68 2.79 9.1477e-41
3.07 1.68 2.78 9.1477e-41
3.1 1.68 2.78 9.1477e-41
3.13 1.68 2.78 9.1477e-41
3.15 1.68 2.77 9.1477e-41
3.18 1.68 2.79 9.1477e-41
3.21 1.68 2.77 9.1477e-41
3.23 1.68 2.77 9.1477e-41
3.26 1.68 2.77 9.1477e-41
3.29 1.68 2.76 9.1477e-41
3.31 1.68 2.76 9.1477e-41
3.33 1.68 2.73 9.1477e-41
3.35 1.68 2.69 9.1477e-41
3.37 1.68 2.64 9.1477e-41
3.38 1.68 2.6 9.1477e-41
3.39 1.68 2.47 9.1477e-41
3.39 1.68 2.37 9.1477e-41
3.4 1.68 2.26 9.1477e-41
3.41 1.68 2.13 9.1477e-41
3.41 1.68 2 9.1477e-41
3.42 1.68 1.84 9.1477e-41
3.4 1.68 1.5 9.1477e-41
3.39 1.68 1.23 9.1477e-41
3.41 1.68 1.07 9.1477e-41
3.45 1.68 1.05 9.1477e-41
3.46 1.68 0.89 9.1477e-41
1.31 1.82 2.79 9.1477e-41
1.38 1.82 2.82 9.1477e-41
1.43 1.82 2.82 9.1477e-41
1.48 1.82 2.82 9.1477e-41
1.52 1.82 2.81 9.1477e-41
1.57 1.82 2.82 9.1477e-41
1.62 1.82 2.82 9.1477e-41
1.66 1.82 2.82 9.1477e-41
1.7 1.82 2.83 9.1477e-41
1.74 1.82 2.82 9.1477e-41
1.79 1.82 2.83 9.1477e-41
1.83 1.82 2.83 9.1477e-41
1.87 1.82 2.82 9.1477e-41
1.91 1.82 2.83 9.1477e-41
1.95 1.82 2.82 9.1477e-41
1.98 1.82 2.82 9.1477e-41
2.02 1.82 2.82 9.1477e-41
2.06 1.82 2.83 9.1477e-41
2.09 1.82 2.82 9.1477e-41
2.14 1.82 2.82 9.1477e-41
2.16 1.82 2.81 9.1477e-41
2.21 1.82 2.82 9.1477e-41
2.24 1.82 2.82 9.1477e-41
2.27 1.82 2.82 9.1477e-41
2.31 1.82 2.82 9.1477e-41
2.34 1.82 2.81 9.1477e-41
2.37 1.82 2.81 9.1477e-41
2.4 1.82 2.81 9.1477e-41
2.45 1.82 2.82 9.1477e-41
2.47 1.82 2.81 9.1477e-41
2.51 1.82 2.81 9.1477e-41
2.54 1.82 2.81 9.1477e-41
2.57 1.82 2.81 9.1477e-41
2.61 1.82 2.82 9.1477e-41
2.64 1.82 2.81 9.1477e-41
2.67 1.82 2.81 9.1477e-41
2.7 1.82 2.81 9.1477e-41
2.73 1.82 2.81 9.1477e-41
2.76 1.82 2.81 9.1477e-41
2.79 1.82 2.81 9.1477e-41
2.82 1.82 2.81 9.1477e-41
2.85 1.82 2.8 9.1477e-41
2.88 1.82 2.8 9.1477e-41
2.9 1.82 2.79 9.1477e-41
2.94 1.82 2.81 9.1477e-41
2.96 1.82 2.8 9.1477e-41
2.99 1.82 2.79 9.1477e-41
3.02 1.82 2.8 9.1477e-41
3.04 1.82 2.79 9.1477e-41
3.07 1.82 2.79 9.1477e-41
3.1 1.82 2.78 9.1477e-41
3.13 1.82 2.79 9.1477e-41
3.16 1.82 2.78 9.1477e-41
3.18 1.82 2.78 9.1477e-41
3.21 1.82 2.78 9.1477e-41
3.23 1.82 2.77 9.1477e-41
3.27 1.82 2.78 9.1477e-41
3.29 1.82 2.77 9.1477e-41
3.31 1.82 2.76 9.1477e-41
3.33 1.82 2.73 9.1477e-41
3.35 1.82 2.69 9.1477e-41
3.37 1.82 2.64 9.1477e-41
3.38 1.82 2.6 9.1477e-41
3.38 1.82 2.46 9.1477e-41
3.39 1.82 2.37 9.1477e-41
3.4 1.82 2.26 9.1477e-41
3.41 1.82 2.13 9.1477e-41
3.41 1.82 1.99 9.1477e-41
3.42 1.82 1.83 9.1477e-41
3.39 1.82 1.44 9.1477e-41
3.31 1.82 0.7 9.1477e-41
3.35 1.82 0.72 9.1477e-41
1.24 1.96 2.62 9.1477e-41
1.29 1.96 2.62 9.1477e-41
1.33 1.96 2.61 9.1477e-41
1.38 1.96 2.6 9.1477e-41
1.42 1.96 2.6 9.1477e-41
1.47 1.96 2.6 9.1477e-41
1.51 1.96 2.6 9.1477e-41
1.54 1.96 2.58 9.1477e-41
1.56 1.96 2.54 9.1477e-41
1.56 1.96 2.49 9.1477e-41
1.56 1.96 2.43 9.1477e-41
1.56 1.96 2.37 9.1477e-41
1.56 1.96 2.3 9.1477e-41
1.56 1.96 2.25 9.1477e-41
1.55 1.96 2.17 9.1477e-41
1.55 1.96 2.11 9.1477e-41
1.54 1.96 2.03 9.1477e-41
1.55 1.96 1.97 9.1477e-41
1.53 1.96 1.88 9.1477e-41
1.57 1.96 1.86 9.1477e-41
1.56 1.96 1.77 9.1477e-41
1.53 1.96 1.65 9.1477e-41
1.54 1.96 1.58 9.1477e-41
1.52 1.96 1.48 9.1477e-41
1.54 1.96 1.42 9.1477e-41
1.54 1.96 1.34 9.1477e-41
1.54 1.96 1.25 9.1477e-41
1.52 1.96 1.13 9.1477e-41
1.51 1.96 1.01 9.1477e-41
1.55 1.96 0.99 9.1477e-41
1.59 1.96 0.97 9.1477e-41
1.78 1.96 1.23 9.1477e-41
1.84 1.96 1.25 9.1477e-41
1.86 1.96 1.19 9.1477e-41
1.85 1.96 1.08 9.1477e-41
1.87 1.96 1.01 9.1477e-41
1.83 1.96 0.83 9.1477e-41
1.88 1.96 0.82 9.1477e-41
1.98 1.96 0.92 9.1477e-41
2.05 1.96 0.98 9.1477e-41
2.12 1.96 1.02 9.1477e-41
2.19 1.96 1.06 9.1477e-41
2.23 1.96 1.05 9.1477e-41
2.26 1.96 1.02 9.1477e-41
2.31 1.96 1.02 9.1477e-41
2.35 1.96 1.02 9.1477e-41
2.39 1.96 1 9.1477e-41
2.4 1.96 0.9 9.1477e-41
2.39 1.96 0.71 9.1477e-41
2.68 1.96 1.19 9.1477e-41
2.7 1.96 1.12 9.1477e-41
2.69 1.96 0.92 9.1477e-41
2.71 1.96 0.86 9.1477e-41
2.76 1.96 0.88 9.1477e-41
2.84 1.96 1 9.1477e-41
2.88 1.96 0.97 9.1477e-41
2.92 1.96 0.96 9.1477e-41
2.96 1.96 0.95 9.1477e-41
3.01 1.96 0.97 9.1477e-41
3.05 1.96 0.97 9.1477e-41
3.09 1.96 0.95 9.1477e-41
3.14 1.96 0.97 9.1477e-41
3.34 1.96 1.78 9.1477e-41
3.32 1.96 1.47 9.1477e-41
3.3 1.96 1.19 9.1477e-41
3.31 1.96 1.01 9.1477e-41
3.36 1.96 1.01 3.57e-43
3.35 1.96 0.72 9.1477e-41
1.15 2.1 3.37 9.1477e-41
1.19 2.1 3.37 9.1477e-41
1.24 2.1 3.36 9.1477e-41
1.26 2.1 3.34 9.1477e-41
1.33 2.1 3.35 9.1477e-41
1.37 2.1 3.34 9.1477e-41
1.42 2.1 3.35 9.1477e-41
1.44 2.1 3.33 9.1477e-41
1.49 2.1 3.33 9.1477e-41
1.52 2.1 3.32 9.1477e-41
1.59 2.1 3.34 9.1477e-41
1.59 2.1 3.3 9.1477e-41
1.64 2.1 3.31 9.1477e-41
1.68 2.1 3.31 9.1477e-41
1.7 2.1 3.28 9.1477e-41
1.73 2.1 3.26 9.1477e-41
1.77 2.1 3.27 9.1477e-41
1.89 2.1 3.35 9.1477e-41
1.92 2.1 3.34 9.1477e-41
1.94 2.1 3.32 9.1477e-41
1.94 2.1 3.28 9.1477e-41
1.94 2.1 3.24 9.1477e-41
1.95 2.1 3.21 9.1477e-41
1.94 2.1 3.15 9.1477e-41
1.95 2.1 3.12 9.1477e-41
1.94 2.1 3.06 9.1477e-41
1.94 2.1 3.02 9.1477e-41
1.95 2.1 2.98 9.1477e-41
1.95 2.1 2.92 9.1477e-41
1.95 2.1 2.87 9.1477e-41
1.95 2.1 2.82 9.1477e-41
1.95 2.1 2.77 9.1477e-41
1.96 2.1 2.73 9.1477e-41
1.95 2.1 2.67 9.1477e-41
1.94 2.1 2.6 9.1477e-41
1.94 2.1 2.54 9.1477e-41
1.93 2.1 2.47 9.1477e-41
1.91 2.1 2.37 9.1477e-41
1.9 2.1 2.3 9.1477e-41
1.89 2.1 2.21 9.1477e-41
1.88 2.1 2.13 9.1477e-41
1.88 2.1 2.06 9.1477e-41
1.88 2.1 1.99 9.1477e-41
2.68 2.1 3.28 9.1477e-41
2.7 2.1 3.26 9.1477e-41
2.71 2.1 3.22 9.1477e-41
2.71 2.1 3.17 9.1477e-41
2.7 2.1 3.11 9.1477e-41
2.71 2.1 3.06 9.1477e-41
2.7 2.1 3 9.1477e-41
2.7 2.1 2.94 9.1477e-41
2.7 2.1 2.88 9.1477e-41
2.71 2.1 2.83 9.1477e-41
2.7 2.1 2.76 9.1477e-41
2.7 2.1 2.69 9.1477e-41
2.71 2.1 2.64 9.1477e-41
2.72 2.1 2.59 9.1477e-41
2.74 2.1 2.57 9.1477e-41
2.77 2.1 2.55 9.1477e-41
2.8 2.1 2.55 9.1477e-41
2.84 2.1 2.57 9.1477e-41
2.87 2.1 2.57 9.1477e-41
2.9 2.1 2.57 9.1477e-41
2.93 2.1 2.57 9.1477e-41
2.97 2.1 2.59 9.1477e-41
3.01 2.1 2.62 9.1477e-41
3.05 2.1 2.65 9.1477e-41
3.08 2.1 2.63 9.1477e-41
2.65 2.1 1.23 9.1477e-41
2.69 2.1 1.21 9.1477e-41
3.17 2.1 2.64 9.1477e-41
3.19 2.1 2.64 9.1477e-41
3.22 2.1 2.63 9.1477e-41
3.25 2.1 2.62 9.1477e-41
3.28 2.1 2.62 9.1477e-41
3.31 2.1 2.63 9.1477e-41
3.34 2.1 2.64 9.1477e-41
3.37 2.1 2.64 9.1477e-41
3.01 2.1 0.97 9.1477e-41
3.05 2.1 0.97 3.57e-43
3.09 2.1 0.97 3.57e-43
3.14 2.1 0.97 9.1477e-41
3.18 2.1 0.95 9.1477e-41
3.23 2.1 1.01 9.1477e-41
3.27 2.1 1.01 9.1477e-41
3.3 2.1 0.94 9.1477e-41
3.43 2.1 0.94 3.57e-43
3.35 2.1 0.72 9.1477e-41
1.06 2.24 2.18 9.1477e-41
1.06 2.24 2.12 9.1477e-41
1.05 2.24 2.05 9.1477e-41
1.05 2.24 1.99 9.1477e-41
1.06 2.24 1.92 9.1477e-41
1.06 2.24 1.86 9.1477e-41
1.05 2.24 1.77 9.1477e-41
1.05 2.24 1.7 9.1477e-41
1.04 2.24 1.63 9.1477e-41
1.04 2.24 1.54 9.1477e-41
1.04 2.24 1.47 9.1477e-41
1.05 2.24 1.4 9.1477e-41
1.1 2.24 1.4 9.1477e-41
1.16 2.24 1.4 9.1477e-41
1.2 2.24 1.39 9.1477e-41
1.26 2.24 1.39 9.1477e-41
1.31 2.24 1.39 9.1477e-41
1.37 2.24 1.4 9.1477e-41
1.41 2.24 1.38 9.1477e-41
1.47 2.24 1.39 9.1477e-41
1.51 2.24 1.38 9.1477e-41
1.57 2.24 1.38 9.1477e-41
1.62 2.24 1.38 9.1477e-41
1.66 2.24 1.38 9.1477e-41
1.71 2.24 1.38 9.1477e-41
1.76 2.24 1.37 9.1477e-41
1.81 2.24 1.38 9.1477e-41
1.86 2.24 1.37 9.1477e-41
1.91 2.24 1.38 9.1477e-41
1.95 2.24 1.37 9.1477e-41
2 2.24 1.37 9.1477e-41
2.04 2.24 1.37 9.1477e-41
2.09 2.24 1.38 9.1477e-41
2.13 2.24 1.37 9.1477e-41
2.18 2.24 1.37 9.1477e-41
2.22 2.24 1.37 9.1477e-41
2.27 2.24 1.37 9.1477e-41
2.31 2.24 1.36 9.1477e-41
2.35 2.24 1.36 9.1477e-41
2.4 2.24 1.37 9.1477e-41
2.44 2.24 1.36 9.1477e-41
2.48 2.24 1.37 9.1477e-41
2.53 2.24 1.37 9.1477e-41
2.57 2.24 1.36 9.1477e-41
2.61 2.24 1.35 9.1477e-41
2.65 2.24 1.36 9.1477e-41
2.7 2.24 1.37 9.1477e-41
2.74 2.24 1.36 9.1477e-41
2.78 2.24 1.36 9.1477e-41
2.81 2.24 1.35 9.1477e-41
2.85 2.24 1.35 9.1477e-41
2.9 2.24 1.36 9.1477e-41
2.94 2.24 1.36 9.1477e-41
2.98 2.24 1.35 9.1477e-41
3 2.24 1.28 9.1477e-41
3.53 2.24 3.33 9.1477e-41
3.53 2.24 3.24 9.1477e-41
3.53 2.24 3.13 9.1477e-41
3.53 2.24 3.01 9.1477e-41
3.52 2.24 2.86 9.1477e-41
3.52 2.24 2.73 9.1477e-41
3.52 2.24 2.57 9.1477e-41
3.51 2.24 2.38 9.1477e-41
3.51 2.24 2.17 9.1477e-41
3.51 2.24 1.96 9.1477e-41
3.49 2.24 1.66 9.1477e-41
3.5 2.24 1.44 9.1477e-41
1.06 2.38 2.18 9.1477e-41
1.06 2.38 2.12 9.1477e-41
1.05 2.38 2.05 9.1477e-41
1.05 2.38 1.99 9.1477e-41
1.05 2.38 1.91 9.1477e-41
1.05 2.38 1.85 9.1477e-41
1.04 2.38 1.77 9.1477e-41
1.04 2.38 1.69 9.1477e-41
1.04 2.38 1.63 9.1477e-41
1.04 2.38 1.54 9.1477e-41
1.04 2.38 1.47 9.1477e-41
1.05 2.38 1.41 9.1477e-41
1.1 2.38 1.4 9.1477e-41
1.15 2.38 1.39 9.1477e-41
1.2 2.38 1.39 9.1477e-41
1.25 2.38 1.38 9.1477e-41
1.31 2.38 1.39 9.1477e-41
1.36 2.38 1.38 9.1477e-41
1.41 2.38 1.38 9.1477e-41
1.46 2.38 1.38 9.1477e-41
1.52 2.38 1.39 9.1477e-41
1.57 2.38 1.38 9.1477e-41
1.62 2.38 1.38 9.1477e-41
1.67 2.38 1.38 9.1477e-41
1.71 2.38 1.38 9.1477e-41
1.76 2.38 1.38 9.1477e-41
1.81 2.38 1.38 9.1477e-41
1.86 2.38 1.37 9.1477e-41
1.91 2.38 1.38 9.1477e-41
1.95 2.38 1.38 9.1477e-41
2 2.38 1.38 9.1477e-41
2.04 2.38 1.37 9.1477e-41
2.09 2.38 1.37 9.1477e-41
2.13 2.38 1.37 9.1477e-41
2.18 2.38 1.37 9.1477e-41
2.22 2.38 1.37 9.1477e-41
2.27 2.38 1.37 9.1477e-41
2.31 2.38 1.37 9.1477e-41
2.35 2.38 1.36 9.1477e-41
2.4 2.38 1.37 9.1477e-41
2.44 2.38 1.37 9.1477e-41
2.48 2.38 1.36 9.1477e-41
2.53 2.38 1.37 9.1477e-41
2.57 2.38 1.36 9.1477e-41
2.61 2.38 1.37 9.1477e-41
2.65 2.38 1.37 9.1477e-41
2.7 2.38 1.37 9.1477e-41
2.74 2.38 1.36 9.1477e-41
2.78 2.38 1.36 9.1477e-41
2.82 2.38 1.36 9.1477e-41
2.86 2.38 1.36 9.1477e-41
2.9 2.38 1.36 9.1477e-41
2.94 2.38 1.36 9.1477e-41
2.98 2.38 1.36 9.1477e-41
3.02 2.38 1.36 9.1477e-41
3.06 2.38 1.35 9.1477e-41
3.1 2.38 1.36 9.1477e-41
3.14 2.38 1.35 9.1477e-41
3.18 2.38 1.35 9.1477e-41
3.22 2.38 1.35 9.1477e-41
3.25 2.38 1.35 9.1477e-41
3.29 2.38 1.35 9.1477e-41
3.46 2.38 2.08 9.1477e-41
3.5 2.38 2.08 3.57e-43
3.51 2.38 1.96 9.1477e-41
3.48 2.38 1.56 9.1477e-41
1.06 2.52 2.18 9.1477e-41
1.06 2.52 2.12 9.1477e-41
1.05 2.52 2.05 9.1477e-41
1.05 2.52 1.98 9.1477e-41
1.05 2.52 1.91 9.1477e-41
1.04 2.52 1.84 9.1477e-41
1.05 2.52 1.77 9.1477e-41
1.04 2.52 1.69 9.1477e-41
1.04 2.52 1.62 9.1477e-41
1.04 2.52 1.54 9.1477e-41
1.04 2.52 1.47 9.1477e-41
1.05 2.52 1.4 9.1477e-41
1.1 2.52 1.4 9.1477e-41
1.16 2.52 1.4 9.1477e-41
1.21 2.52 1.4 9.1477e-41
1.26 2.52 1.4 9.1477e-41
1.31 2.52 1.39 9.1477e-41
1.37 2.52 1.39 9.1477e-41
1.41 2.52 1.38 9.1477e-41
1.46 2.52 1.38 9.1477e-41
1.51 2.52 1.38 9.1477e-41
1.57 2.52 1.38 9.1477e-41
1.62 2.52 1.38 9.1477e-41
1.66 2.52 1.38 9.1477e-41
1.71 2.52 1.37 9.1477e-41
1.76 2.52 1.38 9.1477e-41
1.8 2.52 1.37 9.1477e-41
1.86 2.52 1.37 9.1477e-41
1.91 2.52 1.38 9.1477e-41
1.95 2.52 1.38 9.1477e-41
2 2.52 1.38 9.1477e-41
2.05 2.52 1.38 9.1477e-41
2.09 2.52 1.37 9.1477e-41
2.13 2.52 1.37 9.1477e-41
2.18 2.52 1.38 9.1477e-41
2.23 2.52 1.38 9.1477e-41
2.27 2.52 1.37 9.1477e-41
2.31 2.52 1.37 9.1477e-41
2.35 2.52 1.36 9.1477e-41
2.4 2.52 1.37 9.1477e-41
2.44 2.52 1.37 9.1477e-41
2.48 2.52 1.36 9.1477e-41
2.53 2.52 1.36 9.1477e-41
2.57 2.52 1.36 9.1477e-41
2.61 2.52 1.36 9.1477e-41
2.65 2.52 1.36 9.1477e-41
2.69 2.52 1.36 9.1477e-41
2.74 2.52 1.36 9.1477e-41
2.77 2.52 1.35 9.1477e-41
2.82 2.52 1.36 9.1477e-41
2.86 2.52 1.36 9.1477e-41
2.9 2.52 1.36 9.1477e-41
2.94 2.52 1.36 9.1477e-41
2.98 2.52 1.35 9.1477e-41
3.02 2.52 1.36 9.1477e-41
3.06 2.52 1.36 9.1477e-41
3.1 2.52 1.35 9.1477e-41
3.14 2.52 1.36 9.1477e-41
3.18 2.52 1.36 9.1477e-41
3.22 2.52 1.35 9.1477e-41
3.25 2.52 1.35 9.1477e-41
3.29 2.52 1.36 9.1477e-41
3.46 2.52 2.08 9.1477e-41
3.5 2.52 2.08 3.57e-43
3.51 2.52 1.96 9.1477e-41
3.48 2.52 1.58 9.1477e-41
1.06 2.66 2.18 9.1477e-41
1.06 2.66 2.12 9.1477e-41
1.05 2.66 2.05 9.1477e-41
1.05 2.66 1.98 9.1477e-41
1.05 2.66 1.91 9.1477e-41
1.05 2.66 1.85 9.1477e-41
1.05 2.66 1.77 9.1477e-41
1.04 2.66 1.69 9.1477e-41
1.04 2.66 1.62 9.1477e-41
1.04 2.66 1.54 9.1477e-41
1.04 2.66 1.47 9.1477e-41
1.05 2.66 1.4 9.1477e-41
1.1 2.66 1.39 9.1477e-41
1.15 2.66 1.39 9.1477e-41
1.2 2.66 1.39 9.1477e-41
1.25 2.66 1.38 9.1477e-41
1.31 2.66 1.39 9.1477e-41
1.36 2.66 1.38 9.1477e-41
1.41 2.66 1.38 9.1477e-41
1.47 2.66 1.39 9.1477e-41
1.51 2.66 1.38 9.1477e-41
1.57 2.66 1.38 9.1477e-41
1.62 2.66 1.38 9.1477e-41
1.66 2.66 1.38 9.1477e-41
1.71 2.66 1.38 9.1477e-41
1.76 2.66 1.38 9.1477e-41
1.81 2.66 1.38 9.1477e-41
1.86 2.66 1.37 9.1477e-41
1.91 2.66 1.38 9.1477e-41
1.95 2.66 1.37 9.1477e-41
2 2.66 1.37 9.1477e-41
2.05 2.66 1.38 9.1477e-41
2.09 2.66 1.37 9.1477e-41
2.13 2.66 1.37 9.1477e-41
2.18 2.66 1.37 9.1477e-41
2.22 2.66 1.36 9.1477e-41
2.26 2.66 1.36 9.1477e-41
2.31 2.66 1.37 9.1477e-41
2.35 2.66 1.36 9.1477e-41
2.4 2.66 1.37 9.1477e-41
2.44 2.66 1.37 9.1477e-41
2.48 2.66 1.37 9.1477e-41
2.53 2.66 1.36 9.1477e-41
2.57 2.66 1.36 9.1477e-41
2.61 2.66 1.37 9.1477e-41
2.65 2.66 1.36 9.1477e-41
2.69 2.66 1.36 9.1477e-41
2.74 2.66 1.36 9.1477e-41
2.77 2.66 1.35 9.1477e-41
2.82 2.66 1.36 9.1477e-41
2.86 2.66 1.36 9.1477e-41
2.9 2.66 1.36 9.1477e-41
2.94 2.66 1.35 9.1477e-41
2.98 2.66 1.36 9.1477e-41
3.02 2.66 1.36 9.1477e-41
3.06 2.66 1.35 9.1477e-41
3.1 2.66 1.36 9.1477e-41
3.14 2.66 1.36 9.1477e-41
3.18 2.66 1.35 9.1477e-41
3.21 2.66 1.34 9.1477e-41
3.26 2.66 1.36 9.1477e-41
3.29 2.66 1.35 9.1477e-41
3.46 2.66 2.07 9.1477e-41
3.5 2.66 2.07 3.57e-43
3.51 2.66 1.96 9.1477e-41
3.48 2.66 1.57 9.1477e-41
1.06 2.8 2.18 9.1477e-41
1.05 2.8 2.11 9.1477e-41
1.05 2.8 2.04 9.1477e-41
1.05 2.8 1.99 9.1477e-41
1.04 2.8 1.91 9.1477e-41
1.04 2.8 1.84 9.1477e-41
1.04 2.8 1.77 9.1477e-41
1.04 2.8 1.69 9.1477e-41
1.04 2.8 1.62 9.1477e-41
1.03 2.8 1.53 9.1477e-41
1.03 2.8 1.46 9.1477e-41
1.05 2.8 1.4 9.1477e-41
1.1 2.8 1.4 9.1477e-41
1.15 2.8 1.39 9.1477e-41
1.21 2.8 1.4 9.1477e-41
1.26 2.8 1.39 9.1477e-41
1.32 2.8 1.4 9.1477e-41
1.37 2.8 1.39 9.1477e-41
1.41 2.8 1.38 9.1477e-41
1.47 2.8 1.39 9.1477e-41
1.52 2.8 1.39 9.1477e-41
1.57 2.8 1.39 9.1477e-41
1.62 2.8 1.38 9.1477e-41
1.67 2.8 1.38 9.1477e-41
1.71 2.8 1.38 9.1477e-41
1.76 2.8 1.38 9.1477e-41
1.82 2.8 1.39 9.1477e-41
1.86 2.8 1.38 9.1477e-41
1.91 2.8 1.38 9.1477e-41
1.95 2.8 1.38 9.1477e-41
2 2.8 1.38 9.1477e-41
2.05 2.8 1.38 9.1477e-41
2.09 2.8 1.38 9.1477e-41
2.14 2.8 1.38 9.1477e-41
2.18 2.8 1.37 9.1477e-41
2.23 2.8 1.38 9.1477e-41
2.27 2.8 1.37 9.1477e-41
2.32 2.8 1.38 9.1477e-41
2.36 2.8 1.37 9.1477e-41
2.4 2.8 1.38 9.1477e-41
2.44 2.8 1.37 9.1477e-41
2.48 2.8 1.37 9.1477e-41
2.53 2.8 1.37 9.1477e-41
2.57 2.8 1.36 9.1477e-41
2.61 2.8 1.37 9.1477e-41
2.65 2.8 1.37 9.1477e-41
2.7 2.8 1.37 9.1477e-41
2.73 2.8 1.35 9.1477e-41
2.78 2.8 1.36 9.1477e-41
2.82 2.8 1.37 9.1477e-41
2.86 2.8 1.37 9.1477e-41
2.9 2.8 1.37 9.1477e-41
2.94 2.8 1.37 9.1477e-41
2.98 2.8 1.37 9.1477e-41
3.02 2.8 1.36 9.1477e-41
3.06 2.8 1.37 9.1477e-41
3.1 2.8 1.35 9.1477e-41
3.14 2.8 1.35 9.1477e-41
3.18 2.8 1.36 9.1477e-41
3.22 2.8 1.35 9.1477e-41
3.26 2.8 1.36 9.1477e-41
3.29 2.8 1.35 9.1477e-41
3.46 2.8 2.09 9.1477e-41
3.5 2.8 2.09 3.57e-43
3.51 2.8 1.96 9.1477e-41
3.48 2.8 1.57 9.1477e-41
1.06 2.94 2.18 9.1477e-41
1.05 2.94 2.11 9.1477e-41
1.05 2.94 2.04 9.1477e-41
1.05 2.94 1.98 9.1477e-41
1.05 2.94 1.91 9.1477e-41
1.04 2.94 1.83 9.1477e-41
1.04 2.94 1.77 9.1477e-41
1.04 2.94 1.69 9.1477e-41
1.03 2.94 1.61 9.1477e-41
1.03 2.94 1.54 9.1477e-41
1.03 2.94 1.46 9.1477e-41
1.04 2.94 1.39 9.1477e-41
1.1 2.94 1.39 9.1477e-41
1.16 2.94 1.4 9.1477e-41
1.21 2.94 1.4 9.1477e-41
1.26 2.94 1.39 9.1477e-41
1.32 2.94 1.4 9.1477e-41
1.36 2.94 1.38 9.1477e-41
1.42 2.94 1.39 9.1477e-41
1.47 2.94 1.39 9.1477e-41
1.52 2.94 1.39 9.1477e-41
1.57 2.94 1.38 9.1477e-41
1.62 2.94 1.38 9.1477e-41
1.67 2.94 1.39 9.1477e-41
1.71 2.94 1.38 9.1477e-41
1.77 2.94 1.39 9.1477e-41
1.81 2.94 1.38 9.1477e-41
1.86 2.94 1.38 9.1477e-41
1.91 2.94 1.38 9.1477e-41
1.95 2.94 1.38 9.1477e-41
2 2.94 1.39 9.1477e-41
2.04 2.94 1.37 9.1477e-41
2.09 2.94 1.37 9.1477e-41
2.14 2.94 1.38 9.1477e-41
2.18 2.94 1.37 9.1477e-41
2.23 2.94 1.38 9.1477e-41
2.27 2.94 1.37 9.1477e-41
2.31 2.94 1.37 9.1477e-41
2.36 2.94 1.37 9.1477e-41
2.4 2.94 1.37 9.1477e-41
2.45 2.94 1.38 9.1477e-41
2.48 2.94 1.37 9.1477e-41
2.53 2.94 1.37 9.1477e-41
2.57 2.94 1.37 9.1477e-41
2.61 2.94 1.37 9.1477e-41
2.65 2.94 1.37 9.1477e-41
2.7 2.94 1.37 9.1477e-41
2.74 2.94 1.36 9.1477e-41
2.77 2.94 1.35 9.1477e-41
2.82 2.94 1.36 9.1477e-41
2.86 2.94 1.36 9.1477e-41
2.9 2.94 1.36 9.1477e-41
2.94 2.94 1.37 9.1477e-41
2.98 2.94 1.36 9.1477e-41
3.02 2.94 1.36 9.1477e-41
3.06 2.94 1.36 9.1477e-41
3.1 2.94 1.36 9.1477e-41
3.14 2.94 1.36 9.1477e-41
3.18 2.94 1.35 9.1477e-41
3.22 2.94 1.35 9.1477e-41
3.25 2.94 1.35 9.1477e-41
3.29 2.94 1.36 9.1477e-41
3.46 2.94 2.08 9.1477e-41
3.5 2.94 2.08 3.57e-43
3.51 2.94 1.96 9.1477e-41
3.48 2.94 1.56 9.1477e-41
1.05 3.08 2.17 9.1477e-41
1.04 3.08 2.1 9.1477e-41
1.05 3.08 2.04 9.1477e-41
1.04 3.08 1.97 9.1477e-41
1.04 3.08 1.9 9.1477e-41
1.04 3.08 1.83 9.1477e-41
1.04 3.08 1.77 9.1477e-41
1.03 3.08 1.68 9.1477e-41
1.03 3.08 1.6 9.1477e-41
1.02 3.08 1.52 9.1477e-41
1.03 3.08 1.46 9.1477e-41
1.04 3.08 1.39 9.1477e-41
1.1 3.08 1.4 9.1477e-41
1.16 3.08 1.4 9.1477e-41
1.2 3.08 1.38 9.1477e-41
1.26 3.08 1.39 9.1477e-41
1.31 3.08 1.39 9.1477e-41
1.36 3.08 1.38 9.1477e-41
1.41 3.08 1.38 9.1477e-41
1.47 3.08 1.39 9.1477e-41
1.52 3.08 1.4 9.1477e-41
1.57 3.08 1.38 9.1477e-41
1.62 3.08 1.39 9.1477e-41
1.67 3.08 1.38 9.1477e-41
1.71 3.08 1.38 9.1477e-41
1.76 3.08 1.38 9.1477e-41
1.81 3.08 1.38 9.1477e-41
1.86 3.08 1.38 9.1477e-41
1.91 3.08 1.38 9.1477e-41
1.96 3.08 1.39 9.1477e-41
2 3.08 1.38 9.1477e-41
2.04 3.08 1.37 9.1477e-41
2.1 3.08 1.39 9.1477e-41
2.13 3.08 1.37 9.1477e-41
2.18 3.08 1.38 9.1477e-41
2.22 3.08 1.37 9.1477e-41
2.27 3.08 1.37 9.1477e-41
2.32 3.08 1.38 9.1477e-41
2.36 3.08 1.37 9.1477e-41
2.4 3.08 1.37 9.1477e-41
2.44 3.08 1.37 9.1477e-41
2.48 3.08 1.37 9.1477e-41
2.53 3.08 1.36 9.1477e-41
2.57 3.08 1.36 9.1477e-41
2.61 3.08 1.37 9.1477e-41
2.65 3.08 1.36 9.1477e-41
2.7 3.08 1.37 9.1477e-41
2.74 3.08 1.36 9.1477e-41
2.78 3.08 1.36 9.1477e-41
2.82 3.08 1.36 9.1477e-41
2.86 3.08 1.36 9.1477e-41
2.9 3.08 1.36 9.1477e-41
2.94 3.08 1.37 9.1477e-41
2.98 3.08 1.36 9.1477e-41
3.02 3.08 1.37 9.1477e-41
3.06 3.08 1.36 9.1477e-41
3.1 3.08 1.36 9.1477e-41
3.14 3.08 1.36 9.1477e-41
3.18 3.08 1.36 9.1477e-41
3.22 3.08 1.35 9.1477e-41
3.25 3.08 1.35 9.1477e-41
3.29 3.08 1.36 9.1477e-41
3.46 3.08 2.09 9.1477e-41
3.5 3.08 2.09 3.57e-43
3.51 3.08 1.96 9.1477e-41
3.48 3.08 1.56 9.1477e-41
1.05 3.22 2.17 9.1477e-41
1.04 3.22 2.1 9.1477e-41
1.04 3.22 2.04 9.1477e-41
1.04 3.22 1.97 9.1477e-41
1.04 3.22 1.91 9.1477e-41
1.04 3.22 1.84 9.1477e-41
1.04 3.22 1.76 9.1477e-41
1.03 3.22 1.68 9.1477e-41
1.03 3.22 1.6 9.1477e-41
1.03 3.22 1.53 9.1477e-41
1.03 3.22 1.46 9.1477e-41
1.04 3.22 1.39 9.1477e-41
1.1 3.22 1.4 9.1477e-41
1.15 3.22 1.39 9.1477e-41
1.2 3.22 1.39 9.1477e-41
1.26 3.22 1.39 9.1477e-41
1.32 3.22 1.4 9.1477e-41
1.36 3.22 1.38 9.1477e-41
1.41 3.22 1.38 9.1477e-41
1.47 3.22 1.39 9.1477e-41
1.52 3.22 1.39 9.1477e-41
1.57 3.22 1.39 9.1477e-41
1.62 3.22 1.39 9.1477e-41
1.67 3.22 1.38 9.1477e-41
1.72 3.22 1.39 9.1477e-41
1.77 3.22 1.39 9.1477e-41
1.81 3.22 1.38 9.1477e-41
1.86 3.22 1.38 9.1477e-41
1.91 3.22 1.38 9.1477e-41
1.95 3.22 1.38 9.1477e-41
2 3.22 1.38 9.1477e-41
2.05 3.22 1.38 9.1477e-41
2.09 3.22 1.38 9.1477e-41
2.14 3.22 1.38 9.1477e-41
2.18 3.22 1.38 9.1477e-41
2.22 3.22 1.37 9.1477e-41
2.27 3.22 1.37 9.1477e-41
2.32 3.22 1.38 9.1477e-41
2.36 3.22 1.37 9.1477e-41
2.4 3.22 1.37 9.1477e-41
2.45 3.22 1.38 9.1477e-41
2.48 3.22 1.37 9.1477e-41
2.53 3.22 1.36 9.1477e-41
2.57 3.22 1.37 9.1477e-41
2.61 3.22 1.37 9.1477e-41
2.65 3.22 1.37 9.1477e-41
2.7 3.22 1.37 9.1477e-41
2.74 3.22 1.36 9.1477e-41
2.78 3.22 1.36 9.1477e-41
2.82 3.22 1.36 9.1477e-41
2.86 3.22 1.36 9.1477e-41
2.9 3.22 1.36 9.1477e-41
2.94 3.22 1.37 9.1477e-41
2.98 3.22 1.37 9.1477e-41
3.02 3.22 1.36 9.1477e-41
3.06 3.22 1.36 9.1477e-41
3.1 3.22 1.37 9.1477e-41
3.14 3.22 1.36 9.1477e-41
3.18 3.22 1.35 9.1477e-41
3.22 3.22 1.35 9.1477e-41
3.26 3.22 1.36 9.1477e-41
3.29 3.22 1.36 9.1477e-41
3.46 3.22 2.09 9.1477e-41
3.5 3.22 2.14 9.1477e-41
3.49 3.22 1.83 9.1477e-41
3.48 3.22 1.56 9.1477e-41
1.05 3.36 2.17 9.1477e-41
1.04 3.36 2.1 9.1477e-41
1.04 3.36 2.04 9.1477e-41
1.04 3.36 1.97 9.1477e-41
1.04 3.36 1.9 9.1477e-41
1.04 3.36 1.83 9.1477e-41
1.04 3.36 1.76 9.1477e-41
1.03 3.36 1.68 9.1477e-41
1.03 3.36 1.61 9.1477e-41
1.03 3.36 1.53 9.1477e-41
1.03 3.36 1.45 9.1477e-41
1.04 3.36 1.39 9.1477e-41
1.1 3.36 1.4 9.1477e-41
1.16 3.36 1.4 9.1477e-41
1.2 3.36 1.39 9.1477e-41
1.26 3.36 1.4 9.1477e-41
1.31 3.36 1.38 9.1477e-41
1.37 3.36 1.39 9.1477e-41
1.41 3.36 1.38 9.1477e-41
1.47 3.36 1.39 9.1477e-41
1.51 3.36 1.38 9.1477e-41
1.57 3.36 1.39 9.1477e-41
1.62 3.36 1.39 9.1477e-41
1.67 3.36 1.38 9.1477e-41
1.71 3.36 1.38 9.1477e-41
1.76 3.36 1.38 9.1477e-41
1.81 3.36 1.38 9.1477e-41
1.86 3.36 1.38 9.1477e-41
1.91 3.36 1.39 9.1477e-41
1.95 3.36 1.38 9.1477e-41
2 3.36 1.38 9.1477e-41
2.05 3.36 1.39 9.1477e-41
2.09 3.36 1.38 9.1477e-41
2.13 3.36 1.37 9.1477e-41
2.18 3.36 1.37 9.1477e-41
2.23 3.36 1.38 9.1477e-41
2.27 3.36 1.38 9.1477e-41
2.32 3.36 1.38 9.1477e-41
2.36 3.36 1.37 9.1477e-41
2.4 3.36 1.37 9.1477e-41
2.44 3.36 1.36 9.1477e-41
2.48 3.36 1.37 9.1477e-41
2.53 3.36 1.38 9.1477e-41
2.57 3.36 1.37 9.1477e-41
2.61 3.36 1.37 9.1477e-41
2.65 3.36 1.37 9.1477e-41
2.7 3.36 1.37 9.1477e-41
2.74 3.36 1.37 9.1477e-41
2.78 3.36 1.36 9.1477e-41
2.82 3.36 1.37 9.1477e-41
2.86 3.36 1.36 9.1477e-41
2.9 3.36 1.37 9.1477e-41
2.94 3.36 1.36 9.1477e-41
2.98 3.36 1.37 9.1477e-41
3.02 3.36 1.37 9.1477e-41
3.06 3.36 1.36 9.1477e-41
3.1 3.36 1.36 9.1477e-41
3.14 3.36 1.36 9.1477e-41
3.18 3.36 1.36 9.1477e-41
3.22 3.36 1.35 9.1477e-41
3.26 3.36 1.36 9.1477e-41
3.29 3.36 1.35 9.1477e-41
3.46 3.36 2.1 9.1477e-41
3.51 3.36 2.15 9.1477e-41
3.48 3.36 1.82 9.1477e-41
3.48 3.36 1.57 9.1477e-41
1.04 3.5 2.17 9.1477e-41
1.04 3.5 2.1 9.1477e-41
1.04 3.5 2.04 9.1477e-41
1.04 3.5 1.96 9.1477e-41
1.04 3.5 1.9 9.1477e-41
1.03 3.5 1.82 9.1477e-41
1.04 3.5 1.76 9.1477e-41
1.03 3.5 1.68 9.1477e-41
1.03 3.5 1.6 9.1477e-41
1.02 3.5 1.52 9.1477e-41
1.02 3.5 1.44 9.1477e-41
1.05 3.5 1.4 9.1477e-41
1.1 3.5 1.4 9.1477e-41
1.16 3.5 1.4 9.1477e-41
1.2 3.5 1.39 9.1477e-41
1.26 3.5 1.39 9.1477e-41
1.31 3.5 1.39 9.1477e-41
1.37 3.5 1.39 9.1477e-41
1.42 3.5 1.39 9.1477e-41
1.47 3.5 1.39 9.1477e-41
1.52 3.5 1.4 9.1477e-41
1.57 3.5 1.39 9.1477e-41
1.63 3.5 1.4 9.1477e-41
1.67 3.5 1.38 9.1477e-41
1.72 3.5 1.39 9.1477e-41
1.77 3.5 1.39 9.1477e-41
1.82 3.5 1.39 9.1477e-41
1.86 3.5 1.38 9.1477e-41
1.91 3.5 1.38 9.1477e-41
1.95 3.5 1.38 9.1477e-41
2 3.5 1.37 9.1477e-41
2.05 3.5 1.39 9.1477e-41
2.09 3.5 1.38 9.1477e-41
2.14 3.5 1.38 9.1477e-41
2.18 3.5 1.38 9.1477e-41
2.22 3.5 1.37 9.1477e-41
2.27 3.5 1.38 9.1477e-41
2.31 3.5 1.37 9.1477e-41
2.36 3.5 1.37 9.1477e-41
2.4 3.5 1.37 9.1477e-41
2.44 3.5 1.37 9.1477e-41
2.49 3.5 1.38 9.1477e-41
2.53 3.5 1.37 9.1477e-41
2.57 3.5 1.38 9.1477e-41
2.61 3.5 1.37 9.1477e-41
2.65 3.5 1.37 9.1477e-41
2.7 3.5 1.37 9.1477e-41
2.74 3.5 1.37 9.1477e-41
2.78 3.5 1.36 9.1477e-41
2.82 3.5 1.37 9.1477e-41
2.86 3.5 1.37 9.1477e-41
2.9 3.5 1.36 9.1477e-41
2.94 3.5 1.37 9.1477e-41
2.98 3.5 1.37 9.1477e-41
3.02 3.5 1.37 9.1477e-41
3.06 3.5 1.36 9.1477e-41
3.1 3.5 1.36 9.1477e-41
3.14 3.5 1.37 9.1477e-41
3.18 3.5 1.36 9.1477e-41
3.22 3.5 1.36 9.1477e-41
3.26 3.5 1.36 9.1477e-41
3.3 3.5 1.37 9.1477e-41
3.46 3.5 2.1 9.1477e-41
3.5 3.5 2.14 9.1477e-41
3.48 3.5 1.8 9.1477e-41
3.48 3.5 1.56 9.1477e-41
1.04 3.64 2.16 9.1477e-41
1.04 3.64 2.1 9.1477e-41
1.04 3.64 2.03 9.1477e-41
1.04 3.64 1.97 9.1477e-41
1.04 3.64 1.9 9.1477e-41
1.03 3.64 1.82 9.1477e-41
1.04 3.64 1.76 9.1477e-41
1.03 3.64 1.68 9.1477e-41
1.03 3.64 1.6 9.1477e-41
1.02 3.64 1.52 9.1477e-41
1.02 3.64 1.44 9.1477e-41
1.05 3.64 1.4 9.1477e-41
1.1 3.64 1.4 9.1477e-41
1.16 3.64 1.4 9.1477e-41
1.2 3.64 1.39 9.1477e-41
1.27 3.64 1.41 9.1477e-41
1.32 3.64 1.4 9.1477e-41
1.37 3.64 1.4 9.1477e-41
1.42 3.64 1.39 9.1477e-41
1.47 3.64 1.39 9.1477e-41
1.52 3.64 1.39 9.1477e-41
1.57 3.64 1.38 9.1477e-41
1.63 3.64 1.4 9.1477e-41
1.67 3.64 1.38 9.1477e-41
1.72 3.64 1.39 9.1477e-41
1.77 3.64 1.39 9.1477e-41
1.81 3.64 1.38 9.1477e-41
1.86 3.64 1.39 9.1477e-41
1.91 3.64 1.39 9.1477e-41
1.96 3.64 1.39 9.1477e-41
2 3.64 1.39 9.1477e-41
2.05 3.64 1.39 9.1477e-41
2.09 3.64 1.38 9.1477e-41
2.13 3.64 1.37 9.1477e-41
2.18 3.64 1.38 9.1477e-41
2.22 3.64 1.36 9.1477e-41
2.27 3.64 1.38 9.1477e-41
2.31 3.64 1.37 9.1477e-41
2.36 3.64 1.37 9.1477e-41
2.4 3.64 1.37 9.1477e-41
2.45 3.64 1.38 9.1477e-41
2.49 3.64 1.38 9.1477e-41
2.53 3.64 1.37 9.1477e-41
2.57 3.64 1.38 9.1477e-41
2.61 3.64 1.37 9.1477e-41
2.66 3.64 1.38 9.1477e-41
2.7 3.64 1.37 9.1477e-41
2.74 3.64 1.36 9.1477e-41
2.78 3.64 1.36 9.1477e-41
2.82 3.64 1.37 9.1477e-41
2.86 3.64 1.37 9.1477e-41
2.9 3.64 1.36 9.1477e-41
2.94 3.64 1.37 9.1477e-41
2.98 3.64 1.37 9.1477e-41
3.02 3.64 1.36 9.1477e-41
3.06 3.64 1.36 9.1477e-41
3.1 3.64 1.37 9.1477e-41
3.14 3.64 1.37 9.1477e-41
3.18 3.64 1.35 9.1477e-41
3.22 3.64 1.35 9.1477e-41
3.26 3.64 1.37 9.1477e-41
3.29 3.64 1.36 9.1477e-41
3.46 3.64 2.1 9.1477e-41
3.51 3.64 2.15 9.1477e-41
3.48 3.64 1.8 9.1477e-41
3.48 3.64 1.56 9.1477e-41
1.04 3.78 2.17 9.1477e-41
1.04 3.78 2.09 9.1477e-41
1.04 3.78 2.03 9.1477e-41
1.04 3.78 1.96 9.1477e-41
1.03 3.78 1.89 9.1477e-41
1.03 3.78 1.82 9.1477e-41
1.03 3.78 1.75 9.1477e-41
1.02 3.78 1.67 9.1477e-41
1.02 3.78 1.59 9.1477e-41
1.01 3.78 1.51 9.1477e-41
1.02 3.78 1.44 9.1477e-41
1.04 3.78 1.39 9.1477e-41
1.1 3.78 1.4 9.1477e-41
1.16 3.78 1.4 9.1477e-41
1.21 3.78 1.4 9.1477e-41
1.26 3.78 1.4 9.1477e-41
1.31 3.78 1.38 9.1477e-41
1.37 3.78 1.4 9.1477e-41
1.42 3.78 1.39 9.1477e-41
1.47 3.78 1.39 9.1477e-41
1.52 3.78 1.39 9.1477e-41
1.57 3.78 1.38 9.1477e-41
1.63 3.78 1.4 9.1477e-41
1.67 3.78 1.38 9.1477e-41
1.71 3.78 1.38 9.1477e-41
1.77 3.78 1.39 9.1477e-41
1.82 3.78 1.39 9.1477e-41
1.86 3.78 1.38 9.1477e-41
1.91 3.78 1.38 9.1477e-41
1.96 3.78 1.39 9.1477e-41
2 3.78 1.38 9.1477e-41
2.05 3.78 1.38 9.1477e-41
2.09 3.78 1.38 9.1477e-41
2.14 3.78 1.38 9.1477e-41
2.18 3.78 1.38 9.1477e-41
2.23 3.78 1.38 9.1477e-41
2.27 3.78 1.38 9.1477e-41
2.32 3.78 1.38 9.1477e-41
2.36 3.78 1.37 9.1477e-41
2.4 3.78 1.38 9.1477e-41
2.45 3.78 1.38 9.1477e-41
2.48 3.78 1.37 9.1477e-41
2.53 3.78 1.38 9.1477e-41
2.57 3.78 1.38 9.1477e-41
2.61 3.78 1.37 9.1477e-41
2.65 3.78 1.37 9.1477e-41
2.7 3.78 1.37 9.1477e-41
2.74 3.78 1.36 9.1477e-41
2.78 3.78 1.37 9.1477e-41
2.82 3.78 1.38 9.1477e-41
2.86 3.78 1.36 9.1477e-41
2.9 3.78 1.37 9.1477e-41
2.94 3.78 1.37 9.1477e-41
2.98 3.78 1.38 9.1477e-41
3.02 3.78 1.37 9.1477e-41
3.06 3.78 1.37 9.1477e-41
3.1 3.78 1.37 9.1477e-41
3.14 3.78 1.37 9.1477e-41
3.18 3.78 1.37 9.1477e-41
3.22 3.78 1.35 9.1477e-41
3.26 3.78 1.37 9.1477e-41
3.29 3.78 1.36 9.1477e-41
3.47 3.78 2.12 9.1477e-41
3.5 3.78 2.14 9.1477e-41
3.48 3.78 1.78 9.1477e-41
3.48 3.78 1.56 9.1477e-41
1.04 3.92 2.16 9.1477e-41
1.04 3.92 2.09 9.1477e-41
1.03 3.92 2.02 9.1477e-41
1.04 3.92 1.97 9.1477e-41
1.03 3.92 1.89 9.1477e-41
1.03 3.92 1.82 9.1477e-41
1.04 3.92 1.76 9.1477e-41
1.02 3.92 1.67 9.1477e-41
1.03 3.92 1.6 9.1477e-41
1.02 3.92 1.52 9.1477e-41
1.02 3.92 1.44 9.1477e-41
1.05 3.92 1.4 9.1477e-41
1.1 3.92 1.4 9.1477e-41
1.16 3.92 1.4 9.1477e-41
1.21 3.92 1.4 9.1477e-41
1.26 3.92 1.4 9.1477e-41
1.32 3.92 1.4 9.1477e-41
1.37 3.92 1.39 9.1477e-41
1.42 3.92 1.39 9.1477e-41
1.47 3.92 1.39 9.1477e-41
1.52 3.92 1.39 9.1477e-41
1.57 3.92 1.39 9.1477e-41
1.62 3.92 1.39 9.1477e-41
1.67 3.92 1.39 9.1477e-41
1.72 3.92 1.39 9.1477e-41
1.77 3.92 1.39 9.1477e-41
1.82 3.92 1.39 9.1477e-41
1.86 3.92 1.39 9.1477e-41
1.91 3.92 1.39 9.1477e-41
1.96 3.92 1.39 9.1477e-41
2 3.92 1.39 9.1477e-41
2.05 3.92 1.38 9.1477e-41
2.1 3.92 1.39 9.1477e-41
2.13 3.92 1.37 9.1477e-41
2.18 3.92 1.38 9.1477e-41
2.23 3.92 1.38 9.1477e-41
2.27 3.92 1.37 9.1477e-41
2.32 3.92 1.38 9.1477e-41
2.36 3.92 1.38 9.1477e-41
2.4 3.92 1.38 9.1477e-41
2.44 3.92 1.37 9.1477e-41
2.49 3.92 1.39 9.1477e-41
2.53 3.92 1.37 9.1477e-41
2.57 3.92 1.37 9.1477e-41
2.61 3.92 1.37 9.1477e-41
2.65 3.92 1.37 9.1477e-41
2.7 3.92 1.37 9.1477e-41
2.74 3.92 1.37 9.1477e-41
2.78 3.92 1.37 9.1477e-41
2.82 3.92 1.38 9.1477e-41
2.86 3.92 1.37 9.1477e-41
2.9 3.92 1.37 9.1477e-41
2.94 3.92 1.37 9.1477e-41
2.98 3.92 1.37 9.1477e-41
3.02 3.92 1.38 9.1477e-41
3.06 3.92 1.38 9.1477e-41
3.1 3.92 1.36 9.1477e-41
3.14 3.92 1.37 9.1477e-41
3.18 3.92 1.37 9.1477e-41
3.22 3.92 1.36 9.1477e-41
3.26 3.92 1.37 9.1477e-41
3.29 3.92 1.36 9.1477e-41
3.47 3.92 2.11 9.1477e-41
3.5 3.92 2.14 9.1477e-41
3.48 3.92 1.77 9.1477e-41
3.48 3.92 1.57 9.1477e-41
1.04 4.06 2.16 9.1477e-41
1.04 4.06 2.09 9.1477e-41
1.03 4.06 2.02 9.1477e-41
1.03 4.06 1.96 9.1477e-41
1.03 4.06 1.89 9.1477e-41
1.03 4.06 1.82 9.1477e-41
1.03 4.06 1.75 9.1477e-41
1.03 4.06 1.68 9.1477e-41
1.03 4.06 1.61 9.1477e-41
1.03 4.06 1.54 9.1477e-41
1.03 4.06 1.45 9.1477e-41
1.05 4.06 1.4 9.1477e-41
1.1 4.06 1.4 9.1477e-41
1.16 4.06 1.4 9.1477e-41
1.21 4.06 1.4 9.1477e-41
1.26 4.06 1.4 9.1477e-41
1.31 4.06 1.39 9.1477e-41
1.37 4.06 1.4 9.1477e-41
1.42 4.06 1.39 9.1477e-41
1.47 4.06 1.39 9.1477e-41
1.52 4.06 1.4 9.1477e-41
1.57 4.06 1.39 9.1477e-41
1.63 4.06 1.4 9.1477e-41
1.67 4.06 1.38 9.1477e-41
1.72 4.06 1.4 9.1477e-41
1.77 4.06 1.39 9.1477e-41
1.82 4.06 1.39 9.1477e-41
1.86 4.06 1.39 9.1477e-41
1.91 4.06 1.39 9.1477e-41
1.96 4.06 1.39 9.1477e-41
2 4.06 1.38 9.1477e-41
2.05 4.06 1.39 9.1477e-41
2.1 4.06 1.39 9.1477e-41
2.14 4.06 1.38 9.1477e-41
2.19 4.06 1.4 9.1477e-41
2.23 4.06 1.38 9.1477e-41
2.27 4.06 1.39 9.1477e-41
2.32 4.06 1.39 9.1477e-41
2.36 4.06 1.38 9.1477e-41
2.41 4.06 1.39 9.1477e-41
2.45 4.06 1.38 9.1477e-41
2.49 4.06 1.39 9.1477e-41
2.53 4.06 1.38 9.1477e-41
2.58 4.06 1.39 9.1477e-41
2.62 4.06 1.39 9.1477e-41
2.66 4.06 1.39 9.1477e-41
2.7 4.06 1.39 9.1477e-41
2.74 4.06 1.37 9.1477e-41
2.78 4.06 1.37 9.1477e-41
2.82 4.06 1.37 9.1477e-41
2.86 4.06 1.37 9.1477e-41
2.9 4.06 1.38 9.1477e-41
2.94 4.06 1.37 9.1477e-41
2.98 4.06 1.38 9.1477e-41
3.02 4.06 1.37 9.1477e-41
3.06 4.06 1.38 9.1477e-41
3.1 4.06 1.38 9.1477e-41
3.14 4.06 1.38 9.1477e-41
3.18 4.06 1.38 9.1477e-41
3.22 4.06 1.37 9.1477e-41
3.26 4.06 1.37 9.1477e-41
3.3 4.06 1.37 9.1477e-41
3.47 4.06 2.11 9.1477e-41
3.51 4.06 2.15 9.1477e-41
3.48 4.06 1.77 9.1477e-41
3.48 4.06 1.58 9.1477e-41
1.02 4.2 2.2 9.1477e-41
1.03 4.2 2.15 9.1477e-41
1.03 4.2 2.09 9.1477e-41
1.03 4.2 2.02 9.1477e-41
1.03 4.2 1.96 9.1477e-41
1.03 4.2 1.89 9.1477e-41
1.03 4.2 1.82 9.1477e-41
1.03 4.2 1.75 9.1477e-41
1.03 4.2 1.68 9.1477e-41
1.03 4.2 1.6 9.1477e-41
1.03 4.2 1.54 9.1477e-41
1.02 4.2 1.44 9.1477e-41
1.04 4.2 1.39 9.1477e-41
1.11 4.2 1.41 9.1477e-41
1.16 4.2 1.4 9.1477e-41
1.21 4.2 1.4 9.1477e-41
1.26 4.2 1.4 9.1477e-41
1.32 4.2 1.41 9.1477e-41
1.37 4.2 1.4 9.1477e-41
1.42 4.2 1.4 9.1477e-41
1.47 4.2 1.39 9.1477e-41
1.52 4.2 1.39 9.1477e-41
1.58 4.2 1.4 9.1477e-41
1.63 4.2 1.4 9.1477e-41
1.67 4.2 1.39 9.1477e-41
1.72 4.2 1.39 9.1477e-41
1.77 4.2 1.39 9.1477e-41
1.82 4.2 1.39 9.1477e-41
1.86 4.2 1.39 9.1477e-41
1.91 4.2 1.39 9.1477e-41
1.95 4.2 1.38 9.1477e-41
2 4.2 1.39 9.1477e-41
2.05 4.2 1.39 9.1477e-41
2.1 4.2 1.39 9.1477e-41
2.14 4.2 1.39 9.1477e-41
2.19 4.2 1.39 9.1477e-41
2.23 4.2 1.39 9.1477e-41
2.27 4.2 1.39 9.1477e-41
2.32 4.2 1.39 9.1477e-41
2.36 4.2 1.39 9.1477e-41
2.41 4.2 1.39 9.1477e-41
2.45 4.2 1.39 9.1477e-41
2.49 4.2 1.38 9.1477e-41
2.53 4.2 1.38 9.1477e-41
2.58 4.2 1.39 9.1477e-41
2.62 4.2 1.38 9.1477e-41
2.66 4.2 1.38 9.1477e-41
2.7 4.2 1.37 9.1477e-41
2.74 4.2 1.38 9.1477e-41
2.78 4.2 1.37 9.1477e-41
2.82 4.2 1.38 9.1477e-41
2.86 4.2 1.38 9.1477e-41
2.9 4.2 1.38 9.1477e-41
2.94 4.2 1.38 9.1477e-41
2.98 4.2 1.38 9.1477e-41
3.02 4.2 1.38 9.1477e-41
3.06 4.2 1.38 9.1477e-41
3.1 4.2 1.37 9.1477e-41
3.14 4.2 1.38 9.1477e-41
3.18 4.2 1.37 9.1477e-41
3.22 4.2 1.36 9.1477e-41
3.26 4.2 1.37 9.1477e-41
3.3 4.2 1.38 9.1477e-41
3.33 4.2 1.32 9.1477e-41
3.5 4.2 2.12 9.1477e-41
3.49 4.2 1.86 9.1477e-41
3.49 4.2 1.61 9.1477e-41
1.04 4.34 2.16 9.1477e-41
1.03 4.34 2.09 9.1477e-41
1.03 4.34 2.02 9.1477e-41
1.04 4.34 1.96 9.1477e-41
1.02 4.34 1.88 9.1477e-41
1.03 4.34 1.82 9.1477e-41
1.03 4.34 1.75 9.1477e-41
1.02 4.34 1.67 9.1477e-41
1.03 4.34 1.6 9.1477e-41
1.02 4.34 1.52 9.1477e-41
1.02 4.34 1.44 9.1477e-41
1.05 4.34 1.4 9.1477e-41
1.1 4.34 1.4 9.1477e-41
1.16 4.34 1.4 9.1477e-41
1.21 4.34 1.4 9.1477e-41
1.26 4.34 1.4 9.1477e-41
1.32 4.34 1.4 9.1477e-41
1.37 4.34 1.4 9.1477e-41
1.42 4.34 1.4 9.1477e-41
1.47 4.34 1.39 9.1477e-41
1.52 4.34 1.4 9.1477e-41
1.57 4.34 1.39 9.1477e-41
1.62 4.34 1.39 9.1477e-41
1.67 4.34 1.39 9.1477e-41
1.72 4.34 1.39 9.1477e-41
1.77 4.34 1.39 9.1477e-41
1.82 4.34 1.39 9.1477e-41
1.86 4.34 1.39 9.1477e-41
1.91 4.34 1.39 9.1477e-41
1.96 4.34 1.39 9.1477e-41
2 4.34 1.38 9.1477e-41
2.05 4.34 1.4 9.1477e-41
2.1 4.34 1.39 9.1477e-41
2.14 4.34 1.39 9.1477e-41
2.19 4.34 1.39 9.1477e-41
2.23 4.34 1.38 9.1477e-41
2.28 4.34 1.39 9.1477e-41
2.32 4.34 1.39 9.1477e-41
2.36 4.34 1.38 9.1477e-41
2.4 4.34 1.38 9.1477e-41
2.45 4.34 1.38 9.1477e-41
2.49 4.34 1.39 9.1477e-41
2.53 4.34 1.38 9.1477e-41
2.57 4.34 1.38 9.1477e-41
2.61 4.34 1.37 9.1477e-41
2.66 4.34 1.38 9.1477e-41
2.7 4.34 1.38 9.1477e-41
2.74 4.34 1.37 9.1477e-41
2.78 4.34 1.37 9.1477e-41
2.82 4.34 1.37 9.1477e-41
2.86 4.34 1.37 9.1477e-41
2.9 4.34 1.37 9.1477e-41
2.94 4.34 1.38 9.1477e-41
2.98 4.34 1.37 9.1477e-41
3.02 4.34 1.38 9.1477e-41
3.06 4.34 1.37 9.1477e-41
3.1 4.34 1.37 9.1477e-41
3.14 4.34 1.37 9.1477e-41
3.18 4.34 1.37 9.1477e-41
3.22 4.34 1.37 9.1477e-41
3.26 4.34 1.36 9.1477e-41
3.29 4.34 1.34 9.1477e-41
3.47 4.34 2.11 9.1477e-41
3.5 4.34 2.14 9.1477e-41
3.47 4.34 1.71 9.1477e-41
3.48 4.34 1.57 9.1477e-41
1.03 4.48 2.15 9.1477e-41
1.03 4.48 2.09 9.1477e-41
1.03 4.48 2.02 9.1477e-41
1.04 4.48 1.96 9.1477e-41
1.03 4.48 1.89 9.1477e-41
1.03 4.48 1.82 9.1477e-41
1.03 4.48 1.75 9.1477e-41
1.03 4.48 1.68 9.1477e-41
1.02 4.48 1.59 9.1477e-41
1.02 4.48 1.52 9.1477e-41
1.02 4.48 1.44 9.1477e-41
1.05 4.48 1.4 9.1477e-41
1.11 4.48 1.41 9.1477e-41
1.16 4.48 1.4 9.1477e-41
1.22 4.48 1.41 9.1477e-41
1.26 4.48 1.4 9.1477e-41
1.32 4.48 1.4 9.1477e-41
1.37 4.48 1.4 9.1477e-41
1.42 4.48 1.39 9.1477e-41
1.47 4.48 1.39 9.1477e-41
1.52 4.48 1.4 9.1477e-41
1.57 4.48 1.39 9.1477e-41
1.63 4.48 1.4 9.1477e-41
1.68 4.48 1.4 9.1477e-41
1.72 4.48 1.39 9.1477e-41
1.77 4.48 1.39 9.1477e-41
1.82 4.48 1.39 9.1477e-41
1.87 4.48 1.4 9.1477e-41
1.91 4.48 1.39 9.1477e-41
1.96 4.48 1.39 9.1477e-41
2 4.48 1.39 9.1477e-41
2.05 4.48 1.39 9.1477e-41
2.1 4.48 1.39 9.1477e-41
2.14 4.48 1.39 9.1477e-41
2.18 4.48 1.38 9.1477e-41
2.23 4.48 1.39 9.1477e-41
2.27 4.48 1.39 9.1477e-41
2.32 4.48 1.39 9.1477e-41
2.36 4.48 1.38 9.1477e-41
2.4 4.48 1.38 9.1477e-41
2.45 4.48 1.38 9.1477e-41
2.49 4.48 1.38 9.1477e-41
2.54 4.48 1.39 9.1477e-41
2.57 4.48 1.38 9.1477e-41
2.61 4.48 1.37 9.1477e-41
2.66 4.48 1.38 9.1477e-41
2.7 4.48 1.38 9.1477e-41
2.74 4.48 1.38 9.1477e-41
2.78 4.48 1.37 9.1477e-41
2.82 4.48 1.37 9.1477e-41
2.86 4.48 1.37 9.1477e-41
2.9 4.48 1.37 9.1477e-41
2.94 4.48 1.37 9.1477e-41
2.98 4.48 1.38 9.1477e-41
3.02 4.48 1.37 9.1477e-41
3.06 4.48 1.38 9.1477e-41
3.1 4.48 1.37 9.1477e-41
3.14 4.48 1.38 9.1477e-41
3.18 4.48 1.37 9.1477e-41
3.22 4.48 1.37 9.1477e-41
3.26 4.48 1.38 9.1477e-41
3.29 4.48 1.32 9.1477e-41
3.47 4.48 2.11 9.1477e-41
3.5 4.48 2.14 9.1477e-41
3.46 4.48 1.69 9.1477e-41
3.48 4.48 1.57 9.1477e-41
1.04 4.62 2.16 9.1477e-41
1.03 4.62 2.09 9.1477e-41
1.03 4.62 2.02 9.1477e-41
1.03 4.62 1.96 9.1477e-41
1.03 4.62 1.89 9.1477e-41
1.03 4.62 1.82 9.1477e-41
1.03 4.62 1.75 9.1477e-41
1.03 4.62 1.68 9.1477e-41
1.02 4.62 1.59 9.1477e-41
1.02 4.62 1.52 9.1477e-41
1.02 4.62 1.44 9.1477e-41
1.05 4.62 1.4 9.1477e-41
1.1 4.62 1.4 9.1477e-41
1.16 4.62 1.4 9.1477e-41
1.22 4.62 1.41 9.1477e-41
1.26 4.62 1.4 9.1477e-41
1.32 4.62 1.4 9.1477e-41
1.37 4.62 1.4 9.1477e-41
1.42 4.62 1.39 9.1477e-41
1.47 4.62 1.39 9.1477e-41
1.52 4.62 1.39 9.1477e-41
1.57 4.62 1.38 9.1477e-41
1.62 4.62 1.39 9.1477e-41
1.67 4.62 1.39 9.1477e-41
1.72 4.62 1.39 9.1477e-41
1.77 4.62 1.39 9.1477e-41
1.81 4.62 1.38 9.1477e-41
1.87 4.62 1.4 9.1477e-41
1.91 4.62 1.39 9.1477e-41
1.96 4.62 1.39 9.1477e-41
2 4.62 1.39 9.1477e-41
2.05 4.62 1.38 9.1477e-41
2.1 4.62 1.4 9.1477e-41
2.14 4.62 1.39 9.1477e-41
2.19 4.62 1.39 9.1477e-41
2.23 4.62 1.38 9.1477e-41
2.27 4.62 1.39 9.1477e-41
2.32 4.62 1.38 9.1477e-41
2.36 4.62 1.38 9.1477e-41
2.4 4.62 1.38 9.1477e-41
2.45 4.62 1.38 9.1477e-41
2.49 4.62 1.39 9.1477e-41
2.54 4.62 1.39 9.1477e-41
2.58 4.62 1.39 9.1477e-41
2.61 4.62 1.37 9.1477e-41
2.65 4.62 1.37 9.1477e-41
2.7 4.62 1.37 9.1477e-41
2.74 4.62 1.37 9.1477e-41
2.78 4.62 1.38 9.1477e-41
2.82 4.62 1.38 9.1477e-41
2.86 4.62 1.38 9.1477e-41
2.9 4.62 1.37 9.1477e-41
2.94 4.62 1.38 9.1477e-41
2.98 4.62 1.38 9.1477e-41
3.02 4.62 1.38 9.1477e-41
3.06 4.62 1.38 9.1477e-41
3.1 4.62 1.38 9.1477e-41
3.14 4.62 1.39 9.1477e-41
3.18 4.62 1.37 9.1477e-41
3.22 4.62 1.38 9.1477e-41
3.26 4.62 1.37 9.1477e-41
3.29 4.62 1.33 9.1477e-41
3.47 4.62 2.11 9.1477e-41
3.5 4.62 2.13 9.1477e-41
3.46 4.62 1.67 9.1477e-41
3.48 4.62 1.57 9.1477e-41
1.03 4.76 2.15 9.1477e-41
1.04 4.76 2.09 9.1477e-41
1.03 4.76 2.02 9.1477e-41
1.03 4.76 1.96 9.1477e-41
1.03 4.76 1.89 9.1477e-41
1.03 4.76 1.82 9.1477e-41
1.02 4.76 1.74 9.1477e-41
1.02 4.76 1.67 9.1477e-41
1.01 4.76 1.59 9.1477e-41
1.01 4.76 1.51 9.1477e-41
1.02 4.76 1.44 9.1477e-41
1.05 4.76 1.4 9.1477e-41
1.11 4.76 1.41 9.1477e-41
1.16 4.76 1.4 9.1477e-41
1.21 4.76 1.4 9.1477e-41
1.26 4.76 1.4 9.1477e-41
1.32 4.76 1.4 9.1477e-41
1.37 4.76 1.4 9.1477e-41
1.42 4.76 1.4 9.1477e-41
1.48 4.76 1.4 9.1477e-41
1.52 4.76 1.39 9.1477e-41
1.57 4.76 1.39 9.1477e-41
1.62 4.76 1.39 9.1477e-41
1.67 4.76 1.39 9.1477e-41
1.72 4.76 1.4 9.1477e-41
1.77 4.76 1.39 9.1477e-41
1.81 4.76 1.38 9.1477e-41
1.86 4.76 1.39 9.1477e-41
1.91 4.76 1.39 9.1477e-41
1.96 4.76 1.39 9.1477e-41
2.01 4.76 1.4 9.1477e-41
2.05 4.76 1.39 9.1477e-41
2.1 4.76 1.39 9.1477e-41
2.14 4.76 1.38 9.1477e-41
2.19 4.76 1.39 9.1477e-41
2.23 4.76 1.38 9.1477e-41
2.27 4.76 1.39 9.1477e-41
2.32 4.76 1.39 9.1477e-41
2.36 4.76 1.37 9.1477e-41
2.41 4.76 1.39 9.1477e-41
2.45 4.76 1.38 9.1477e-41
2.49 4.76 1.39 9.1477e-41
2.53 4.76 1.38 9.1477e-41
2.57 4.76 1.38 9.1477e-41
2.61 4.76 1.37 9.1477e-41
2.66 4.76 1.38 9.1477e-41
2.7 4.76 1.38 9.1477e-41
2.74 4.76 1.38 9.1477e-41
2.78 4.76 1.38 9.1477e-41
2.82 4.76 1.38 9.1477e-41
2.86 4.76 1.38 9.1477e-41
2.9 4.76 1.37 9.1477e-41
2.95 4.76 1.39 9.1477e-41
2.98 4.76 1.38 9.1477e-41
3.02 4.76 1.37 9.1477e-41
3.06 4.76 1.38 9.1477e-41
3.1 4.76 1.38 9.1477e-41
3.14 4.76 1.38 9.1477e-41
3.18 4.76 1.37 9.1477e-41
3.22 4.76 1.37 9.1477e-41
3.26 4.76 1.38 9.1477e-41
3.29 4.76 1.32 9.1477e-41
3.47 4.76 2.12 9.1477e-41
3.5 4.76 2.12 9.1477e-41
3.46 4.76 1.67 9.1477e-41
3.48 4.76 1.57 9.1477e-41
1.03 4.9 2.15 9.1477e-41
1.03 4.9 2.09 9.1477e-41
1.04 4.9 2.03 9.1477e-41
1.03 4.9 1.96 9.1477e-41
1.02 4.9 1.88 9.1477e-41
1.03 4.9 1.82 9.1477e-41
1.02 4.9 1.74 9.1477e-41
1.02 4.9 1.67 9.1477e-41
1.02 4.9 1.59 9.1477e-41
1.01 4.9 1.5 9.1477e-41
1.02 4.9 1.44 9.1477e-41
1.05 4.9 1.4 9.1477e-41
1.11 4.9 1.41 9.1477e-41
1.16 4.9 1.4 9.1477e-41
1.21 4.9 1.4 9.1477e-41
1.26 4.9 1.4 9.1477e-41
1.32 4.9 1.41 9.1477e-41
1.37 4.9 1.39 9.1477e-41
1.42 4.9 1.4 9.1477e-41
1.47 4.9 1.39 9.1477e-41
1.52 4.9 1.4 9.1477e-41
1.57 4.9 1.39 9.1477e-41
1.62 4.9 1.39 9.1477e-41
1.67 4.9 1.39 9.1477e-41
1.72 4.9 1.39 9.1477e-41
1.77 4.9 1.4 9.1477e-41
1.82 4.9 1.39 9.1477e-41
1.86 4.9 1.39 9.1477e-41
