# .PCD v.7 - Point Cloud Data file format
VERSION .7
FIELDS x y z rgb
SIZE 4 4 4 4
TYPE F F F F
WIDTH 1869
HEIGHT 1
POINTS 1869
DATA ascii
3.29 0.81 1.9 9.1477e-41
3.33 0.81 1.89 9.1477e-41
3.34 0.81 1.8 9.1477e-41
3.33 0.81 1.56 9.1477e-41
3.34 0.81 1.4 9.1477e-41
3.35 0.81 1.22 9.1477e-41
3.38 0.81 1.18 9.1477e-41
3.41 0.81 1.08 9.1477e-41
3.36 0.81 0.45 9.1477e-41
1.36 1.08 3.29 9.1477e-41
1.39 1.08 3.28 9.1477e-41
1.44 1.08 3.29 9.1477e-41
1.47 1.08 3.27 9.1477e-41
1.51 1.08 3.27 9.1477e-41
1.55 1.08 3.26 9.1477e-41
1.59 1.08 3.26 9.1477e-41
1.64 1.08 3.26 9.1477e-41
1.68 1.08 3.26 9.1477e-41
1.72 1.08 3.26 9.1477e-41
1.75 1.08 3.25 9.1477e-41
1.8 1.08 3.25 9.1477e-41
1.84 1.08 3.25 9.1477e-41
1.87 1.08 3.25 9.1477e-41
1.91 1.08 3.25 9.1477e-41
1.94 1.08 3.24 9.1477e-41
1.98 1.08 3.24 9.1477e-41
2.01 1.08 3.23 9.1477e-41
2.06 1.08 3.25 9.1477e-41
2.08 1.08 3.24 9.1477e-41
2.12 1.08 3.23 9.1477e-41
2.16 1.08 3.24 9.1477e-41
2.19 1.08 3.23 9.1477e-41
2.23 1.08 3.24 9.1477e-41
2.25 1.08 3.23 9.1477e-41
2.29 1.08 3.23 9.1477e-41
2.32 1.08 3.23 9.1477e-41
2.35 1.08 3.23 9.1477e-41
2.39 1.08 3.23 9.1477e-41
2.41 1.08 3.23 9.1477e-41
2.45 1.08 3.23 9.1477e-41
2.47 1.08 3.22 9.1477e-41
2.5 1.08 3.23 9.1477e-41
2.54 1.08 3.23 9.1477e-41
2.56 1.08 3.22 9.1477e-41
2.6 1.08 3.23 9.1477e-41
2.62 1.08 3.22 9.1477e-41
2.65 1.08 3.23 9.1477e-41
2.68 1.08 3.22 9.1477e-41
2.71 1.08 3.23 9.1477e-41
2.74 1.08 3.23 9.1477e-41
2.77 1.08 3.23 9.1477e-41
2.79 1.08 3.22 9.1477e-41
2.82 1.08 3.23 9.1477e-41
2.85 1.08 3.22 9.1477e-41
2.87 1.08 3.21 9.1477e-41
2.9 1.08 3.22 9.1477e-41
2.92 1.08 3.22 9.1477e-41
2.95 1.08 3.22 9.1477e-41
2.98 1.08 3.23 9.1477e-41
3.01 1.08 3.24 9.1477e-41
3.03 1.08 3.24 9.1477e-41
3.06 1.08 3.24 9.1477e-41
3.08 1.08 3.24 9.1477e-41
3.11 1.08 3.25 9.1477e-41
3.13 1.08 3.24 9.1477e-41
3.15 1.08 3.21 9.1477e-41
3.16 1.08 3.17 9.1477e-41
3.16 1.08 3.1 9.1477e-41
3.16 1.08 3.03 9.1477e-41
3.14 1.08 2.9 9.1477e-41
3.12 1.08 2.76 9.1477e-41
3.15 1.08 2.76 9.1477e-41
3.17 1.08 2.76 9.1477e-41
3.2 1.08 2.75 9.1477e-41
3.23 1.08 2.75 9.1477e-41
3.25 1.08 2.74 9.1477e-41
3.27 1.08 2.7 9.1477e-41
3.3 1.08 2.69 9.1477e-41
3.31 1.08 2.64 9.1477e-41
3.32 1.08 2.55 9.1477e-41
3.32 1.08 2.45 9.1477e-41
3.32 1.08 2.32 9.1477e-41
3.33 1.08 2.22 9.1477e-41
3.33 1.08 2.09 9.1477e-41
3.34 1.08 1.94 9.1477e-41
3.34 1.08 1.81 9.1477e-41
3.34 1.08 1.62 9.1477e-41
3.34 1.08 1.42 9.1477e-41
3.37 1.08 1.34 9.1477e-41
3.4 1.08 1.31 9.1477e-41
3.36 1.08 0.77 9.1477e-41
3.39 1.08 0.67 9.1477e-41
3.42 1.08 0.54 9.1477e-41
1.31 1.35 3.42 9.1477e-41
1.35 1.35 3.41 9.1477e-41
1.4 1.35 3.41 9.1477e-41
1.45 1.35 3.41 9.1477e-41
1.49 1.35 3.41 9.1477e-41
1.53 1.35 3.41 9.1477e-41
1.58 1.35 3.41 9.1477e-41
1.63 1.35 3.41 9.1477e-41
1.67 1.35 3.41 9.1477e-41
1.7 1.35 3.4 9.1477e-41
1.74 1.35 3.4 9.1477e-41
1.78 1.35 3.4 9.1477e-41
1.82 1.35 3.4 9.1477e-41
1.87 1.35 3.41 9.1477e-41
1.9 1.35 3.4 9.1477e-41
1.93 1.35 3.4 9.1477e-41
1.97 1.35 3.4 9.1477e-41
2.01 1.35 3.4 9.1477e-41
2.04 1.35 3.39 9.1477e-41
2.07 1.35 3.39 9.1477e-41
2.11 1.35 3.39 9.1477e-41
2.14 1.35 3.39 9.1477e-41
2.18 1.35 3.39 9.1477e-41
2.21 1.35 3.39 9.1477e-41
2.24 1.35 3.39 9.1477e-41
2.27 1.35 3.38 9.1477e-41
2.31 1.35 3.39 9.1477e-41
2.33 1.35 3.37 9.1477e-41
2.37 1.35 3.38 9.1477e-41
2.4 1.35 3.38 9.1477e-41
2.43 1.35 3.38 9.1477e-41
2.46 1.35 3.38 9.1477e-41
2.49 1.35 3.38 9.1477e-41
2.53 1.35 3.39 9.1477e-41
2.55 1.35 3.38 9.1477e-41
2.58 1.35 3.38 9.1477e-41
2.61 1.35 3.39 9.1477e-41
2.63 1.35 3.38 9.1477e-41
2.66 1.35 3.38 9.1477e-41
2.69 1.35 3.38 9.1477e-41
2.71 1.35 3.38 9.1477e-41
2.74 1.35 3.37 9.1477e-41
2.77 1.35 3.37 9.1477e-41
2.79 1.35 3.37 9.1477e-41
2.82 1.35 3.37 9.1477e-41
2.84 1.35 3.37 9.1477e-41
2.87 1.35 3.38 9.1477e-41
2.89 1.35 3.37 9.1477e-41
2.92 1.35 3.38 9.1477e-41
2.94 1.35 3.37 9.1477e-41
2.97 1.35 3.37 9.1477e-41
2.99 1.35 3.36 9.1477e-41
3.02 1.35 3.36 9.1477e-41
3.05 1.35 3.37 9.1477e-41
3.07 1.35 3.36 9.1477e-41
3.09 1.35 3.36 9.1477e-41
3.11 1.35 3.36 9.1477e-41
3.14 1.35 3.37 9.1477e-41
3.16 1.35 3.37 9.1477e-41
3.19 1.35 3.37 9.1477e-41
3.2 1.35 3.35 9.1477e-41
3.22 1.35 3.32 9.1477e-41
3.23 1.35 3.31 9.1477e-41
3.23 1.35 3.24 9.1477e-41
3.24 1.35 3.18 9.1477e-41
3.24 1.35 3.11 9.1477e-41
3.21 1.35 2.95 9.1477e-41
3.18 1.35 2.77 9.1477e-41
3.2 1.35 2.76 9.1477e-41
3.23 1.35 2.75 9.1477e-41
3.25 1.35 2.74 9.1477e-41
3.27 1.35 2.71 9.1477e-41
3.29 1.35 2.66 9.1477e-41
3.31 1.35 2.63 9.1477e-41
3.3 1.35 2.49 9.1477e-41
3.3 1.35 2.38 9.1477e-41
3.31 1.35 2.27 9.1477e-41
3.31 1.35 2.15 9.1477e-41
3.32 1.35 2.03 9.1477e-41
3.33 1.35 1.9 9.1477e-41
3.35 1.35 1.82 9.1477e-41
3.33 1.35 1.55 9.1477e-41
3.34 1.35 1.39 9.1477e-41
3.37 1.35 1.34 9.1477e-41
3.4 1.35 1.29 9.1477e-41
3.37 1.35 0.82 9.1477e-41
1.24 1.62 2.82 9.1477e-41
1.28 1.62 2.81 9.1477e-41
1.34 1.62 2.82 9.1477e-41
1.38 1.62 2.82 9.1477e-41
1.44 1.62 2.82 9.1477e-41
1.48 1.62 2.82 9.1477e-41
1.52 1.62 2.81 9.1477e-41
1.57 1.62 2.82 9.1477e-41
1.62 1.62 2.82 9.1477e-41
1.67 1.62 2.84 9.1477e-41
1.71 1.62 2.83 9.1477e-41
1.75 1.62 2.83 9.1477e-41
1.78 1.62 2.82 9.1477e-41
1.82 1.62 2.82 9.1477e-41
1.87 1.62 2.82 9.1477e-41
1.9 1.62 2.82 9.1477e-41
1.94 1.62 2.82 9.1477e-41
1.98 1.62 2.82 9.1477e-41
2.01 1.62 2.81 9.1477e-41
2.05 1.62 2.81 9.1477e-41
2.09 1.62 2.82 9.1477e-41
2.12 1.62 2.81 9.1477e-41
2.16 1.62 2.81 9.1477e-41
2.2 1.62 2.81 9.1477e-41
2.23 1.62 2.81 9.1477e-41
2.27 1.62 2.81 9.1477e-41
2.3 1.62 2.8 9.1477e-41
2.33 1.62 2.8 9.1477e-41
2.37 1.62 2.81 9.1477e-41
2.4 1.62 2.81 9.1477e-41
2.44 1.62 2.81 9.1477e-41
2.47 1.62 2.81 9.1477e-41
2.5 1.62 2.81 9.1477e-41
2.54 1.62 2.81 9.1477e-41
2.57 1.62 2.81 9.1477e-41
2.6 1.62 2.81 9.1477e-41
2.63 1.62 2.8 9.1477e-41
2.66 1.62 2.8 9.1477e-41
2.7 1.62 2.81 9.1477e-41
2.73 1.62 2.81 9.1477e-41
2.76 1.62 2.81 9.1477e-41
2.79 1.62 2.82 9.1477e-41
2.82 1.62 2.81 9.1477e-41
2.84 1.62 2.8 9.1477e-41
2.87 1.62 2.79 9.1477e-41
2.9 1.62 2.79 9.1477e-41
2.93 1.62 2.79 9.1477e-41
2.96 1.62 2.79 9.1477e-41
2.99 1.62 2.79 9.1477e-41
3.01 1.62 2.78 9.1477e-41
3.04 1.62 2.79 9.1477e-41
3.07 1.62 2.78 9.1477e-41
3.1 1.62 2.79 9.1477e-41
3.12 1.62 2.77 9.1477e-41
3.15 1.62 2.77 9.1477e-41
3.18 1.62 2.77 9.1477e-41
3.21 1.62 2.77 9.1477e-41
3.23 1.62 2.77 9.1477e-41
3.25 1.62 2.74 9.1477e-41
3.27 1.62 2.71 9.1477e-41
3.29 1.62 2.66 9.1477e-41
3.31 1.62 2.64 9.1477e-41
3.31 1.62 2.52 9.1477e-41
3.32 1.62 2.44 9.1477e-41
3.32 1.62 2.33 9.1477e-41
3.33 1.62 2.23 9.1477e-41
3.34 1.62 2.1 9.1477e-41
3.35 1.62 1.99 9.1477e-41
3.35 1.62 1.84 9.1477e-41
3.33 1.62 1.55 9.1477e-41
3.33 1.62 1.35 9.1477e-41
3.33 1.62 1.12 9.1477e-41
3.37 1.62 1.09 9.1477e-41
3.39 1.62 0.95 9.1477e-41
1.18 1.89 2.6 9.1477e-41
1.22 1.89 2.6 9.1477e-41
1.26 1.89 2.58 9.1477e-41
1.32 1.89 2.59 9.1477e-41
1.37 1.89 2.59 9.1477e-41
1.41 1.89 2.58 9.1477e-41
1.45 1.89 2.58 9.1477e-41
1.47 1.89 2.55 9.1477e-41
1.49 1.89 2.51 9.1477e-41
1.48 1.89 2.44 9.1477e-41
1.49 1.89 2.4 9.1477e-41
1.47 1.89 2.32 9.1477e-41
1.47 1.89 2.25 9.1477e-41
1.45 1.89 2.17 9.1477e-41
1.44 1.89 2.09 9.1477e-41
1.43 1.89 2 9.1477e-41
1.44 1.89 1.95 9.1477e-41
1.43 1.89 1.87 9.1477e-41
1.46 1.89 1.84 9.1477e-41
1.5 1.89 1.84 3.57e-43
2.2 1.89 1.84 3.57e-43
2.23 1.89 2.81 9.1477e-41
1.41 1.89 1.46 9.1477e-41
1.42 1.89 1.4 9.1477e-41
1.44 1.89 1.34 9.1477e-41
1.42 1.89 1.23 9.1477e-41
1.41 1.89 1.12 9.1477e-41
1.41 1.89 1.02 9.1477e-41
1.45 1.89 0.99 9.1477e-41
1.48 1.89 0.96 9.1477e-41
1.49 1.89 0.89 9.1477e-41
1.67 1.89 1.12 9.1477e-41
1.74 1.89 1.15 9.1477e-41
1.78 1.89 1.12 9.1477e-41
1.77 1.89 1.02 9.1477e-41
1.72 1.89 0.81 9.1477e-41
1.76 1.89 0.77 9.1477e-41
1.82 1.89 0.8 9.1477e-41
2.72 1.89 2.65 9.1477e-41
2.75 1.89 2.65 9.1477e-41
2.78 1.89 2.64 9.1477e-41
2.15 1.89 1.08 9.1477e-41
2.84 1.89 2.64 9.1477e-41
2.87 1.89 2.64 9.1477e-41
2.9 1.89 2.64 9.1477e-41
2.93 1.89 2.64 9.1477e-41
2.96 1.89 2.64 9.1477e-41
2.99 1.89 2.65 9.1477e-41
3.02 1.89 2.64 9.1477e-41
3.05 1.89 2.64 9.1477e-41
3.08 1.89 2.63 9.1477e-41
3.1 1.89 2.61 9.1477e-41
3.12 1.89 2.59 9.1477e-41
3.16 1.89 2.61 9.1477e-41
3.18 1.89 2.59 9.1477e-41
3.21 1.89 2.59 9.1477e-41
3.22 1.89 2.53 9.1477e-41
3.23 1.89 2.45 9.1477e-41
3.24 1.89 2.35 9.1477e-41
3.25 1.89 2.3 9.1477e-41
3.26 1.89 2.21 9.1477e-41
3.27 1.89 2.11 9.1477e-41
3.29 1.89 2.02 9.1477e-41
3.3 1.89 1.92 9.1477e-41
3.31 1.89 1.79 9.1477e-41
3.29 1.89 1.54 9.1477e-41
3.3 1.89 1.4 9.1477e-41
3.27 1.89 1.01 9.1477e-41
3.31 1.89 0.99 9.1477e-41
3.32 1.89 0.78 9.1477e-41
1 2.16 3.35 9.1477e-41
1.01 2.16 3.31 9.1477e-41
1.01 2.16 3.26 9.1477e-41
1.01 2.16 3.22 9.1477e-41
1.01 2.16 3.18 9.1477e-41
1.02 2.16 3.14 9.1477e-41
1.01 2.16 3.08 9.1477e-41
1.01 2.16 3.04 9.1477e-41
1 2.16 2.99 9.1477e-41
1 2.16 2.94 9.1477e-41
1 2.16 2.89 9.1477e-41
1.01 2.16 2.84 9.1477e-41
1 2.16 2.79 9.1477e-41
1 2.16 2.74 9.1477e-41
1 2.16 2.69 9.1477e-41
1 2.16 2.63 9.1477e-41
1 2.16 2.58 9.1477e-41
1 2.16 2.53 9.1477e-41
0.98 2.16 2.45 9.1477e-41
1 2.16 2.41 9.1477e-41
0.99 2.16 2.34 9.1477e-41
0.98 2.16 2.28 9.1477e-41
0.98 2.16 2.22 9.1477e-41
0.99 2.16 2.16 9.1477e-41
0.99 2.16 2.1 9.1477e-41
0.98 2.16 2.03 9.1477e-41
0.99 2.16 1.98 9.1477e-41
0.98 2.16 1.9 9.1477e-41
0.99 2.16 1.84 9.1477e-41
0.98 2.16 1.76 9.1477e-41
0.99 2.16 1.7 9.1477e-41
0.98 2.16 1.62 9.1477e-41
0.98 2.16 1.54 9.1477e-41
0.98 2.16 1.46 9.1477e-41
0.99 2.16 1.4 9.1477e-41
1.04 2.16 1.39 9.1477e-41
1.09 2.16 1.38 9.1477e-41
1.15 2.16 1.39 9.1477e-41
1.2 2.16 1.39 9.1477e-41
1.25 2.16 1.38 9.1477e-41
1.31 2.16 1.39 9.1477e-41
1.36 2.16 1.38 9.1477e-41
1.41 2.16 1.38 9.1477e-41
1.47 2.16 1.39 9.1477e-41
1.52 2.16 1.39 9.1477e-41
1.56 2.16 1.38 9.1477e-41
1.62 2.16 1.38 9.1477e-41
1.67 2.16 1.38 9.1477e-41
1.71 2.16 1.37 9.1477e-41
1.76 2.16 1.38 9.1477e-41
1.81 2.16 1.38 9.1477e-41
1.86 2.16 1.37 9.1477e-41
1.91 2.16 1.38 9.1477e-41
1.95 2.16 1.38 9.1477e-41
2 2.16 1.38 9.1477e-41
2.05 2.16 1.38 9.1477e-41
2.09 2.16 1.37 9.1477e-41
2.13 2.16 1.37 9.1477e-41
2.18 2.16 1.37 9.1477e-41
2.22 2.16 1.37 9.1477e-41
2.27 2.16 1.37 9.1477e-41
2.31 2.16 1.37 9.1477e-41
2.36 2.16 1.37 9.1477e-41
2.39 2.16 1.36 9.1477e-41
2.44 2.16 1.36 9.1477e-41
2.48 2.16 1.37 9.1477e-41
2.53 2.16 1.36 9.1477e-41
2.57 2.16 1.37 9.1477e-41
2.61 2.16 1.36 9.1477e-41
2.65 2.16 1.37 9.1477e-41
2.7 2.16 1.37 9.1477e-41
2.74 2.16 1.36 9.1477e-41
2.78 2.16 1.36 9.1477e-41
2.81 2.16 1.35 9.1477e-41
2.86 2.16 1.36 9.1477e-41
2.88 2.16 1.29 9.1477e-41
3.46 2.16 3.32 9.1477e-41
3.46 2.16 3.21 9.1477e-41
3.46 2.16 3.11 9.1477e-41
3.46 2.16 3.01 9.1477e-41
3.45 2.16 2.89 9.1477e-41
3.45 2.16 2.77 9.1477e-41
3.45 2.16 2.62 9.1477e-41
3.44 2.16 2.47 9.1477e-41
3.44 2.16 2.31 9.1477e-41
3.44 2.16 2.14 9.1477e-41
3.43 2.16 1.92 9.1477e-41
3.43 2.16 1.69 9.1477e-41
3.43 2.16 1.46 9.1477e-41
0.99 2.43 2.16 9.1477e-41
0.99 2.43 2.1 9.1477e-41
0.98 2.43 2.03 9.1477e-41
0.98 2.43 1.97 9.1477e-41
0.98 2.43 1.89 9.1477e-41
0.98 2.43 1.83 9.1477e-41
0.97 2.43 1.75 9.1477e-41
0.97 2.43 1.68 9.1477e-41
0.97 2.43 1.6 9.1477e-41
0.97 2.43 1.53 9.1477e-41
0.97 2.43 1.45 9.1477e-41
0.99 2.43 1.4 9.1477e-41
1.04 2.43 1.39 9.1477e-41
1.1 2.43 1.4 9.1477e-41
1.15 2.43 1.39 9.1477e-41
1.21 2.43 1.4 9.1477e-41
1.26 2.43 1.39 9.1477e-41
1.31 2.43 1.38 9.1477e-41
1.36 2.43 1.38 9.1477e-41
1.41 2.43 1.38 9.1477e-41
1.47 2.43 1.39 9.1477e-41
1.51 2.43 1.38 9.1477e-41
1.57 2.43 1.39 9.1477e-41
1.61 2.43 1.37 9.1477e-41
1.66 2.43 1.38 9.1477e-41
1.71 2.43 1.37 9.1477e-41
1.76 2.43 1.38 9.1477e-41
1.81 2.43 1.38 9.1477e-41
1.86 2.43 1.38 9.1477e-41
1.9 2.43 1.37 9.1477e-41
1.95 2.43 1.38 9.1477e-41
2 2.43 1.38 9.1477e-41
2.05 2.43 1.38 9.1477e-41
2.09 2.43 1.38 9.1477e-41
2.13 2.43 1.37 9.1477e-41
2.18 2.43 1.37 9.1477e-41
2.23 2.43 1.38 9.1477e-41
2.27 2.43 1.38 9.1477e-41
2.32 2.43 1.38 9.1477e-41
2.36 2.43 1.37 9.1477e-41
2.4 2.43 1.37 9.1477e-41
2.44 2.43 1.36 9.1477e-41
2.48 2.43 1.37 9.1477e-41
2.53 2.43 1.37 9.1477e-41
2.57 2.43 1.37 9.1477e-41
2.61 2.43 1.36 9.1477e-41
2.65 2.43 1.35 9.1477e-41
2.7 2.43 1.37 9.1477e-41
2.74 2.43 1.36 9.1477e-41
2.78 2.43 1.37 9.1477e-41
2.82 2.43 1.36 9.1477e-41
2.86 2.43 1.36 9.1477e-41
2.9 2.43 1.36 9.1477e-41
2.94 2.43 1.37 9.1477e-41
2.98 2.43 1.37 9.1477e-41
3.02 2.43 1.35 9.1477e-41
3.06 2.43 1.36 9.1477e-41
3.1 2.43 1.36 9.1477e-41
3.14 2.43 1.37 9.1477e-41
3.18 2.43 1.36 9.1477e-41
3.22 2.43 1.36 9.1477e-41
3.4 2.43 2.1 9.1477e-41
3.44 2.43 2.1 3.57e-43
3.43 2.43 1.92 9.1477e-41
3.41 2.43 1.57 9.1477e-41
3.43 2.43 1.5 9.1477e-41
0.99 2.7 2.17 9.1477e-41
0.98 2.7 2.09 9.1477e-41
0.98 2.7 2.03 9.1477e-41
0.98 2.7 1.96 9.1477e-41
0.98 2.7 1.89 9.1477e-41
0.97 2.7 1.82 9.1477e-41
0.97 2.7 1.75 9.1477e-41
0.97 2.7 1.67 9.1477e-41
0.97 2.7 1.6 9.1477e-41
0.97 2.7 1.52 9.1477e-41
0.97 2.7 1.45 9.1477e-41
0.98 2.7 1.39 9.1477e-41
1.04 2.7 1.39 9.1477e-41
1.1 2.7 1.39 9.1477e-41
1.15 2.7 1.39 9.1477e-41
1.2 2.7 1.39 9.1477e-41
1.26 2.7 1.39 9.1477e-41
1.31 2.7 1.38 9.1477e-41
1.37 2.7 1.39 9.1477e-41
1.41 2.7 1.38 9.1477e-41
1.47 2.7 1.39 9.1477e-41
1.51 2.7 1.38 9.1477e-41
1.57 2.7 1.38 9.1477e-41
1.62 2.7 1.38 9.1477e-41
1.66 2.7 1.38 9.1477e-41
1.72 2.7 1.39 9.1477e-41
1.76 2.7 1.38 9.1477e-41
1.82 2.7 1.39 9.1477e-41
1.86 2.7 1.38 9.1477e-41
1.91 2.7 1.38 9.1477e-41
1.95 2.7 1.38 9.1477e-41
2 2.7 1.38 9.1477e-41
2.05 2.7 1.39 9.1477e-41
2.09 2.7 1.37 9.1477e-41
2.14 2.7 1.39 9.1477e-41
2.18 2.7 1.37 9.1477e-41
2.22 2.7 1.37 9.1477e-41
2.27 2.7 1.38 9.1477e-41
2.32 2.7 1.38 9.1477e-41
2.36 2.7 1.37 9.1477e-41
2.4 2.7 1.38 9.1477e-41
2.44 2.7 1.37 9.1477e-41
2.48 2.7 1.37 9.1477e-41
2.53 2.7 1.37 9.1477e-41
2.57 2.7 1.37 9.1477e-41
2.61 2.7 1.37 9.1477e-41
2.65 2.7 1.36 9.1477e-41
2.7 2.7 1.37 9.1477e-41
2.74 2.7 1.36 9.1477e-41
2.78 2.7 1.37 9.1477e-41
2.82 2.7 1.37 9.1477e-41
2.86 2.7 1.37 9.1477e-41
2.9 2.7 1.37 9.1477e-41
2.94 2.7 1.37 9.1477e-41
2.98 2.7 1.37 9.1477e-41
3.02 2.7 1.36 9.1477e-41
3.06 2.7 1.37 9.1477e-41
3.1 2.7 1.36 9.1477e-41
3.14 2.7 1.36 9.1477e-41
3.18 2.7 1.36 9.1477e-41
3.22 2.7 1.35 9.1477e-41
3.4 2.7 2.11 9.1477e-41
3.44 2.7 2.11 3.57e-43
3.43 2.7 1.92 9.1477e-41
3.41 2.7 1.57 9.1477e-41
0.98 2.97 2.15 9.1477e-41
0.99 2.97 2.1 9.1477e-41
0.98 2.97 2.03 9.1477e-41
0.98 2.97 1.96 9.1477e-41
0.97 2.97 1.89 9.1477e-41
0.97 2.97 1.81 9.1477e-41
0.97 2.97 1.75 9.1477e-41
0.96 2.97 1.66 9.1477e-41
0.97 2.97 1.6 9.1477e-41
0.96 2.97 1.51 9.1477e-41
0.96 2.97 1.44 9.1477e-41
0.99 2.97 1.4 9.1477e-41
1.05 2.97 1.4 9.1477e-41
1.1 2.97 1.39 9.1477e-41
1.16 2.97 1.4 9.1477e-41
1.21 2.97 1.4 9.1477e-41
1.26 2.97 1.39 9.1477e-41
1.31 2.97 1.39 9.1477e-41
1.37 2.97 1.39 9.1477e-41
1.41 2.97 1.38 9.1477e-41
1.47 2.97 1.39 9.1477e-41
1.52 2.97 1.39 9.1477e-41
1.57 2.97 1.38 9.1477e-41
1.62 2.97 1.38 9.1477e-41
1.67 2.97 1.38 9.1477e-41
1.71 2.97 1.38 9.1477e-41
1.77 2.97 1.39 9.1477e-41
1.81 2.97 1.38 9.1477e-41
1.86 2.97 1.38 9.1477e-41
1.91 2.97 1.38 9.1477e-41
1.96 2.97 1.39 9.1477e-41
2 2.97 1.39 9.1477e-41
2.05 2.97 1.39 9.1477e-41
2.09 2.97 1.38 9.1477e-41
2.14 2.97 1.39 9.1477e-41
2.18 2.97 1.37 9.1477e-41
2.23 2.97 1.38 9.1477e-41
2.27 2.97 1.37 9.1477e-41
2.32 2.97 1.38 9.1477e-41
2.35 2.97 1.36 9.1477e-41
2.4 2.97 1.38 9.1477e-41
2.45 2.97 1.38 9.1477e-41
2.49 2.97 1.38 9.1477e-41
2.53 2.97 1.38 9.1477e-41
2.57 2.97 1.37 9.1477e-41
2.61 2.97 1.37 9.1477e-41
2.65 2.97 1.37 9.1477e-41
2.7 2.97 1.38 9.1477e-41
2.74 2.97 1.36 9.1477e-41
2.78 2.97 1.36 9.1477e-41
2.82 2.97 1.37 9.1477e-41
2.86 2.97 1.36 9.1477e-41
2.9 2.97 1.38 9.1477e-41
2.94 2.97 1.37 9.1477e-41
2.98 2.97 1.37 9.1477e-41
3.02 2.97 1.37 9.1477e-41
3.06 2.97 1.36 9.1477e-41
3.1 2.97 1.37 9.1477e-41
3.14 2.97 1.36 9.1477e-41
3.18 2.97 1.36 9.1477e-41
3.22 2.97 1.36 9.1477e-41
3.4 2.97 2.09 9.1477e-41
3.44 2.97 2.15 9.1477e-41
3.42 2.97 1.84 9.1477e-41
3.41 2.97 1.56 9.1477e-41
0.98 3.24 2.15 9.1477e-41
0.98 3.24 2.09 9.1477e-41
0.98 3.24 2.03 9.1477e-41
0.97 3.24 1.95 9.1477e-41
0.97 3.24 1.89 9.1477e-41
0.97 3.24 1.81 9.1477e-41
0.96 3.24 1.74 9.1477e-41
0.96 3.24 1.66 9.1477e-41
0.96 3.24 1.59 9.1477e-41
0.96 3.24 1.51 9.1477e-41
0.96 3.24 1.44 9.1477e-41
0.99 3.24 1.4 9.1477e-41
1.04 3.24 1.39 9.1477e-41
1.1 3.24 1.39 9.1477e-41
1.16 3.24 1.4 9.1477e-41
1.2 3.24 1.39 9.1477e-41
1.26 3.24 1.39 9.1477e-41
1.31 3.24 1.39 9.1477e-41
1.37 3.24 1.39 9.1477e-41
1.41 3.24 1.38 9.1477e-41
1.47 3.24 1.39 9.1477e-41
1.52 3.24 1.39 9.1477e-41
1.57 3.24 1.38 9.1477e-41
1.62 3.24 1.39 9.1477e-41
1.67 3.24 1.38 9.1477e-41
1.71 3.24 1.38 9.1477e-41
1.77 3.24 1.39 9.1477e-41
1.81 3.24 1.38 9.1477e-41
1.86 3.24 1.37 9.1477e-41
1.91 3.24 1.38 9.1477e-41
1.95 3.24 1.38 9.1477e-41
2 3.24 1.38 9.1477e-41
2.05 3.24 1.38 9.1477e-41
2.09 3.24 1.38 9.1477e-41
2.14 3.24 1.38 9.1477e-41
2.18 3.24 1.37 9.1477e-41
2.22 3.24 1.37 9.1477e-41
2.27 3.24 1.38 9.1477e-41
2.32 3.24 1.38 9.1477e-41
2.36 3.24 1.37 9.1477e-41
2.4 3.24 1.37 9.1477e-41
2.44 3.24 1.37 9.1477e-41
2.49 3.24 1.38 9.1477e-41
2.53 3.24 1.37 9.1477e-41
2.57 3.24 1.37 9.1477e-41
2.61 3.24 1.37 9.1477e-41
2.65 3.24 1.37 9.1477e-41
2.7 3.24 1.37 9.1477e-41
2.74 3.24 1.37 9.1477e-41
2.78 3.24 1.36 9.1477e-41
2.82 3.24 1.36 9.1477e-41
2.86 3.24 1.36 9.1477e-41
2.9 3.24 1.36 9.1477e-41
2.94 3.24 1.37 9.1477e-41
2.98 3.24 1.37 9.1477e-41
3.02 3.24 1.37 9.1477e-41
3.06 3.24 1.37 9.1477e-41
3.1 3.24 1.37 9.1477e-41
3.14 3.24 1.36 9.1477e-41
3.18 3.24 1.37 9.1477e-41
3.22 3.24 1.37 9.1477e-41
3.4 3.24 2.1 9.1477e-41
3.44 3.24 2.15 9.1477e-41
3.42 3.24 1.83 9.1477e-41
3.41 3.24 1.57 9.1477e-41
0.98 3.51 2.15 9.1477e-41
0.97 3.51 2.08 9.1477e-41
0.97 3.51 2.02 9.1477e-41
0.98 3.51 1.96 9.1477e-41
0.97 3.51 1.89 9.1477e-41
0.97 3.51 1.81 9.1477e-41
0.96 3.51 1.74 9.1477e-41
0.96 3.51 1.66 9.1477e-41
0.96 3.51 1.59 9.1477e-41
0.96 3.51 1.51 9.1477e-41
0.95 3.51 1.43 9.1477e-41
0.99 3.51 1.4 9.1477e-41
1.05 3.51 1.4 9.1477e-41
1.1 3.51 1.4 9.1477e-41
1.16 3.51 1.4 9.1477e-41
1.2 3.51 1.39 9.1477e-41
1.26 3.51 1.4 9.1477e-41
1.31 3.51 1.39 9.1477e-41
1.37 3.51 1.39 9.1477e-41
1.41 3.51 1.38 9.1477e-41
1.47 3.51 1.39 9.1477e-41
1.52 3.51 1.39 9.1477e-41
1.57 3.51 1.38 9.1477e-41
1.62 3.51 1.38 9.1477e-41
1.67 3.51 1.38 9.1477e-41
1.72 3.51 1.39 9.1477e-41
1.77 3.51 1.39 9.1477e-41
1.81 3.51 1.38 9.1477e-41
1.86 3.51 1.39 9.1477e-41
1.9 3.51 1.37 9.1477e-41
1.96 3.51 1.39 9.1477e-41
2 3.51 1.38 9.1477e-41
2.05 3.51 1.38 9.1477e-41
2.09 3.51 1.38 9.1477e-41
2.14 3.51 1.39 9.1477e-41
2.18 3.51 1.38 9.1477e-41
2.22 3.51 1.37 9.1477e-41
2.27 3.51 1.38 9.1477e-41
2.31 3.51 1.37 9.1477e-41
2.36 3.51 1.37 9.1477e-41
2.4 3.51 1.38 9.1477e-41
2.44 3.51 1.37 9.1477e-41
2.49 3.51 1.38 9.1477e-41
2.53 3.51 1.37 9.1477e-41
2.57 3.51 1.37 9.1477e-41
2.61 3.51 1.36 9.1477e-41
2.65 3.51 1.37 9.1477e-41
2.7 3.51 1.37 9.1477e-41
2.74 3.51 1.37 9.1477e-41
2.78 3.51 1.37 9.1477e-41
2.82 3.51 1.37 9.1477e-41
2.86 3.51 1.37 9.1477e-41
2.9 3.51 1.37 9.1477e-41
2.94 3.51 1.37 9.1477e-41
2.98 3.51 1.37 9.1477e-41
3.02 3.51 1.37 9.1477e-41
3.06 3.51 1.37 9.1477e-41
3.1 3.51 1.36 9.1477e-41
3.14 3.51 1.37 9.1477e-41
3.18 3.51 1.37 9.1477e-41
3.22 3.51 1.36 9.1477e-41
3.4 3.51 2.11 9.1477e-41
3.44 3.51 2.11 3.57e-43
3.42 3.51 1.83 9.1477e-41
3.41 3.51 1.57 9.1477e-41
0.97 3.78 2.15 9.1477e-41
0.97 3.78 2.08 9.1477e-41
0.96 3.78 2.01 9.1477e-41
0.97 3.78 1.95 9.1477e-41
0.97 3.78 1.88 9.1477e-41
0.96 3.78 1.8 9.1477e-41
0.96 3.78 1.74 9.1477e-41
0.96 3.78 1.66 9.1477e-41
0.96 3.78 1.59 9.1477e-41
0.95 3.78 1.51 9.1477e-41
0.95 3.78 1.42 9.1477e-41
0.99 3.78 1.4 9.1477e-41
1.05 3.78 1.4 9.1477e-41
1.1 3.78 1.4 9.1477e-41
1.16 3.78 1.4 9.1477e-41
1.2 3.78 1.39 9.1477e-41
1.26 3.78 1.4 9.1477e-41
1.32 3.78 1.4 9.1477e-41
1.37 3.78 1.4 9.1477e-41
1.42 3.78 1.39 9.1477e-41
1.47 3.78 1.39 9.1477e-41
1.52 3.78 1.4 9.1477e-41
1.57 3.78 1.39 9.1477e-41
1.63 3.78 1.4 9.1477e-41
1.67 3.78 1.39 9.1477e-41
1.72 3.78 1.4 9.1477e-41
1.77 3.78 1.4 9.1477e-41
1.82 3.78 1.39 9.1477e-41
1.86 3.78 1.38 9.1477e-41
1.91 3.78 1.39 9.1477e-41
1.95 3.78 1.38 9.1477e-41
2 3.78 1.38 9.1477e-41
2.05 3.78 1.38 9.1477e-41
2.1 3.78 1.39 9.1477e-41
2.14 3.78 1.38 9.1477e-41
2.18 3.78 1.38 9.1477e-41
2.22 3.78 1.37 9.1477e-41
2.27 3.78 1.39 9.1477e-41
2.32 3.78 1.38 9.1477e-41
2.36 3.78 1.38 9.1477e-41
2.41 3.78 1.39 9.1477e-41
2.44 3.78 1.37 9.1477e-41
2.49 3.78 1.39 9.1477e-41
2.54 3.78 1.39 9.1477e-41
2.57 3.78 1.38 9.1477e-41
2.61 3.78 1.37 9.1477e-41
2.65 3.78 1.37 9.1477e-41
2.7 3.78 1.37 9.1477e-41
2.74 3.78 1.37 9.1477e-41
2.78 3.78 1.36 9.1477e-41
2.82 3.78 1.38 9.1477e-41
2.86 3.78 1.38 9.1477e-41
2.9 3.78 1.38 9.1477e-41
2.94 3.78 1.37 9.1477e-41
2.98 3.78 1.37 9.1477e-41
3.02 3.78 1.38 9.1477e-41
3.06 3.78 1.37 9.1477e-41
3.1 3.78 1.37 9.1477e-41
3.14 3.78 1.37 9.1477e-41
3.18 3.78 1.37 9.1477e-41
3.21 3.78 1.32 9.1477e-41
3.4 3.78 2.12 9.1477e-41
3.44 3.78 2.15 9.1477e-41
3.42 3.78 1.83 9.1477e-41
3.41 3.78 1.57 9.1477e-41
0.96 4.05 2.2 9.1477e-41
0.97 4.05 2.14 9.1477e-41
0.97 4.05 2.08 9.1477e-41
0.96 4.05 2.01 9.1477e-41
0.96 4.05 1.94 9.1477e-41
0.95 4.05 1.86 9.1477e-41
0.95 4.05 1.8 9.1477e-41
0.96 4.05 1.74 9.1477e-41
0.96 4.05 1.66 9.1477e-41
0.97 4.05 1.6 9.1477e-41
0.97 4.05 1.52 9.1477e-41
0.96 4.05 1.44 9.1477e-41
0.99 4.05 1.4 9.1477e-41
1.05 4.05 1.4 9.1477e-41
1.1 4.05 1.4 9.1477e-41
1.16 4.05 1.4 9.1477e-41
1.2 4.05 1.39 9.1477e-41
1.26 4.05 1.4 9.1477e-41
1.32 4.05 1.4 9.1477e-41
1.37 4.05 1.4 9.1477e-41
1.42 4.05 1.39 9.1477e-41
1.47 4.05 1.39 9.1477e-41
1.52 4.05 1.4 9.1477e-41
1.57 4.05 1.39 9.1477e-41
1.62 4.05 1.39 9.1477e-41
1.67 4.05 1.38 9.1477e-41
1.72 4.05 1.4 9.1477e-41
1.77 4.05 1.39 9.1477e-41
1.82 4.05 1.39 9.1477e-41
1.86 4.05 1.39 9.1477e-41
1.92 4.05 1.4 9.1477e-41
1.96 4.05 1.39 9.1477e-41
2 4.05 1.39 9.1477e-41
2.05 4.05 1.39 9.1477e-41
2.09 4.05 1.38 9.1477e-41
2.15 4.05 1.4 9.1477e-41
2.18 4.05 1.38 9.1477e-41
2.23 4.05 1.38 9.1477e-41
2.27 4.05 1.39 9.1477e-41
2.32 4.05 1.39 9.1477e-41
2.36 4.05 1.38 9.1477e-41
2.41 4.05 1.39 9.1477e-41
2.45 4.05 1.39 9.1477e-41
2.49 4.05 1.39 9.1477e-41
2.54 4.05 1.39 9.1477e-41
2.58 4.05 1.39 9.1477e-41
2.62 4.05 1.38 9.1477e-41
2.66 4.05 1.39 9.1477e-41
2.7 4.05 1.39 9.1477e-41
2.74 4.05 1.38 9.1477e-41
2.78 4.05 1.38 9.1477e-41
2.82 4.05 1.37 9.1477e-41
2.86 4.05 1.38 9.1477e-41
2.91 4.05 1.39 9.1477e-41
2.94 4.05 1.38 9.1477e-41
2.99 4.05 1.39 9.1477e-41
3.03 4.05 1.39 9.1477e-41
3.06 4.05 1.38 9.1477e-41
3.1 4.05 1.38 9.1477e-41
3.14 4.05 1.38 9.1477e-41
3.18 4.05 1.37 9.1477e-41
3.21 4.05 1.31 9.1477e-41
3.41 4.05 2.13 9.1477e-41
3.44 4.05 2.14 9.1477e-41
3.42 4.05 1.84 9.1477e-41
3.41 4.05 1.57 9.1477e-41
3.28 4.05 0.52 9.1477e-41
0.96 4.32 2.19 9.1477e-41
0.96 4.32 2.13 9.1477e-41
0.96 4.32 2.07 9.1477e-41
0.96 4.32 2.01 9.1477e-41
0.96 4.32 1.94 9.1477e-41
0.96 4.32 1.87 9.1477e-41
0.96 4.32 1.8 9.1477e-41
0.96 4.32 1.73 9.1477e-41
0.96 4.32 1.66 9.1477e-41
0.96 4.32 1.59 9.1477e-41
0.95 4.32 1.51 9.1477e-41
0.95 4.32 1.43 9.1477e-41
0.99 4.32 1.4 9.1477e-41
1.04 4.32 1.39 9.1477e-41
1.1 4.32 1.4 9.1477e-41
1.16 4.32 1.4 9.1477e-41
1.21 4.32 1.4 9.1477e-41
1.26 4.32 1.4 9.1477e-41
1.32 4.32 1.4 9.1477e-41
1.37 4.32 1.4 9.1477e-41
1.42 4.32 1.4 9.1477e-41
1.47 4.32 1.39 9.1477e-41
1.52 4.32 1.4 9.1477e-41
1.57 4.32 1.39 9.1477e-41
1.62 4.32 1.39 9.1477e-41
1.67 4.32 1.39 9.1477e-41
1.72 4.32 1.4 9.1477e-41
1.77 4.32 1.4 9.1477e-41
1.82 4.32 1.39 9.1477e-41
1.86 4.32 1.39 9.1477e-41
1.91 4.32 1.39 9.1477e-41
1.96 4.32 1.39 9.1477e-41
2 4.32 1.39 9.1477e-41
2.05 4.32 1.4 9.1477e-41
2.09 4.32 1.37 9.1477e-41
2.14 4.32 1.39 9.1477e-41
2.19 4.32 1.4 9.1477e-41
2.23 4.32 1.39 9.1477e-41
2.27 4.32 1.38 9.1477e-41
2.32 4.32 1.38 9.1477e-41
2.36 4.32 1.38 9.1477e-41
2.41 4.32 1.39 9.1477e-41
2.44 4.32 1.37 9.1477e-41
2.49 4.32 1.38 9.1477e-41
2.53 4.32 1.38 9.1477e-41
2.58 4.32 1.39 9.1477e-41
2.62 4.32 1.38 9.1477e-41
2.66 4.32 1.38 9.1477e-41
2.7 4.32 1.38 9.1477e-41
2.74 4.32 1.37 9.1477e-41
2.78 4.32 1.38 9.1477e-41
2.82 4.32 1.37 9.1477e-41
2.86 4.32 1.38 9.1477e-41
2.9 4.32 1.37 9.1477e-41
2.94 4.32 1.37 9.1477e-41
2.98 4.32 1.38 9.1477e-41
3.02 4.32 1.38 9.1477e-41
3.06 4.32 1.38 9.1477e-41
3.1 4.32 1.38 9.1477e-41
3.14 4.32 1.37 9.1477e-41
3.18 4.32 1.38 9.1477e-41
3.35 4.32 2.02 9.1477e-41
3.41 4.32 2.13 9.1477e-41
3.43 4.32 2.07 9.1477e-41
3.41 4.32 1.79 9.1477e-41
3.41 4.32 1.57 9.1477e-41
0.96 4.59 2.2 9.1477e-41
0.97 4.59 2.14 9.1477e-41
0.96 4.59 2.07 9.1477e-41
0.96 4.59 2.01 9.1477e-41
0.96 4.59 1.94 9.1477e-41
0.96 4.59 1.87 9.1477e-41
0.95 4.59 1.8 9.1477e-41
0.96 4.59 1.73 9.1477e-41
0.96 4.59 1.66 9.1477e-41
0.95 4.59 1.58 9.1477e-41
0.95 4.59 1.51 9.1477e-41
0.95 4.59 1.43 9.1477e-41
1 4.59 1.41 9.1477e-41
1.05 4.59 1.4 9.1477e-41
1.11 4.59 1.41 9.1477e-41
1.16 4.59 1.4 9.1477e-41
1.21 4.59 1.4 9.1477e-41
1.26 4.59 1.4 9.1477e-41
1.32 4.59 1.4 9.1477e-41
1.37 4.59 1.4 9.1477e-41
1.42 4.59 1.39 9.1477e-41
1.47 4.59 1.39 9.1477e-41
1.52 4.59 1.39 9.1477e-41
1.57 4.59 1.39 9.1477e-41
1.63 4.59 1.4 9.1477e-41
1.67 4.59 1.39 9.1477e-41
1.72 4.59 1.39 9.1477e-41
1.77 4.59 1.4 9.1477e-41
1.82 4.59 1.39 9.1477e-41
1.86 4.59 1.39 9.1477e-41
1.91 4.59 1.39 9.1477e-41
1.96 4.59 1.4 9.1477e-41
2 4.59 1.39 9.1477e-41
2.05 4.59 1.39 9.1477e-41
2.1 4.59 1.39 9.1477e-41
2.14 4.59 1.39 9.1477e-41
2.19 4.59 1.39 9.1477e-41
2.23 4.59 1.38 9.1477e-41
2.27 4.59 1.39 9.1477e-41
2.32 4.59 1.38 9.1477e-41
2.36 4.59 1.39 9.1477e-41
2.41 4.59 1.4 9.1477e-41
2.45 4.59 1.38 9.1477e-41
2.49 4.59 1.39 9.1477e-41
2.53 4.59 1.38 9.1477e-41
2.57 4.59 1.38 9.1477e-41
2.62 4.59 1.38 9.1477e-41
2.66 4.59 1.38 9.1477e-41
2.7 4.59 1.39 9.1477e-41
2.74 4.59 1.37 9.1477e-41
2.78 4.59 1.38 9.1477e-41
2.83 4.59 1.39 9.1477e-41
2.86 4.59 1.37 9.1477e-41
2.9 4.59 1.38 9.1477e-41
2.95 4.59 1.39 9.1477e-41
2.99 4.59 1.39 9.1477e-41
3.02 4.59 1.38 9.1477e-41
3.06 4.59 1.38 9.1477e-41
3.1 4.59 1.38 9.1477e-41
3.14 4.59 1.38 9.1477e-41
3.18 4.59 1.39 9.1477e-41
3.35 4.59 2.03 9.1477e-41
3.41 4.59 2.13 9.1477e-41
3.42 4.59 2.06 9.1477e-41
3.4 4.59 1.75 9.1477e-41
3.41 4.59 1.57 9.1477e-41
0.96 4.86 2.2 9.1477e-41
0.97 4.86 2.14 9.1477e-41
0.97 4.86 2.08 9.1477e-41
0.96 4.86 2.01 9.1477e-41
0.96 4.86 1.94 9.1477e-41
0.96 4.86 1.87 9.1477e-41
0.95 4.86 1.8 9.1477e-41
0.96 4.86 1.73 9.1477e-41
0.95 4.86 1.65 9.1477e-41
0.95 4.86 1.58 9.1477e-41
0.95 4.86 1.51 9.1477e-41
0.95 4.86 1.43 9.1477e-41
1 4.86 1.41 9.1477e-41
1.05 4.86 1.4 9.1477e-41
1.1 4.86 1.4 9.1477e-41
1.16 4.86 1.41 9.1477e-41
1.22 4.86 1.41 9.1477e-41
1.26 4.86 1.4 9.1477e-41
1.32 4.86 1.4 9.1477e-41
1.37 4.86 1.4 9.1477e-41
1.42 4.86 1.4 9.1477e-41
1.47 4.86 1.39 9.1477e-41
1.52 4.86 1.39 9.1477e-41
1.58 4.86 1.41 9.1477e-41
1.63 4.86 1.4 9.1477e-41
1.67 4.86 1.39 9.1477e-41
1.72 4.86 1.4 9.1477e-41
1.77 4.86 1.4 9.1477e-41
1.82 4.86 1.39 9.1477e-41
1.87 4.86 1.4 9.1477e-41
1.92 4.86 1.4 9.1477e-41
1.96 4.86 1.4 9.1477e-41
2.01 4.86 1.4 9.1477e-41
2.05 4.86 1.4 9.1477e-41
2.1 4.86 1.39 9.1477e-41
2.14 4.86 1.39 9.1477e-41
2.19 4.86 1.39 9.1477e-41
2.23 4.86 1.39 9.1477e-41
2.27 4.86 1.39 9.1477e-41
2.32 4.86 1.39 9.1477e-41
2.36 4.86 1.39 9.1477e-41
2.41 4.86 1.39 9.1477e-41
2.45 4.86 1.39 9.1477e-41
2.49 4.86 1.39 9.1477e-41
2.54 4.86 1.39 9.1477e-41
2.57 4.86 1.38 9.1477e-41
2.62 4.86 1.38 9.1477e-41
2.66 4.86 1.38 9.1477e-41
2.7 4.86 1.39 9.1477e-41
2.74 4.86 1.38 9.1477e-41
2.79 4.86 1.39 9.1477e-41
2.83 4.86 1.39 9.1477e-41
2.86 4.86 1.38 9.1477e-41
2.9 4.86 1.38 9.1477e-41
2.94 4.86 1.38 9.1477e-41
2.99 4.86 1.39 9.1477e-41
3.02 4.86 1.38 9.1477e-41
3.06 4.86 1.38 9.1477e-41
3.11 4.86 1.39 9.1477e-41
3.14 4.86 1.38 9.1477e-41
3.18 4.86 1.38 9.1477e-41
3.36 4.86 2.04 9.1477e-41
3.41 4.86 2.16 9.1477e-41
3.42 4.86 2.04 9.1477e-41
3.4 4.86 1.72 9.1477e-41
3.41 4.86 1.57 9.1477e-41
0.96 5.13 2.19 9.1477e-41
0.97 5.13 2.14 9.1477e-41
0.96 5.13 2.07 9.1477e-41
0.96 5.13 2.01 9.1477e-41
0.96 5.13 1.94 9.1477e-41
0.97 5.13 1.88 9.1477e-41
0.95 5.13 1.8 9.1477e-41
0.95 5.13 1.72 9.1477e-41
0.96 5.13 1.66 9.1477e-41
0.95 5.13 1.58 9.1477e-41
0.95 5.13 1.5 9.1477e-41
0.95 5.13 1.43 9.1477e-41
0.99 5.13 1.4 9.1477e-41
1.05 5.13 1.4 9.1477e-41
1.1 5.13 1.4 9.1477e-41
1.16 5.13 1.41 9.1477e-41
1.22 5.13 1.41 9.1477e-41
1.26 5.13 1.4 9.1477e-41
1.31 5.13 1.39 9.1477e-41
1.37 5.13 1.4 9.1477e-41
1.42 5.13 1.4 9.1477e-41
1.47 5.13 1.39 9.1477e-41
1.52 5.13 1.39 9.1477e-41
1.57 5.13 1.39 9.1477e-41
1.63 5.13 1.4 9.1477e-41
1.67 5.13 1.39 9.1477e-41
1.72 5.13 1.39 9.1477e-41
1.77 5.13 1.4 9.1477e-41
1.81 5.13 1.38 9.1477e-41
1.86 5.13 1.39 9.1477e-41
1.91 5.13 1.38 9.1477e-41
1.96 5.13 1.4 9.1477e-41
2 5.13 1.39 9.1477e-41
2.05 5.13 1.39 9.1477e-41
2.1 5.13 1.39 9.1477e-41
2.14 5.13 1.39 9.1477e-41
2.19 5.13 1.39 9.1477e-41
2.23 5.13 1.39 9.1477e-41
2.28 5.13 1.39 9.1477e-41
2.32 5.13 1.39 9.1477e-41
2.36 5.13 1.39 9.1477e-41
2.41 5.13 1.39 9.1477e-41
2.45 5.13 1.39 9.1477e-41
2.49 5.13 1.39 9.1477e-41
2.54 5.13 1.39 9.1477e-41
2.58 5.13 1.39 9.1477e-41
2.62 5.13 1.38 9.1477e-41
2.66 5.13 1.39 9.1477e-41
2.7 5.13 1.39 9.1477e-41
2.74 5.13 1.38 9.1477e-41
2.78 5.13 1.38 9.1477e-41
2.83 5.13 1.39 9.1477e-41
2.86 5.13 1.38 9.1477e-41
2.91 5.13 1.4 9.1477e-41
2.95 5.13 1.39 9.1477e-41
2.99 5.13 1.39 9.1477e-41
3.03 5.13 1.39 9.1477e-41
3.07 5.13 1.39 9.1477e-41
3.11 5.13 1.4 9.1477e-41
3.14 5.13 1.38 9.1477e-41
3.18 5.13 1.39 9.1477e-41
3.36 5.13 2.05 9.1477e-41
3.41 5.13 2.15 9.1477e-41
3.42 5.13 2.04 9.1477e-41
3.4 5.13 1.73 9.1477e-41
3.41 5.13 1.58 9.1477e-41
0.96 5.4 2.2 9.1477e-41
0.97 5.4 2.14 9.1477e-41
0.97 5.4 2.08 9.1477e-41
0.96 5.4 2 9.1477e-41
0.96 5.4 1.94 9.1477e-41
0.96 5.4 1.87 9.1477e-41
0.95 5.4 1.8 9.1477e-41
0.95 5.4 1.72 9.1477e-41
0.95 5.4 1.65 9.1477e-41
0.95 5.4 1.57 9.1477e-41
0.95 5.4 1.5 9.1477e-41
0.95 5.4 1.42 9.1477e-41
0.99 5.4 1.4 9.1477e-41
1.05 5.4 1.41 9.1477e-41
1.1 5.4 1.4 9.1477e-41
1.16 5.4 1.41 9.1477e-41
1.22 5.4 1.41 9.1477e-41
1.27 5.4 1.41 9.1477e-41
1.32 5.4 1.4 9.1477e-41
1.37 5.4 1.4 9.1477e-41
1.42 5.4 1.4 9.1477e-41
1.47 5.4 1.39 9.1477e-41
1.52 5.4 1.4 9.1477e-41
1.58 5.4 1.4 9.1477e-41
1.63 5.4 1.4 9.1477e-41
1.67 5.4 1.39 9.1477e-41
1.72 5.4 1.4 9.1477e-41
1.77 5.4 1.4 9.1477e-41
1.82 5.4 1.39 9.1477e-41
1.86 5.4 1.39 9.1477e-41
1.91 5.4 1.39 9.1477e-41
1.96 5.4 1.4 9.1477e-41
2.01 5.4 1.4 9.1477e-41
2.05 5.4 1.39 9.1477e-41
2.1 5.4 1.4 9.1477e-41
2.15 5.4 1.4 9.1477e-41
2.19 5.4 1.4 9.1477e-41
2.23 5.4 1.39 9.1477e-41
2.28 5.4 1.39 9.1477e-41
2.32 5.4 1.4 9.1477e-41
2.37 5.4 1.4 9.1477e-41
2.41 5.4 1.4 9.1477e-41
2.45 5.4 1.39 9.1477e-41
2.49 5.4 1.39 9.1477e-41
2.54 5.4 1.39 9.1477e-41
2.58 5.4 1.4 9.1477e-41
2.62 5.4 1.39 9.1477e-41
2.66 5.4 1.4 9.1477e-41
2.7 5.4 1.4 9.1477e-41
2.74 5.4 1.39 9.1477e-41
2.79 5.4 1.39 9.1477e-41
2.83 5.4 1.39 9.1477e-41
2.87 5.4 1.39 9.1477e-41
2.91 5.4 1.39 9.1477e-41
2.95 5.4 1.39 9.1477e-41
2.99 5.4 1.39 9.1477e-41
3.03 5.4 1.4 9.1477e-41
3.07 5.4 1.39 9.1477e-41
3.11 5.4 1.39 9.1477e-41
3.14 5.4 1.39 9.1477e-41
3.18 5.4 1.39 9.1477e-41
3.36 5.4 2.08 9.1477e-41
3.41 5.4 2.17 9.1477e-41
3.42 5.4 2.01 9.1477e-41
3.39 5.4 1.68 9.1477e-41
3.41 5.4 1.57 9.1477e-41
3.41 5.4 1.32 9.1477e-41
0.96 5.67 2.19 9.1477e-41
0.96 5.67 2.13 9.1477e-41
0.97 5.67 2.08 9.1477e-41
0.96 5.67 2 9.1477e-41
0.96 5.67 1.94 9.1477e-41
0.95 5.67 1.86 9.1477e-41
0.95 5.67 1.8 9.1477e-41
0.95 5.67 1.72 9.1477e-41
0.94 5.67 1.64 9.1477e-41
0.95 5.67 1.57 9.1477e-41
0.94 5.67 1.49 9.1477e-41
0.95 5.67 1.42 9.1477e-41
0.99 5.67 1.4 9.1477e-41
1.05 5.67 1.41 9.1477e-41
1.11 5.67 1.41 9.1477e-41
1.16 5.67 1.41 9.1477e-41
1.22 5.67 1.41 9.1477e-41
1.27 5.67 1.41 9.1477e-41
1.32 5.67 1.41 9.1477e-41
1.38 5.67 1.41 9.1477e-41
1.42 5.67 1.39 9.1477e-41
1.48 5.67 1.4 9.1477e-41
1.52 5.67 1.4 9.1477e-41
1.58 5.67 1.4 9.1477e-41
1.63 5.67 1.4 9.1477e-41
1.68 5.67 1.4 9.1477e-41
1.73 5.67 1.41 9.1477e-41
1.77 5.67 1.4 9.1477e-41
1.82 5.67 1.39 9.1477e-41
1.87 5.67 1.4 9.1477e-41
1.92 5.67 1.4 9.1477e-41
1.97 5.67 1.41 9.1477e-41
2.01 5.67 1.41 9.1477e-41
2.05 5.67 1.4 9.1477e-41
2.1 5.67 1.4 9.1477e-41
2.15 5.67 1.4 9.1477e-41
2.19 5.67 1.4 9.1477e-41
2.24 5.67 1.4 9.1477e-41
2.28 5.67 1.39 9.1477e-41
2.32 5.67 1.4 9.1477e-41
2.37 5.67 1.4 9.1477e-41
2.41 5.67 1.4 9.1477e-41
2.45 5.67 1.39 9.1477e-41
2.49 5.67 1.39 9.1477e-41
2.54 5.67 1.39 9.1477e-41
2.58 5.67 1.4 9.1477e-41
2.62 5.67 1.39 9.1477e-41
2.66 5.67 1.4 9.1477e-41
2.7 5.67 1.4 9.1477e-41
2.74 5.67 1.39 9.1477e-41
2.79 5.67 1.39 9.1477e-41
2.83 5.67 1.39 9.1477e-41
2.87 5.67 1.4 9.1477e-41
2.91 5.67 1.39 9.1477e-41
2.95 5.67 1.4 9.1477e-41
2.99 5.67 1.4 9.1477e-41
3.03 5.67 1.4 9.1477e-41
3.07 5.67 1.39 9.1477e-41
3.11 5.67 1.39 9.1477e-41
3.14 5.67 1.39 9.1477e-41
3.19 5.67 1.4 9.1477e-41
3.37 5.67 2.11 9.1477e-41
3.42 5.67 2.18 9.1477e-41
3.41 5.67 1.99 9.1477e-41
3.38 5.67 1.65 9.1477e-41
3.41 5.67 1.58 9.1477e-41
3.39 5.67 1.25 9.1477e-41
3.39 5.67 0.93 9.1477e-41
3.41 5.67 0.8 9.1477e-41
3.4 5.67 0.41 9.1477e-41
0.96 5.94 2.19 9.1477e-41
0.96 5.94 2.13 9.1477e-41
0.97 5.94 2.08 9.1477e-41
0.95 5.94 1.99 9.1477e-41
0.96 5.94 1.94 9.1477e-41
0.96 5.94 1.87 9.1477e-41
0.95 5.94 1.8 9.1477e-41
0.95 5.94 1.72 9.1477e-41
0.96 5.94 1.66 9.1477e-41
0.95 5.94 1.57 9.1477e-41
0.95 5.94 1.5 9.1477e-41
0.95 5.94 1.42 9.1477e-41
1 5.94 1.41 9.1477e-41
1.05 5.94 1.41 9.1477e-41
1.11 5.94 1.42 9.1477e-41
1.16 5.94 1.41 9.1477e-41
1.22 5.94 1.41 9.1477e-41
1.27 5.94 1.41 9.1477e-41
1.32 5.94 1.41 9.1477e-41
1.38 5.94 1.41 9.1477e-41
1.42 5.94 1.4 9.1477e-41
1.48 5.94 1.4 9.1477e-41
1.52 5.94 1.4 9.1477e-41
1.58 5.94 1.4 9.1477e-41
1.63 5.94 1.4 9.1477e-41
1.68 5.94 1.4 9.1477e-41
1.72 5.94 1.4 9.1477e-41
1.78 5.94 1.4 9.1477e-41
1.82 5.94 1.39 9.1477e-41
1.86 5.94 1.39 9.1477e-41
1.92 5.94 1.4 9.1477e-41
1.96 5.94 1.4 9.1477e-41
2.01 5.94 1.4 9.1477e-41
2.06 5.94 1.41 9.1477e-41
2.1 5.94 1.4 9.1477e-41
2.15 5.94 1.4 9.1477e-41
2.19 5.94 1.39 9.1477e-41
2.23 5.94 1.39 9.1477e-41
2.28 5.94 1.39 9.1477e-41
2.32 5.94 1.39 9.1477e-41
2.36 5.94 1.39 9.1477e-41
2.41 5.94 1.4 9.1477e-41
2.45 5.94 1.39 9.1477e-41
2.49 5.94 1.39 9.1477e-41
2.53 5.94 1.38 9.1477e-41
2.58 5.94 1.39 9.1477e-41
2.62 5.94 1.39 9.1477e-41
2.66 5.94 1.39 9.1477e-41
2.7 5.94 1.39 9.1477e-41
2.74 5.94 1.39 9.1477e-41
2.79 5.94 1.39 9.1477e-41
2.83 5.94 1.4 9.1477e-41
2.87 5.94 1.4 9.1477e-41
2.91 5.94 1.4 9.1477e-41
2.95 5.94 1.39 9.1477e-41
2.99 5.94 1.4 9.1477e-41
3.03 5.94 1.4 9.1477e-41
3.07 5.94 1.41 9.1477e-41
3.11 5.94 1.4 9.1477e-41
3.14 5.94 1.39 9.1477e-41
3.19 5.94 1.4 9.1477e-41
3.37 5.94 2.12 9.1477e-41
3.42 5.94 2.19 9.1477e-41
3.41 5.94 1.98 9.1477e-41
3.38 5.94 1.65 9.1477e-41
3.41 5.94 1.57 9.1477e-41
3.4 5.94 1.27 9.1477e-41
3.4 5.94 1.02 9.1477e-41
0.95 6.21 2.18 9.1477e-41
0.95 6.21 2.12 9.1477e-41
0.95 6.21 2.05 9.1477e-41
0.95 6.21 1.99 9.1477e-41
0.94 6.21 1.91 9.1477e-41
0.94 6.21 1.85 9.1477e-41
0.94 6.21 1.78 9.1477e-41
0.95 6.21 1.72 9.1477e-41
0.94 6.21 1.63 9.1477e-41
0.94 6.21 1.57 9.1477e-41
0.94 6.21 1.49 9.1477e-41
0.95 6.21 1.42 9.1477e-41
1 6.21 1.41 9.1477e-41
1.05 6.21 1.41 9.1477e-41
1.11 6.21 1.42 9.1477e-41
1.16 6.21 1.41 9.1477e-41
1.22 6.21 1.41 9.1477e-41
1.27 6.21 1.41 9.1477e-41
1.32 6.21 1.41 9.1477e-41
1.37 6.21 1.4 9.1477e-41
1.43 6.21 1.41 9.1477e-41
1.48 6.21 1.4 9.1477e-41
1.53 6.21 1.41 9.1477e-41
1.58 6.21 1.4 9.1477e-41
1.63 6.21 1.41 9.1477e-41
1.68 6.21 1.4 9.1477e-41
1.72 6.21 1.4 9.1477e-41
1.78 6.21 1.4 9.1477e-41
1.82 6.21 1.4 9.1477e-41
1.87 6.21 1.4 9.1477e-41
1.92 6.21 1.4 9.1477e-41
1.96 6.21 1.4 9.1477e-41
2.01 6.21 1.4 9.1477e-41
2.05 6.21 1.4 9.1477e-41
2.1 6.21 1.4 9.1477e-41
2.14 6.21 1.39 9.1477e-41
2.2 6.21 1.41 9.1477e-41
2.24 6.21 1.4 9.1477e-41
2.28 6.21 1.39 9.1477e-41
2.32 6.21 1.39 9.1477e-41
2.36 6.21 1.39 9.1477e-41
2.41 6.21 1.4 9.1477e-41
2.45 6.21 1.39 9.1477e-41
2.49 6.21 1.39 9.1477e-41
2.54 6.21 1.39 9.1477e-41
2.58 6.21 1.4 9.1477e-41
2.62 6.21 1.39 9.1477e-41
2.66 6.21 1.39 9.1477e-41
2.7 6.21 1.4 9.1477e-41
2.74 6.21 1.38 9.1477e-41
2.79 6.21 1.4 9.1477e-41
2.83 6.21 1.4 9.1477e-41
2.87 6.21 1.4 9.1477e-41
2.91 6.21 1.4 9.1477e-41
2.95 6.21 1.41 9.1477e-41
2.99 6.21 1.4 9.1477e-41
3.03 6.21 1.4 9.1477e-41
3.07 6.21 1.41 9.1477e-41
3.11 6.21 1.4 9.1477e-41
3.15 6.21 1.4 9.1477e-41
3.19 6.21 1.4 9.1477e-41
3.21 6.21 1.34 9.1477e-41
3.42 6.21 2.18 9.1477e-41
3.41 6.21 1.97 9.1477e-41
3.41 6.21 1.78 9.1477e-41
3.41 6.21 1.58 9.1477e-41
3.41 6.21 1.36 9.1477e-41
3.39 6.21 0.94 9.1477e-41
3.41 6.21 0.8 9.1477e-41
3.4 6.21 0.41 9.1477e-41
0.94 6.48 2.17 9.1477e-41
0.95 6.48 2.12 9.1477e-41
0.95 6.48 2.05 9.1477e-41
0.95 6.48 1.99 9.1477e-41
0.94 6.48 1.91 9.1477e-41
0.94 6.48 1.85 9.1477e-41
0.94 6.48 1.78 9.1477e-41
0.93 6.48 1.7 9.1477e-41
0.94 6.48 1.63 9.1477e-41
0.93 6.48 1.55 9.1477e-41
0.94 6.48 1.48 9.1477e-41
0.95 6.48 1.42 9.1477e-41
1 6.48 1.42 9.1477e-41
1.05 6.48 1.41 9.1477e-41
1.11 6.48 1.42 9.1477e-41
1.17 6.48 1.41 9.1477e-41
1.22 6.48 1.41 9.1477e-41
1.27 6.48 1.41 9.1477e-41
1.32 6.48 1.41 9.1477e-41
1.38 6.48 1.41 9.1477e-41
1.43 6.48 1.41 9.1477e-41
1.48 6.48 1.41 9.1477e-41
1.52 6.48 1.4 9.1477e-41
1.58 6.48 1.41 9.1477e-41
1.63 6.48 1.41 9.1477e-41
1.68 6.48 1.41 9.1477e-41
1.73 6.48 1.41 9.1477e-41
1.77 6.48 1.4 9.1477e-41
1.83 6.48 1.41 9.1477e-41
1.87 6.48 1.41 9.1477e-41
1.91 6.48 1.39 9.1477e-41
1.96 6.48 1.4 9.1477e-41
2.01 6.48 1.41 9.1477e-41
2.05 6.48 1.4 9.1477e-41
2.1 6.48 1.4 9.1477e-41
2.15 6.48 1.4 9.1477e-41
2.19 6.48 1.4 9.1477e-41
2.24 6.48 1.41 9.1477e-41
2.28 6.48 1.39 9.1477e-41
2.33 6.48 1.41 9.1477e-41
2.36 6.48 1.39 9.1477e-41
2.41 6.48 1.4 9.1477e-41
2.45 6.48 1.4 9.1477e-41
2.5 6.48 1.4 9.1477e-41
2.54 6.48 1.4 9.1477e-41
2.58 6.48 1.4 9.1477e-41
2.62 6.48 1.4 9.1477e-41
2.66 6.48 1.4 9.1477e-41
2.71 6.48 1.4 9.1477e-41
2.75 6.48 1.4 9.1477e-41
2.79 6.48 1.4 9.1477e-41
2.83 6.48 1.41 9.1477e-41
2.87 6.48 1.4 9.1477e-41
2.91 6.48 1.41 9.1477e-41
2.95 6.48 1.41 9.1477e-41
2.99 6.48 1.41 9.1477e-41
3.03 6.48 1.41 9.1477e-41
3.07 6.48 1.42 9.1477e-41
3.11 6.48 1.41 9.1477e-41
3.15 6.48 1.41 9.1477e-41
3.19 6.48 1.4 9.1477e-41
3.38 6.48 2.14 9.1477e-41
3.42 6.48 2.19 9.1477e-41
3.41 6.48 1.96 9.1477e-41
3.39 6.48 1.7 9.1477e-41
3.41 6.48 1.6 9.1477e-41
3.4 6.48 1.26 9.1477e-41
0.94 6.75 2.17 9.1477e-41
0.94 6.75 2.11 9.1477e-41
0.95 6.75 2.05 9.1477e-41
0.95 6.75 1.99 9.1477e-41
0.95 6.75 1.92 9.1477e-41
0.95 6.75 1.86 9.1477e-41
0.94 6.75 1.78 9.1477e-41
0.93 6.75 1.7 9.1477e-41
0.94 6.75 1.63 9.1477e-41
0.94 6.75 1.56 9.1477e-41
0.94 6.75 1.48 9.1477e-41
0.94 6.75 1.41 9.1477e-41
1 6.75 1.42 9.1477e-41
1.06 6.75 1.42 9.1477e-41
1.11 6.75 1.42 9.1477e-41
1.17 6.75 1.41 9.1477e-41
1.22 6.75 1.41 9.1477e-41
1.27 6.75 1.41 9.1477e-41
1.32 6.75 1.41 9.1477e-41
1.38 6.75 1.41 9.1477e-41
1.43 6.75 1.42 9.1477e-41
1.48 6.75 1.41 9.1477e-41
1.53 6.75 1.41 9.1477e-41
1.58 6.75 1.4 9.1477e-41
1.63 6.75 1.41 9.1477e-41
1.68 6.75 1.41 9.1477e-41
1.73 6.75 1.41 9.1477e-41
1.78 6.75 1.41 9.1477e-41
1.83 6.75 1.41 9.1477e-41
1.87 6.75 1.41 9.1477e-41
1.92 6.75 1.42 9.1477e-41
1.96 6.75 1.4 9.1477e-41
2.01 6.75 1.4 9.1477e-41
2.06 6.75 1.41 9.1477e-41
2.1 6.75 1.4 9.1477e-41
2.15 6.75 1.41 9.1477e-41
2.2 6.75 1.41 9.1477e-41
2.24 6.75 1.4 9.1477e-41
2.28 6.75 1.4 9.1477e-41
2.33 6.75 1.41 9.1477e-41
2.37 6.75 1.41 9.1477e-41
2.41 6.75 1.4 9.1477e-41
2.46 6.75 1.41 9.1477e-41
2.5 6.75 1.41 9.1477e-41
2.54 6.75 1.41 9.1477e-41
2.58 6.75 1.4 9.1477e-41
2.63 6.75 1.41 9.1477e-41
2.66 6.75 1.4 9.1477e-41
2.71 6.75 1.4 9.1477e-41
2.75 6.75 1.4 9.1477e-41
2.79 6.75 1.41 9.1477e-41
2.83 6.75 1.4 9.1477e-41
2.87 6.75 1.41 9.1477e-41
2.91 6.75 1.41 9.1477e-41
2.95 6.75 1.42 9.1477e-41
2.99 6.75 1.41 9.1477e-41
3.03 6.75 1.41 9.1477e-41
3.07 6.75 1.41 9.1477e-41
3.11 6.75 1.41 9.1477e-41
3.15 6.75 1.41 9.1477e-41
3.19 6.75 1.4 9.1477e-41
3.38 6.75 2.15 9.1477e-41
3.42 6.75 2.19 9.1477e-41
3.4 6.75 1.93 9.1477e-41
3.39 6.75 1.68 9.1477e-41
3.41 6.75 1.59 9.1477e-41
0.94 7.02 2.17 9.1477e-41
0.95 7.02 2.12 9.1477e-41
0.94 7.02 2.04 9.1477e-41
0.95 7.02 1.99 9.1477e-41
0.94 7.02 1.91 9.1477e-41
0.94 7.02 1.85 9.1477e-41
0.95 7.02 1.79 9.1477e-41
0.93 7.02 1.7 9.1477e-41
0.94 7.02 1.63 9.1477e-41
0.94 7.02 1.56 9.1477e-41
0.94 7.02 1.49 9.1477e-41
0.94 7.02 1.41 9.1477e-41
1 7.02 1.41 9.1477e-41
1.05 7.02 1.41 9.1477e-41
1.11 7.02 1.42 9.1477e-41
1.17 7.02 1.41 9.1477e-41
1.22 7.02 1.41 9.1477e-41
1.27 7.02 1.41 9.1477e-41
1.33 7.02 1.41 9.1477e-41
1.38 7.02 1.41 9.1477e-41
1.42 7.02 1.4 9.1477e-41
1.48 7.02 1.4 9.1477e-41
1.53 7.02 1.41 9.1477e-41
1.58 7.02 1.4 9.1477e-41
1.63 7.02 1.41 9.1477e-41
1.68 7.02 1.4 9.1477e-41
1.72 7.02 1.4 9.1477e-41
1.78 7.02 1.4 9.1477e-41
1.83 7.02 1.42 9.1477e-41
1.87 7.02 1.4 9.1477e-41
1.92 7.02 1.41 9.1477e-41
1.97 7.02 1.41 9.1477e-41
2.01 7.02 1.41 9.1477e-41
2.06 7.02 1.41 9.1477e-41
2.1 7.02 1.4 9.1477e-41
2.15 7.02 1.41 9.1477e-41
2.2 7.02 1.41 9.1477e-41
2.24 7.02 1.41 9.1477e-41
2.29 7.02 1.41 9.1477e-41
2.33 7.02 1.41 9.1477e-41
2.37 7.02 1.41 9.1477e-41
2.41 7.02 1.4 9.1477e-41
2.46 7.02 1.41 9.1477e-41
2.5 7.02 1.4 9.1477e-41
2.54 7.02 1.41 9.1477e-41
2.58 7.02 1.4 9.1477e-41
2.62 7.02 1.4 9.1477e-41
2.67 7.02 1.41 9.1477e-41
2.71 7.02 1.4 9.1477e-41
2.75 7.02 1.4 9.1477e-41
2.79 7.02 1.4 9.1477e-41
2.83 7.02 1.41 9.1477e-41
2.87 7.02 1.41 9.1477e-41
2.91 7.02 1.41 9.1477e-41
2.95 7.02 1.42 9.1477e-41
2.99 7.02 1.41 9.1477e-41
3.03 7.02 1.42 9.1477e-41
3.07 7.02 1.41 9.1477e-41
3.11 7.02 1.42 9.1477e-41
3.15 7.02 1.4 9.1477e-41
3.18 7.02 1.37 9.1477e-41
3.38 7.02 2.17 9.1477e-41
3.42 7.02 2.19 9.1477e-41
3.4 7.02 1.92 9.1477e-41
3.38 7.02 1.65 9.1477e-41
3.41 7.02 1.59 9.1477e-41
0.95 7.29 2.18 9.1477e-41
0.94 7.29 2.11 9.1477e-41
0.95 7.29 2.05 9.1477e-41
0.95 7.29 1.99 9.1477e-41
0.95 7.29 1.92 9.1477e-41
0.95 7.29 1.86 9.1477e-41
0.94 7.29 1.78 9.1477e-41
0.93 7.29 1.7 9.1477e-41
0.94 7.29 1.63 9.1477e-41
0.94 7.29 1.56 9.1477e-41
0.94 7.29 1.49 9.1477e-41
0.94 7.29 1.41 9.1477e-41
1 7.29 1.42 9.1477e-41
1.06 7.29 1.42 9.1477e-41
1.11 7.29 1.42 9.1477e-41
1.17 7.29 1.41 9.1477e-41
1.22 7.29 1.41 9.1477e-41
1.27 7.29 1.41 9.1477e-41
1.33 7.29 1.41 9.1477e-41
1.38 7.29 1.42 9.1477e-41
1.43 7.29 1.42 9.1477e-41
1.48 7.29 1.4 9.1477e-41
1.53 7.29 1.41 9.1477e-41
1.58 7.29 1.41 9.1477e-41
1.63 7.29 1.41 9.1477e-41
1.68 7.29 1.41 9.1477e-41
1.73 7.29 1.42 9.1477e-41
1.78 7.29 1.41 9.1477e-41
1.83 7.29 1.41 9.1477e-41
1.87 7.29 1.41 9.1477e-41
1.92 7.29 1.41 9.1477e-41
1.97 7.29 1.42 9.1477e-41
2.02 7.29 1.41 9.1477e-41
2.06 7.29 1.41 9.1477e-41
2.1 7.29 1.41 9.1477e-41
2.15 7.29 1.42 9.1477e-41
2.2 7.29 1.42 9.1477e-41
2.24 7.29 1.41 9.1477e-41
2.28 7.29 1.4 9.1477e-41
2.33 7.29 1.42 9.1477e-41
2.38 7.29 1.42 9.1477e-41
2.41 7.29 1.4 9.1477e-41
2.46 7.29 1.41 9.1477e-41
2.5 7.29 1.41 9.1477e-41
2.54 7.29 1.4 9.1477e-41
2.58 7.29 1.4 9.1477e-41
2.62 7.29 1.4 9.1477e-41
2.67 7.29 1.42 9.1477e-41
2.71 7.29 1.41 9.1477e-41
2.75 7.29 1.4 9.1477e-41
2.79 7.29 1.41 9.1477e-41
2.83 7.29 1.41 9.1477e-41
2.87 7.29 1.42 9.1477e-41
2.91 7.29 1.42 9.1477e-41
2.95 7.29 1.41 9.1477e-41
2.99 7.29 1.41 9.1477e-41
3.03 7.29 1.42 9.1477e-41
3.07 7.29 1.41 9.1477e-41
3.11 7.29 1.42 9.1477e-41
3.15 7.29 1.41 9.1477e-41
3.18 7.29 1.36 9.1477e-41
3.38 7.29 2.17 9.1477e-41
3.42 7.29 2.18 9.1477e-41
3.4 7.29 1.93 9.1477e-41
3.38 7.29 1.64 9.1477e-41
3.41 7.29 1.59 9.1477e-41
0.94 7.56 2.17 9.1477e-41
0.94 7.56 2.11 9.1477e-41
0.95 7.56 2.05 9.1477e-41
0.95 7.56 1.99 9.1477e-41
0.95 7.56 1.92 9.1477e-41
0.94 7.56 1.85 9.1477e-41
0.95 7.56 1.79 9.1477e-41
0.93 7.56 1.7 9.1477e-41
0.94 7.56 1.63 9.1477e-41
0.94 7.56 1.57 9.1477e-41
0.94 7.56 1.48 9.1477e-41
0.94 7.56 1.41 9.1477e-41
1 7.56 1.42 9.1477e-41
1.06 7.56 1.42 9.1477e-41
1.11 7.56 1.42 9.1477e-41
1.17 7.56 1.42 9.1477e-41
1.22 7.56 1.41 9.1477e-41
1.27 7.56 1.41 9.1477e-41
1.33 7.56 1.41 9.1477e-41
1.38 7.56 1.42 9.1477e-41
1.43 7.56 1.41 9.1477e-41
1.48 7.56 1.41 9.1477e-41
1.54 7.56 1.41 9.1477e-41
1.58 7.56 1.41 9.1477e-41
1.64 7.56 1.41 9.1477e-41
1.68 7.56 1.41 9.1477e-41
1.73 7.56 1.41 9.1477e-41
1.78 7.56 1.41 9.1477e-41
1.83 7.56 1.41 9.1477e-41
1.87 7.56 1.41 9.1477e-41
1.92 7.56 1.41 9.1477e-41
1.97 7.56 1.42 9.1477e-41
2.01 7.56 1.41 9.1477e-41
2.06 7.56 1.41 9.1477e-41
2.1 7.56 1.41 9.1477e-41
2.15 7.56 1.42 9.1477e-41
2.2 7.56 1.41 9.1477e-41
2.24 7.56 1.41 9.1477e-41
2.29 7.56 1.41 9.1477e-41
2.33 7.56 1.42 9.1477e-41
2.38 7.56 1.42 9.1477e-41
2.41 7.56 1.4 9.1477e-41
2.46 7.56 1.42 9.1477e-41
2.5 7.56 1.41 9.1477e-41
2.54 7.56 1.41 9.1477e-41
2.58 7.56 1.4 9.1477e-41
2.63 7.56 1.41 9.1477e-41
2.67 7.56 1.41 9.1477e-41
2.71 7.56 1.4 9.1477e-41
2.75 7.56 1.41 9.1477e-41
2.79 7.56 1.41 9.1477e-41
2.83 7.56 1.42 9.1477e-41
2.87 7.56 1.42 9.1477e-41
2.91 7.56 1.42 9.1477e-41
2.95 7.56 1.41 9.1477e-41
2.99 7.56 1.42 9.1477e-41
3.03 7.56 1.42 9.1477e-41
3.07 7.56 1.42 9.1477e-41
3.11 7.56 1.42 9.1477e-41
3.15 7.56 1.42 9.1477e-41
3.18 7.56 1.37 9.1477e-41
3.38 7.56 2.17 9.1477e-41
3.41 7.56 2.17 9.1477e-41
3.4 7.56 1.92 9.1477e-41
3.38 7.56 1.65 9.1477e-41
3.41 7.56 1.59 9.1477e-41
0.94 7.83 2.17 9.1477e-41
0.95 7.83 2.12 9.1477e-41
0.95 7.83 2.05 9.1477e-41
0.95 7.83 1.99 9.1477e-41
0.94 7.83 1.91 9.1477e-41
0.94 7.83 1.85 9.1477e-41
0.94 7.83 1.78 9.1477e-41
0.94 7.83 1.71 9.1477e-41
0.94 7.83 1.63 9.1477e-41
0.94 7.83 1.57 9.1477e-41
0.94 7.83 1.49 9.1477e-41
0.95 7.83 1.42 9.1477e-41
1 7.83 1.41 9.1477e-41
1.06 7.83 1.42 9.1477e-41
1.11 7.83 1.42 9.1477e-41
1.17 7.83 1.42 9.1477e-41
1.23 7.83 1.42 9.1477e-41
1.28 7.83 1.42 9.1477e-41
1.33 7.83 1.42 9.1477e-41
1.38 7.83 1.42 9.1477e-41
1.43 7.83 1.41 9.1477e-41
1.49 7.83 1.42 9.1477e-41
1.54 7.83 1.41 9.1477e-41
1.59 7.83 1.42 9.1477e-41
1.64 7.83 1.41 9.1477e-41
1.69 7.83 1.42 9.1477e-41
1.73 7.83 1.42 9.1477e-41
1.78 7.83 1.41 9.1477e-41
1.83 7.83 1.42 9.1477e-41
1.87 7.83 1.41 9.1477e-41
1.92 7.83 1.42 9.1477e-41
1.97 7.83 1.42 9.1477e-41
2.02 7.83 1.42 9.1477e-41
2.06 7.83 1.41 9.1477e-41
2.11 7.83 1.42 9.1477e-41
2.15 7.83 1.42 9.1477e-41
2.2 7.83 1.42 9.1477e-41
2.24 7.83 1.42 9.1477e-41
2.29 7.83 1.42 9.1477e-41
2.33 7.83 1.42 9.1477e-41
2.38 7.83 1.42 9.1477e-41
2.42 7.83 1.42 9.1477e-41
2.46 7.83 1.42 9.1477e-41
2.5 7.83 1.41 9.1477e-41
2.55 7.83 1.43 9.1477e-41
2.59 7.83 1.41 9.1477e-41
2.63 7.83 1.42 9.1477e-41
2.67 7.83 1.42 9.1477e-41
2.71 7.83 1.41 9.1477e-41
2.75 7.83 1.41 9.1477e-41
2.79 7.83 1.42 9.1477e-41
2.83 7.83 1.42 9.1477e-41
2.87 7.83 1.42 9.1477e-41
2.92 7.83 1.43 9.1477e-41
2.96 7.83 1.42 9.1477e-41
2.99 7.83 1.42 9.1477e-41
3.04 7.83 1.43 9.1477e-41
3.07 7.83 1.42 9.1477e-41
3.11 7.83 1.42 9.1477e-41
3.15 7.83 1.42 9.1477e-41
3.33 7.83 2.09 9.1477e-41
3.39 7.83 2.2 9.1477e-41
3.4 7.83 2.1 9.1477e-41
3.4 7.83 1.92 9.1477e-41
3.38 7.83 1.63 9.1477e-41
3.41 7.83 1.57 9.1477e-41
0.92 8.1 2.21 9.1477e-41
0.92 8.1 2.15 9.1477e-41
0.91 8.1 2.08 9.1477e-41
0.92 8.1 2.02 9.1477e-41
0.92 8.1 1.96 9.1477e-41
0.91 8.1 1.88 9.1477e-41
0.91 8.1 1.82 9.1477e-41
0.92 8.1 1.76 9.1477e-41
0.91 8.1 1.68 9.1477e-41
0.92 8.1 1.62 9.1477e-41
0.93 8.1 1.55 9.1477e-41
0.95 8.1 1.5 9.1477e-41
0.95 8.1 1.42 9.1477e-41
1 8.1 1.41 9.1477e-41
1.06 8.1 1.42 9.1477e-41
1.12 8.1 1.42 9.1477e-41
1.17 8.1 1.41 9.1477e-41
1.22 8.1 1.41 9.1477e-41
1.28 8.1 1.42 9.1477e-41
1.33 8.1 1.42 9.1477e-41
1.38 8.1 1.42 9.1477e-41
1.44 8.1 1.43 9.1477e-41
1.49 8.1 1.42 9.1477e-41
1.54 8.1 1.42 9.1477e-41
1.59 8.1 1.42 9.1477e-41
1.64 8.1 1.42 9.1477e-41
1.69 8.1 1.43 9.1477e-41
1.73 8.1 1.42 9.1477e-41
1.79 8.1 1.42 9.1477e-41
1.84 8.1 1.43 9.1477e-41
1.88 8.1 1.43 9.1477e-41
1.93 8.1 1.42 9.1477e-41
1.97 8.1 1.42 9.1477e-41
2.02 8.1 1.42 9.1477e-41
2.06 8.1 1.41 9.1477e-41
2.12 8.1 1.43 9.1477e-41
2.15 8.1 1.42 9.1477e-41
2.2 8.1 1.42 9.1477e-41
2.24 8.1 1.42 9.1477e-41
2.29 8.1 1.42 9.1477e-41
2.33 8.1 1.43 9.1477e-41
2.38 8.1 1.42 9.1477e-41
2.42 8.1 1.43 9.1477e-41
2.46 8.1 1.42 9.1477e-41
2.51 8.1 1.42 9.1477e-41
2.55 8.1 1.43 9.1477e-41
2.59 8.1 1.42 9.1477e-41
2.63 8.1 1.42 9.1477e-41
2.67 8.1 1.43 9.1477e-41
2.71 8.1 1.42 9.1477e-41
2.75 8.1 1.42 9.1477e-41
2.79 8.1 1.42 9.1477e-41
2.83 8.1 1.42 9.1477e-41
2.88 8.1 1.43 9.1477e-41
2.92 8.1 1.43 9.1477e-41
2.96 8.1 1.43 9.1477e-41
3 8.1 1.42 9.1477e-41
3.04 8.1 1.43 9.1477e-41
3.07 8.1 1.43 9.1477e-41
3.11 8.1 1.42 9.1477e-41
3.15 8.1 1.43 9.1477e-41
3.18 8.1 1.36 9.1477e-41
3.38 8.1 2.18 9.1477e-41
