# .PCD v.7 - Point Cloud Data file format
VERSION .7
FIELDS x y z rgb
SIZE 4 4 4 4
TYPE F F F F
WIDTH 1870
HEIGHT 1
POINTS 1870
DATA ascii
2.58 5.24 1.4 9.1477e-41
2.62 5.24 1.4 9.1477e-41
2.67 5.24 1.41 9.1477e-41
2.71 5.24 1.4 9.1477e-41
2.75 5.24 1.41 9.1477e-41
2.79 5.24 1.42 9.1477e-41
2.83 5.24 1.41 9.1477e-41
2.87 5.24 1.4 9.1477e-41
2.91 5.24 1.41 9.1477e-41
2.95 5.24 1.42 9.1477e-41
2.99 5.24 1.41 9.1477e-41
3.2 5.24 2.08 9.1477e-41
3.26 5.24 2.18 9.1477e-41
3.27 5.24 2.09 9.1477e-41
3.26 5.24 1.93 9.1477e-41
3.25 5.24 1.69 9.1477e-41
3.27 5.24 1.61 9.1477e-41
0.8 5.26 2.21 9.1477e-41
0.81 5.26 2.15 9.1477e-41
0.81 5.26 2.09 9.1477e-41
0.81 5.26 2.03 9.1477e-41
0.82 5.26 1.97 9.1477e-41
0.81 5.26 1.9 9.1477e-41
0.81 5.26 1.83 9.1477e-41
0.8 5.26 1.75 9.1477e-41
0.81 5.26 1.69 9.1477e-41
0.8 5.26 1.61 9.1477e-41
0.8 5.26 1.54 9.1477e-41
0.81 5.26 1.47 9.1477e-41
0.82 5.26 1.41 9.1477e-41
0.89 5.26 1.42 9.1477e-41
0.94 5.26 1.41 9.1477e-41
1 5.26 1.41 9.1477e-41
1.05 5.26 1.41 9.1477e-41
1.11 5.26 1.42 9.1477e-41
1.16 5.26 1.41 9.1477e-41
1.22 5.26 1.41 9.1477e-41
1.27 5.26 1.41 9.1477e-41
1.33 5.26 1.41 9.1477e-41
1.37 5.26 1.4 9.1477e-41
1.43 5.26 1.41 9.1477e-41
1.48 5.26 1.4 9.1477e-41
1.53 5.26 1.41 9.1477e-41
1.58 5.26 1.41 9.1477e-41
1.63 5.26 1.41 9.1477e-41
1.68 5.26 1.41 9.1477e-41
1.73 5.26 1.41 9.1477e-41
1.78 5.26 1.41 9.1477e-41
1.82 5.26 1.4 9.1477e-41
1.87 5.26 1.41 9.1477e-41
1.92 5.26 1.42 9.1477e-41
1.97 5.26 1.41 9.1477e-41
2.01 5.26 1.41 9.1477e-41
2.05 5.26 1.4 9.1477e-41
2.11 5.26 1.42 9.1477e-41
2.15 5.26 1.41 9.1477e-41
2.2 5.26 1.42 9.1477e-41
2.24 5.26 1.4 9.1477e-41
2.29 5.26 1.41 9.1477e-41
2.33 5.26 1.41 9.1477e-41
2.37 5.26 1.4 9.1477e-41
2.42 5.26 1.41 9.1477e-41
2.46 5.26 1.41 9.1477e-41
2.5 5.26 1.4 9.1477e-41
2.54 5.26 1.4 9.1477e-41
2.58 5.26 1.4 9.1477e-41
2.63 5.26 1.41 9.1477e-41
2.67 5.26 1.41 9.1477e-41
2.71 5.26 1.41 9.1477e-41
2.75 5.26 1.41 9.1477e-41
2.79 5.26 1.41 9.1477e-41
2.83 5.26 1.41 9.1477e-41
2.87 5.26 1.41 9.1477e-41
2.91 5.26 1.41 9.1477e-41
2.95 5.26 1.41 9.1477e-41
2.99 5.26 1.42 9.1477e-41
3.2 5.26 2.08 9.1477e-41
3.25 5.26 2.17 9.1477e-41
3.27 5.26 2.12 9.1477e-41
3.27 5.26 1.95 9.1477e-41
3.25 5.26 1.69 9.1477e-41
3.27 5.26 1.61 9.1477e-41
0.8 5.28 2.21 9.1477e-41
0.81 5.28 2.15 9.1477e-41
0.81 5.28 2.09 9.1477e-41
0.81 5.28 2.03 9.1477e-41
0.82 5.28 1.97 9.1477e-41
0.81 5.28 1.89 9.1477e-41
0.8 5.28 1.82 9.1477e-41
0.8 5.28 1.75 9.1477e-41
0.81 5.28 1.69 9.1477e-41
0.8 5.28 1.61 9.1477e-41
0.8 5.28 1.54 9.1477e-41
0.8 5.28 1.46 9.1477e-41
0.83 5.28 1.41 9.1477e-41
0.88 5.28 1.41 9.1477e-41
0.94 5.28 1.41 9.1477e-41
1 5.28 1.41 9.1477e-41
1.05 5.28 1.41 9.1477e-41
1.11 5.28 1.41 9.1477e-41
1.17 5.28 1.41 9.1477e-41
1.22 5.28 1.41 9.1477e-41
1.27 5.28 1.41 9.1477e-41
1.32 5.28 1.41 9.1477e-41
1.38 5.28 1.41 9.1477e-41
1.43 5.28 1.41 9.1477e-41
1.48 5.28 1.41 9.1477e-41
1.53 5.28 1.41 9.1477e-41
1.58 5.28 1.41 9.1477e-41
1.64 5.28 1.41 9.1477e-41
1.68 5.28 1.41 9.1477e-41
1.73 5.28 1.41 9.1477e-41
1.78 5.28 1.4 9.1477e-41
1.83 5.28 1.41 9.1477e-41
1.87 5.28 1.41 9.1477e-41
1.92 5.28 1.42 9.1477e-41
1.97 5.28 1.42 9.1477e-41
2.01 5.28 1.41 9.1477e-41
2.06 5.28 1.41 9.1477e-41
2.1 5.28 1.41 9.1477e-41
2.15 5.28 1.41 9.1477e-41
2.2 5.28 1.41 9.1477e-41
2.24 5.28 1.41 9.1477e-41
2.29 5.28 1.41 9.1477e-41
2.33 5.28 1.41 9.1477e-41
2.38 5.28 1.42 9.1477e-41
2.41 5.28 1.4 9.1477e-41
2.46 5.28 1.41 9.1477e-41
2.5 5.28 1.4 9.1477e-41
2.54 5.28 1.41 9.1477e-41
2.58 5.28 1.4 9.1477e-41
2.62 5.28 1.4 9.1477e-41
2.67 5.28 1.41 9.1477e-41
2.71 5.28 1.4 9.1477e-41
2.75 5.28 1.42 9.1477e-41
2.79 5.28 1.4 9.1477e-41
2.83 5.28 1.41 9.1477e-41
2.87 5.28 1.42 9.1477e-41
2.91 5.28 1.42 9.1477e-41
2.95 5.28 1.42 9.1477e-41
2.99 5.28 1.41 9.1477e-41
3.2 5.28 2.08 9.1477e-41
3.26 5.28 2.18 9.1477e-41
3.26 5.28 2.08 9.1477e-41
3.27 5.28 1.94 9.1477e-41
3.25 5.28 1.68 9.1477e-41
3.27 5.28 1.61 9.1477e-41
0.8 5.3 2.21 9.1477e-41
0.81 5.3 2.15 9.1477e-41
0.81 5.3 2.09 9.1477e-41
0.82 5.3 2.03 9.1477e-41
0.81 5.3 1.96 9.1477e-41
0.81 5.3 1.89 9.1477e-41
0.8 5.3 1.82 9.1477e-41
0.81 5.3 1.76 9.1477e-41
0.8 5.3 1.68 9.1477e-41
0.8 5.3 1.61 9.1477e-41
0.8 5.3 1.54 9.1477e-41
0.8 5.3 1.46 9.1477e-41
0.83 5.3 1.41 9.1477e-41
0.89 5.3 1.42 9.1477e-41
0.94 5.3 1.41 9.1477e-41
1 5.3 1.42 9.1477e-41
1.05 5.3 1.41 9.1477e-41
1.11 5.3 1.42 9.1477e-41
1.17 5.3 1.42 9.1477e-41
1.22 5.3 1.41 9.1477e-41
1.27 5.3 1.41 9.1477e-41
1.33 5.3 1.41 9.1477e-41
1.38 5.3 1.42 9.1477e-41
1.43 5.3 1.41 9.1477e-41
1.48 5.3 1.41 9.1477e-41
1.53 5.3 1.41 9.1477e-41
1.58 5.3 1.41 9.1477e-41
1.64 5.3 1.41 9.1477e-41
1.68 5.3 1.41 9.1477e-41
1.73 5.3 1.41 9.1477e-41
1.78 5.3 1.41 9.1477e-41
1.83 5.3 1.41 9.1477e-41
1.87 5.3 1.41 9.1477e-41
1.92 5.3 1.4 9.1477e-41
1.97 5.3 1.41 9.1477e-41
2.02 5.3 1.41 9.1477e-41
2.06 5.3 1.41 9.1477e-41
2.1 5.3 1.41 9.1477e-41
2.15 5.3 1.41 9.1477e-41
2.2 5.3 1.41 9.1477e-41
2.24 5.3 1.41 9.1477e-41
2.29 5.3 1.41 9.1477e-41
2.33 5.3 1.41 9.1477e-41
2.37 5.3 1.41 9.1477e-41
2.42 5.3 1.41 9.1477e-41
2.46 5.3 1.41 9.1477e-41
2.5 5.3 1.41 9.1477e-41
2.54 5.3 1.41 9.1477e-41
2.58 5.3 1.4 9.1477e-41
2.62 5.3 1.4 9.1477e-41
2.67 5.3 1.41 9.1477e-41
2.71 5.3 1.41 9.1477e-41
2.75 5.3 1.41 9.1477e-41
2.79 5.3 1.41 9.1477e-41
2.83 5.3 1.42 9.1477e-41
2.87 5.3 1.42 9.1477e-41
2.91 5.3 1.42 9.1477e-41
2.95 5.3 1.42 9.1477e-41
2.99 5.3 1.42 9.1477e-41
3.2 5.3 2.08 9.1477e-41
3.26 5.3 2.2 9.1477e-41
3.26 5.3 2.08 9.1477e-41
3.26 5.3 1.93 9.1477e-41
3.24 5.3 1.66 9.1477e-41
3.27 5.3 1.62 9.1477e-41
0.8 5.32 2.2 9.1477e-41
0.81 5.32 2.16 9.1477e-41
0.81 5.32 2.09 9.1477e-41
0.81 5.32 2.03 9.1477e-41
0.81 5.32 1.96 9.1477e-41
0.81 5.32 1.89 9.1477e-41
0.81 5.32 1.83 9.1477e-41
0.8 5.32 1.75 9.1477e-41
0.8 5.32 1.68 9.1477e-41
0.8 5.32 1.61 9.1477e-41
0.8 5.32 1.54 9.1477e-41
0.8 5.32 1.46 9.1477e-41
0.83 5.32 1.42 9.1477e-41
0.88 5.32 1.41 9.1477e-41
0.94 5.32 1.41 9.1477e-41
1 5.32 1.41 9.1477e-41
1.05 5.32 1.41 9.1477e-41
1.11 5.32 1.41 9.1477e-41
1.16 5.32 1.41 9.1477e-41
1.22 5.32 1.41 9.1477e-41
1.27 5.32 1.41 9.1477e-41
1.33 5.32 1.41 9.1477e-41
1.38 5.32 1.41 9.1477e-41
1.42 5.32 1.4 9.1477e-41
1.48 5.32 1.41 9.1477e-41
1.53 5.32 1.41 9.1477e-41
1.58 5.32 1.41 9.1477e-41
1.63 5.32 1.41 9.1477e-41
1.69 5.32 1.42 9.1477e-41
1.73 5.32 1.41 9.1477e-41
1.78 5.32 1.41 9.1477e-41
1.83 5.32 1.41 9.1477e-41
1.87 5.32 1.41 9.1477e-41
1.92 5.32 1.41 9.1477e-41
1.97 5.32 1.42 9.1477e-41
2.01 5.32 1.41 9.1477e-41
2.06 5.32 1.41 9.1477e-41
2.1 5.32 1.41 9.1477e-41
2.15 5.32 1.41 9.1477e-41
2.2 5.32 1.42 9.1477e-41
2.24 5.32 1.4 9.1477e-41
2.28 5.32 1.4 9.1477e-41
2.33 5.32 1.42 9.1477e-41
2.37 5.32 1.41 9.1477e-41
2.41 5.32 1.4 9.1477e-41
2.46 5.32 1.41 9.1477e-41
2.5 5.32 1.4 9.1477e-41
2.55 5.32 1.42 9.1477e-41
2.59 5.32 1.41 9.1477e-41
2.63 5.32 1.41 9.1477e-41
2.66 5.32 1.4 9.1477e-41
2.71 5.32 1.41 9.1477e-41
2.75 5.32 1.41 9.1477e-41
2.79 5.32 1.41 9.1477e-41
2.83 5.32 1.42 9.1477e-41
2.87 5.32 1.42 9.1477e-41
2.91 5.32 1.42 9.1477e-41
2.95 5.32 1.41 9.1477e-41
2.99 5.32 1.42 9.1477e-41
3.2 5.32 2.08 9.1477e-41
3.26 5.32 2.2 9.1477e-41
3.27 5.32 2.09 9.1477e-41
3.26 5.32 1.93 9.1477e-41
3.25 5.32 1.68 9.1477e-41
3.27 5.32 1.6 9.1477e-41
0.81 5.34 2.21 9.1477e-41
0.81 5.34 2.15 9.1477e-41
0.81 5.34 2.09 9.1477e-41
0.81 5.34 2.03 9.1477e-41
0.81 5.34 1.96 9.1477e-41
0.8 5.34 1.89 9.1477e-41
0.81 5.34 1.83 9.1477e-41
0.8 5.34 1.75 9.1477e-41
0.8 5.34 1.68 9.1477e-41
0.8 5.34 1.61 9.1477e-41
0.8 5.34 1.53 9.1477e-41
0.8 5.34 1.46 9.1477e-41
0.82 5.34 1.41 9.1477e-41
0.88 5.34 1.41 9.1477e-41
0.94 5.34 1.41 9.1477e-41
1 5.34 1.41 9.1477e-41
1.05 5.34 1.41 9.1477e-41
1.11 5.34 1.42 9.1477e-41
1.17 5.34 1.42 9.1477e-41
1.22 5.34 1.41 9.1477e-41
1.27 5.34 1.41 9.1477e-41
1.33 5.34 1.41 9.1477e-41
1.37 5.34 1.4 9.1477e-41
1.43 5.34 1.41 9.1477e-41
1.48 5.34 1.41 9.1477e-41
1.54 5.34 1.41 9.1477e-41
1.58 5.34 1.41 9.1477e-41
1.64 5.34 1.41 9.1477e-41
1.69 5.34 1.42 9.1477e-41
1.73 5.34 1.42 9.1477e-41
1.78 5.34 1.41 9.1477e-41
1.83 5.34 1.41 9.1477e-41
1.88 5.34 1.42 9.1477e-41
1.92 5.34 1.42 9.1477e-41
1.97 5.34 1.41 9.1477e-41
2.02 5.34 1.41 9.1477e-41
2.06 5.34 1.41 9.1477e-41
2.1 5.34 1.41 9.1477e-41
2.15 5.34 1.41 9.1477e-41
2.2 5.34 1.43 9.1477e-41
2.24 5.34 1.41 9.1477e-41
2.29 5.34 1.41 9.1477e-41
2.33 5.34 1.42 9.1477e-41
2.37 5.34 1.41 9.1477e-41
2.41 5.34 1.4 9.1477e-41
2.46 5.34 1.41 9.1477e-41
2.51 5.34 1.42 9.1477e-41
2.54 5.34 1.41 9.1477e-41
2.59 5.34 1.41 9.1477e-41
2.63 5.34 1.41 9.1477e-41
2.67 5.34 1.41 9.1477e-41
2.71 5.34 1.41 9.1477e-41
2.75 5.34 1.41 9.1477e-41
2.79 5.34 1.41 9.1477e-41
2.83 5.34 1.41 9.1477e-41
2.87 5.34 1.42 9.1477e-41
2.91 5.34 1.41 9.1477e-41
2.96 5.34 1.42 9.1477e-41
2.99 5.34 1.42 9.1477e-41
3.2 5.34 2.09 9.1477e-41
3.26 5.34 2.19 9.1477e-41
3.26 5.34 2.07 9.1477e-41
3.26 5.34 1.93 9.1477e-41
3.24 5.34 1.67 9.1477e-41
3.27 5.34 1.61 9.1477e-41
0.8 5.36 2.21 9.1477e-41
0.81 5.36 2.15 9.1477e-41
0.81 5.36 2.09 9.1477e-41
0.8 5.36 2.02 9.1477e-41
0.81 5.36 1.96 9.1477e-41
0.81 5.36 1.89 9.1477e-41
0.81 5.36 1.83 9.1477e-41
0.8 5.36 1.75 9.1477e-41
0.8 5.36 1.68 9.1477e-41
0.8 5.36 1.61 9.1477e-41
0.8 5.36 1.54 9.1477e-41
0.81 5.36 1.47 9.1477e-41
0.83 5.36 1.41 9.1477e-41
0.88 5.36 1.41 9.1477e-41
0.94 5.36 1.41 9.1477e-41
1 5.36 1.41 9.1477e-41
1.06 5.36 1.42 9.1477e-41
1.11 5.36 1.42 9.1477e-41
1.17 5.36 1.41 9.1477e-41
1.23 5.36 1.42 9.1477e-41
1.27 5.36 1.41 9.1477e-41
1.33 5.36 1.41 9.1477e-41
1.38 5.36 1.42 9.1477e-41
1.43 5.36 1.41 9.1477e-41
1.48 5.36 1.41 9.1477e-41
1.54 5.36 1.41 9.1477e-41
1.59 5.36 1.42 9.1477e-41
1.63 5.36 1.41 9.1477e-41
1.69 5.36 1.42 9.1477e-41
1.73 5.36 1.41 9.1477e-41
1.78 5.36 1.41 9.1477e-41
1.83 5.36 1.41 9.1477e-41
1.87 5.36 1.41 9.1477e-41
1.92 5.36 1.41 9.1477e-41
1.97 5.36 1.42 9.1477e-41
2.01 5.36 1.41 9.1477e-41
2.06 5.36 1.41 9.1477e-41
2.11 5.36 1.42 9.1477e-41
2.15 5.36 1.41 9.1477e-41
2.2 5.36 1.42 9.1477e-41
2.24 5.36 1.41 9.1477e-41
2.29 5.36 1.41 9.1477e-41
2.33 5.36 1.41 9.1477e-41
2.37 5.36 1.41 9.1477e-41
2.42 5.36 1.41 9.1477e-41
2.46 5.36 1.42 9.1477e-41
2.51 5.36 1.42 9.1477e-41
2.54 5.36 1.41 9.1477e-41
2.59 5.36 1.41 9.1477e-41
2.62 5.36 1.4 9.1477e-41
2.67 5.36 1.42 9.1477e-41
2.71 5.36 1.4 9.1477e-41
2.75 5.36 1.41 9.1477e-41
2.79 5.36 1.4 9.1477e-41
2.83 5.36 1.41 9.1477e-41
2.87 5.36 1.41 9.1477e-41
2.91 5.36 1.42 9.1477e-41
2.95 5.36 1.42 9.1477e-41
2.99 5.36 1.42 9.1477e-41
3.2 5.36 2.09 9.1477e-41
3.26 5.36 2.19 9.1477e-41
3.26 5.36 2.07 9.1477e-41
3.26 5.36 1.92 9.1477e-41
3.24 5.36 1.67 9.1477e-41
3.27 5.36 1.6 9.1477e-41
0.8 5.38 2.2 9.1477e-41
0.81 5.38 2.16 9.1477e-41
0.81 5.38 2.09 9.1477e-41
0.81 5.38 2.03 9.1477e-41
0.81 5.38 1.96 9.1477e-41
0.81 5.38 1.89 9.1477e-41
0.81 5.38 1.83 9.1477e-41
0.8 5.38 1.75 9.1477e-41
0.8 5.38 1.68 9.1477e-41
0.8 5.38 1.61 9.1477e-41
0.8 5.38 1.54 9.1477e-41
0.81 5.38 1.47 9.1477e-41
0.83 5.38 1.42 9.1477e-41
0.89 5.38 1.42 9.1477e-41
0.94 5.38 1.41 9.1477e-41
1 5.38 1.42 9.1477e-41
1.05 5.38 1.41 9.1477e-41
1.11 5.38 1.42 9.1477e-41
1.17 5.38 1.41 9.1477e-41
1.22 5.38 1.41 9.1477e-41
1.27 5.38 1.41 9.1477e-41
1.33 5.38 1.41 9.1477e-41
1.38 5.38 1.42 9.1477e-41
1.43 5.38 1.42 9.1477e-41
1.48 5.38 1.41 9.1477e-41
1.53 5.38 1.41 9.1477e-41
1.58 5.38 1.41 9.1477e-41
1.64 5.38 1.41 9.1477e-41
1.69 5.38 1.42 9.1477e-41
1.73 5.38 1.42 9.1477e-41
1.78 5.38 1.4 9.1477e-41
1.83 5.38 1.41 9.1477e-41
1.87 5.38 1.41 9.1477e-41
1.92 5.38 1.42 9.1477e-41
1.97 5.38 1.41 9.1477e-41
2.02 5.38 1.41 9.1477e-41
2.06 5.38 1.41 9.1477e-41
2.11 5.38 1.42 9.1477e-41
2.15 5.38 1.41 9.1477e-41
2.2 5.38 1.42 9.1477e-41
2.24 5.38 1.41 9.1477e-41
2.29 5.38 1.41 9.1477e-41
2.33 5.38 1.41 9.1477e-41
2.37 5.38 1.41 9.1477e-41
2.42 5.38 1.41 9.1477e-41
2.46 5.38 1.42 9.1477e-41
2.5 5.38 1.41 9.1477e-41
2.54 5.38 1.41 9.1477e-41
2.59 5.38 1.41 9.1477e-41
2.63 5.38 1.41 9.1477e-41
2.67 5.38 1.42 9.1477e-41
2.71 5.38 1.41 9.1477e-41
2.75 5.38 1.41 9.1477e-41
2.79 5.38 1.42 9.1477e-41
2.83 5.38 1.41 9.1477e-41
2.88 5.38 1.43 9.1477e-41
2.91 5.38 1.42 9.1477e-41
2.95 5.38 1.42 9.1477e-41
2.99 5.38 1.41 9.1477e-41
3.2 5.38 2.1 9.1477e-41
3.26 5.38 2.19 9.1477e-41
3.26 5.38 2.06 9.1477e-41
3.27 5.38 1.94 9.1477e-41
3.24 5.38 1.66 9.1477e-41
3.27 5.38 1.61 9.1477e-41
0.8 5.4 2.2 9.1477e-41
0.81 5.4 2.15 9.1477e-41
0.81 5.4 2.09 9.1477e-41
0.81 5.4 2.03 9.1477e-41
0.81 5.4 1.96 9.1477e-41
0.81 5.4 1.89 9.1477e-41
0.81 5.4 1.83 9.1477e-41
0.8 5.4 1.75 9.1477e-41
0.8 5.4 1.68 9.1477e-41
0.8 5.4 1.61 9.1477e-41
0.8 5.4 1.54 9.1477e-41
0.8 5.4 1.46 9.1477e-41
0.83 5.4 1.41 9.1477e-41
0.89 5.4 1.42 9.1477e-41
0.94 5.4 1.41 9.1477e-41
1 5.4 1.42 9.1477e-41
1.05 5.4 1.41 9.1477e-41
1.11 5.4 1.42 9.1477e-41
1.17 5.4 1.41 9.1477e-41
1.22 5.4 1.41 9.1477e-41
1.27 5.4 1.41 9.1477e-41
1.32 5.4 1.41 9.1477e-41
1.38 5.4 1.41 9.1477e-41
1.43 5.4 1.41 9.1477e-41
1.48 5.4 1.41 9.1477e-41
1.54 5.4 1.41 9.1477e-41
1.58 5.4 1.41 9.1477e-41
1.64 5.4 1.41 9.1477e-41
1.68 5.4 1.41 9.1477e-41
1.73 5.4 1.41 9.1477e-41
1.78 5.4 1.41 9.1477e-41
1.82 5.4 1.4 9.1477e-41
1.88 5.4 1.42 9.1477e-41
1.92 5.4 1.41 9.1477e-41
1.97 5.4 1.42 9.1477e-41
2.02 5.4 1.41 9.1477e-41
2.06 5.4 1.41 9.1477e-41
2.11 5.4 1.42 9.1477e-41
2.15 5.4 1.41 9.1477e-41
2.2 5.4 1.42 9.1477e-41
2.24 5.4 1.4 9.1477e-41
2.29 5.4 1.42 9.1477e-41
2.33 5.4 1.42 9.1477e-41
2.37 5.4 1.4 9.1477e-41
2.42 5.4 1.41 9.1477e-41
2.46 5.4 1.41 9.1477e-41
2.5 5.4 1.41 9.1477e-41
2.54 5.4 1.41 9.1477e-41
2.58 5.4 1.4 9.1477e-41
2.62 5.4 1.4 9.1477e-41
2.67 5.4 1.41 9.1477e-41
2.71 5.4 1.41 9.1477e-41
2.75 5.4 1.41 9.1477e-41
2.79 5.4 1.42 9.1477e-41
2.83 5.4 1.41 9.1477e-41
2.87 5.4 1.42 9.1477e-41
2.92 5.4 1.43 9.1477e-41
2.95 5.4 1.42 9.1477e-41
3 5.4 1.42 9.1477e-41
3.2 5.4 2.1 9.1477e-41
3.26 5.4 2.2 9.1477e-41
3.26 5.4 2.06 9.1477e-41
3.26 5.4 1.93 9.1477e-41
3.24 5.4 1.67 9.1477e-41
3.27 5.4 1.61 9.1477e-41
0.8 5.42 2.21 9.1477e-41
0.81 5.42 2.16 9.1477e-41
0.81 5.42 2.09 9.1477e-41
0.81 5.42 2.03 9.1477e-41
0.81 5.42 1.96 9.1477e-41
0.81 5.42 1.89 9.1477e-41
0.81 5.42 1.83 9.1477e-41
0.8 5.42 1.75 9.1477e-41
0.81 5.42 1.69 9.1477e-41
0.8 5.42 1.61 9.1477e-41
0.8 5.42 1.53 9.1477e-41
0.81 5.42 1.47 9.1477e-41
0.83 5.42 1.41 9.1477e-41
0.89 5.42 1.42 9.1477e-41
0.94 5.42 1.41 9.1477e-41
1 5.42 1.41 9.1477e-41
1.06 5.42 1.42 9.1477e-41
1.11 5.42 1.42 9.1477e-41
1.16 5.42 1.41 9.1477e-41
1.22 5.42 1.41 9.1477e-41
1.27 5.42 1.41 9.1477e-41
1.33 5.42 1.41 9.1477e-41
1.38 5.42 1.41 9.1477e-41
1.43 5.42 1.41 9.1477e-41
1.48 5.42 1.41 9.1477e-41
1.54 5.42 1.41 9.1477e-41
1.58 5.42 1.41 9.1477e-41
1.64 5.42 1.41 9.1477e-41
1.69 5.42 1.42 9.1477e-41
1.73 5.42 1.41 9.1477e-41
1.78 5.42 1.41 9.1477e-41
1.83 5.42 1.41 9.1477e-41
1.87 5.42 1.41 9.1477e-41
1.92 5.42 1.42 9.1477e-41
1.97 5.42 1.42 9.1477e-41
2.02 5.42 1.41 9.1477e-41
2.06 5.42 1.41 9.1477e-41
2.11 5.42 1.42 9.1477e-41
2.15 5.42 1.42 9.1477e-41
2.2 5.42 1.42 9.1477e-41
2.24 5.42 1.41 9.1477e-41
2.29 5.42 1.41 9.1477e-41
2.33 5.42 1.41 9.1477e-41
2.37 5.42 1.4 9.1477e-41
2.42 5.42 1.41 9.1477e-41
2.46 5.42 1.41 9.1477e-41
2.5 5.42 1.41 9.1477e-41
2.54 5.42 1.41 9.1477e-41
2.59 5.42 1.41 9.1477e-41
2.63 5.42 1.41 9.1477e-41
2.67 5.42 1.41 9.1477e-41
2.71 5.42 1.41 9.1477e-41
2.75 5.42 1.41 9.1477e-41
2.79 5.42 1.41 9.1477e-41
2.83 5.42 1.41 9.1477e-41
2.87 5.42 1.41 9.1477e-41
2.91 5.42 1.42 9.1477e-41
2.95 5.42 1.42 9.1477e-41
2.99 5.42 1.42 9.1477e-41
3.21 5.42 2.11 9.1477e-41
3.26 5.42 2.19 9.1477e-41
3.26 5.42 2.06 9.1477e-41
3.26 5.42 1.93 9.1477e-41
3.24 5.42 1.67 9.1477e-41
3.27 5.42 1.61 9.1477e-41
0.8 5.44 2.2 9.1477e-41
0.81 5.44 2.15 9.1477e-41
0.81 5.44 2.09 9.1477e-41
0.81 5.44 2.03 9.1477e-41
0.81 5.44 1.96 9.1477e-41
0.81 5.44 1.89 9.1477e-41
0.81 5.44 1.83 9.1477e-41
0.81 5.44 1.76 9.1477e-41
0.8 5.44 1.68 9.1477e-41
0.8 5.44 1.61 9.1477e-41
0.8 5.44 1.53 9.1477e-41
0.8 5.44 1.46 9.1477e-41
0.83 5.44 1.41 9.1477e-41
0.89 5.44 1.42 9.1477e-41
0.94 5.44 1.41 9.1477e-41
1 5.44 1.42 9.1477e-41
1.06 5.44 1.42 9.1477e-41
1.11 5.44 1.42 9.1477e-41
1.17 5.44 1.41 9.1477e-41
1.22 5.44 1.41 9.1477e-41
1.27 5.44 1.41 9.1477e-41
1.33 5.44 1.41 9.1477e-41
1.38 5.44 1.41 9.1477e-41
1.43 5.44 1.42 9.1477e-41
1.49 5.44 1.42 9.1477e-41
1.54 5.44 1.41 9.1477e-41
1.59 5.44 1.42 9.1477e-41
1.64 5.44 1.41 9.1477e-41
1.69 5.44 1.42 9.1477e-41
1.73 5.44 1.42 9.1477e-41
1.79 5.44 1.42 9.1477e-41
1.83 5.44 1.41 9.1477e-41
1.88 5.44 1.42 9.1477e-41
1.92 5.44 1.42 9.1477e-41
1.97 5.44 1.42 9.1477e-41
2.02 5.44 1.41 9.1477e-41
2.06 5.44 1.41 9.1477e-41
2.11 5.44 1.42 9.1477e-41
2.15 5.44 1.42 9.1477e-41
2.2 5.44 1.42 9.1477e-41
2.24 5.44 1.42 9.1477e-41
2.28 5.44 1.4 9.1477e-41
2.33 5.44 1.42 9.1477e-41
2.37 5.44 1.41 9.1477e-41
2.42 5.44 1.41 9.1477e-41
2.45 5.44 1.4 9.1477e-41
2.5 5.44 1.41 9.1477e-41
2.54 5.44 1.41 9.1477e-41
2.58 5.44 1.4 9.1477e-41
2.63 5.44 1.41 9.1477e-41
2.66 5.44 1.4 9.1477e-41
2.71 5.44 1.41 9.1477e-41
2.75 5.44 1.41 9.1477e-41
2.79 5.44 1.41 9.1477e-41
2.83 5.44 1.41 9.1477e-41
2.88 5.44 1.43 9.1477e-41
2.91 5.44 1.42 9.1477e-41
2.95 5.44 1.42 9.1477e-41
2.99 5.44 1.42 9.1477e-41
3.21 5.44 2.11 9.1477e-41
3.26 5.44 2.2 9.1477e-41
3.26 5.44 2.07 9.1477e-41
3.26 5.44 1.93 9.1477e-41
3.24 5.44 1.66 9.1477e-41
3.27 5.44 1.61 9.1477e-41
0.8 5.46 2.2 9.1477e-41
0.81 5.46 2.15 9.1477e-41
0.81 5.46 2.09 9.1477e-41
0.81 5.46 2.03 9.1477e-41
0.82 5.46 1.97 9.1477e-41
0.81 5.46 1.89 9.1477e-41
0.81 5.46 1.83 9.1477e-41
0.8 5.46 1.75 9.1477e-41
0.8 5.46 1.68 9.1477e-41
0.8 5.46 1.6 9.1477e-41
0.8 5.46 1.54 9.1477e-41
0.8 5.46 1.46 9.1477e-41
0.83 5.46 1.41 9.1477e-41
0.89 5.46 1.42 9.1477e-41
0.94 5.46 1.41 9.1477e-41
1 5.46 1.41 9.1477e-41
1.05 5.46 1.41 9.1477e-41
1.11 5.46 1.42 9.1477e-41
1.17 5.46 1.41 9.1477e-41
1.22 5.46 1.41 9.1477e-41
1.27 5.46 1.41 9.1477e-41
1.32 5.46 1.41 9.1477e-41
1.38 5.46 1.42 9.1477e-41
1.43 5.46 1.41 9.1477e-41
1.48 5.46 1.4 9.1477e-41
1.54 5.46 1.41 9.1477e-41
1.58 5.46 1.41 9.1477e-41
1.64 5.46 1.41 9.1477e-41
1.68 5.46 1.41 9.1477e-41
1.73 5.46 1.42 9.1477e-41
1.78 5.46 1.41 9.1477e-41
1.83 5.46 1.41 9.1477e-41
1.88 5.46 1.42 9.1477e-41
1.92 5.46 1.42 9.1477e-41
1.97 5.46 1.42 9.1477e-41
2.02 5.46 1.41 9.1477e-41
2.06 5.46 1.41 9.1477e-41
2.1 5.46 1.41 9.1477e-41
2.15 5.46 1.42 9.1477e-41
2.2 5.46 1.42 9.1477e-41
2.24 5.46 1.42 9.1477e-41
2.29 5.46 1.42 9.1477e-41
2.33 5.46 1.42 9.1477e-41
2.38 5.46 1.42 9.1477e-41
2.41 5.46 1.4 9.1477e-41
2.46 5.46 1.42 9.1477e-41
2.5 5.46 1.41 9.1477e-41
2.54 5.46 1.41 9.1477e-41
2.59 5.46 1.41 9.1477e-41
2.63 5.46 1.41 9.1477e-41
2.67 5.46 1.41 9.1477e-41
2.71 5.46 1.41 9.1477e-41
2.75 5.46 1.41 9.1477e-41
2.79 5.46 1.41 9.1477e-41
2.83 5.46 1.41 9.1477e-41
2.87 5.46 1.42 9.1477e-41
2.92 5.46 1.43 9.1477e-41
2.95 5.46 1.42 9.1477e-41
2.99 5.46 1.42 9.1477e-41
3.21 5.46 2.11 9.1477e-41
3.26 5.46 2.21 9.1477e-41
3.26 5.46 2.07 9.1477e-41
3.26 5.46 1.93 9.1477e-41
3.24 5.46 1.67 9.1477e-41
3.27 5.46 1.61 9.1477e-41
0.8 5.48 2.2 9.1477e-41
0.81 5.48 2.15 9.1477e-41
0.81 5.48 2.09 9.1477e-41
0.8 5.48 2.02 9.1477e-41
0.81 5.48 1.96 9.1477e-41
0.81 5.48 1.9 9.1477e-41
0.8 5.48 1.82 9.1477e-41
0.8 5.48 1.75 9.1477e-41
0.8 5.48 1.68 9.1477e-41
0.8 5.48 1.61 9.1477e-41
0.8 5.48 1.54 9.1477e-41
0.81 5.48 1.47 9.1477e-41
0.83 5.48 1.41 9.1477e-41
0.89 5.48 1.42 9.1477e-41
0.94 5.48 1.41 9.1477e-41
1 5.48 1.42 9.1477e-41
1.06 5.48 1.42 9.1477e-41
1.11 5.48 1.42 9.1477e-41
1.17 5.48 1.42 9.1477e-41
1.22 5.48 1.41 9.1477e-41
1.27 5.48 1.41 9.1477e-41
1.33 5.48 1.42 9.1477e-41
1.38 5.48 1.42 9.1477e-41
1.43 5.48 1.41 9.1477e-41
1.48 5.48 1.41 9.1477e-41
1.54 5.48 1.41 9.1477e-41
1.58 5.48 1.41 9.1477e-41
1.64 5.48 1.41 9.1477e-41
1.69 5.48 1.42 9.1477e-41
1.73 5.48 1.42 9.1477e-41
1.78 5.48 1.41 9.1477e-41
1.83 5.48 1.42 9.1477e-41
1.87 5.48 1.41 9.1477e-41
1.92 5.48 1.41 9.1477e-41
1.97 5.48 1.41 9.1477e-41
2.02 5.48 1.41 9.1477e-41
2.06 5.48 1.41 9.1477e-41
2.11 5.48 1.42 9.1477e-41
2.15 5.48 1.42 9.1477e-41
2.2 5.48 1.41 9.1477e-41
2.24 5.48 1.42 9.1477e-41
2.29 5.48 1.41 9.1477e-41
2.33 5.48 1.42 9.1477e-41
2.38 5.48 1.42 9.1477e-41
2.42 5.48 1.41 9.1477e-41
2.46 5.48 1.41 9.1477e-41
2.5 5.48 1.41 9.1477e-41
2.55 5.48 1.42 9.1477e-41
2.59 5.48 1.41 9.1477e-41
2.63 5.48 1.42 9.1477e-41
2.67 5.48 1.41 9.1477e-41
2.71 5.48 1.41 9.1477e-41
2.75 5.48 1.41 9.1477e-41
2.79 5.48 1.41 9.1477e-41
2.83 5.48 1.42 9.1477e-41
2.87 5.48 1.42 9.1477e-41
2.91 5.48 1.42 9.1477e-41
2.95 5.48 1.42 9.1477e-41
2.99 5.48 1.42 9.1477e-41
3.21 5.48 2.12 9.1477e-41
3.26 5.48 2.2 9.1477e-41
3.26 5.48 2.06 9.1477e-41
3.26 5.48 1.93 9.1477e-41
3.24 5.48 1.67 9.1477e-41
3.27 5.48 1.61 9.1477e-41
0.81 5.5 2.21 9.1477e-41
0.81 5.5 2.15 9.1477e-41
0.81 5.5 2.09 9.1477e-41
0.82 5.5 2.03 9.1477e-41
0.81 5.5 1.96 9.1477e-41
0.81 5.5 1.89 9.1477e-41
0.81 5.5 1.83 9.1477e-41
0.8 5.5 1.75 9.1477e-41
0.81 5.5 1.69 9.1477e-41
0.8 5.5 1.61 9.1477e-41
0.8 5.5 1.54 9.1477e-41
0.81 5.5 1.47 9.1477e-41
0.83 5.5 1.41 9.1477e-41
0.89 5.5 1.42 9.1477e-41
0.94 5.5 1.41 9.1477e-41
1 5.5 1.42 9.1477e-41
1.06 5.5 1.42 9.1477e-41
1.11 5.5 1.42 9.1477e-41
1.17 5.5 1.41 9.1477e-41
1.22 5.5 1.41 9.1477e-41
1.28 5.5 1.42 9.1477e-41
1.33 5.5 1.42 9.1477e-41
1.38 5.5 1.42 9.1477e-41
1.43 5.5 1.42 9.1477e-41
1.48 5.5 1.41 9.1477e-41
1.53 5.5 1.41 9.1477e-41
1.59 5.5 1.42 9.1477e-41
1.64 5.5 1.41 9.1477e-41
1.68 5.5 1.41 9.1477e-41
1.73 5.5 1.42 9.1477e-41
1.78 5.5 1.41 9.1477e-41
1.83 5.5 1.42 9.1477e-41
1.88 5.5 1.42 9.1477e-41
1.93 5.5 1.42 9.1477e-41
1.97 5.5 1.42 9.1477e-41
2.02 5.5 1.42 9.1477e-41
2.06 5.5 1.41 9.1477e-41
2.11 5.5 1.42 9.1477e-41
2.15 5.5 1.42 9.1477e-41
2.2 5.5 1.42 9.1477e-41
2.24 5.5 1.42 9.1477e-41
2.29 5.5 1.41 9.1477e-41
2.33 5.5 1.41 9.1477e-41
2.38 5.5 1.42 9.1477e-41
2.42 5.5 1.41 9.1477e-41
2.46 5.5 1.42 9.1477e-41
2.5 5.5 1.41 9.1477e-41
2.55 5.5 1.42 9.1477e-41
2.59 5.5 1.41 9.1477e-41
2.63 5.5 1.42 9.1477e-41
2.67 5.5 1.41 9.1477e-41
2.71 5.5 1.4 9.1477e-41
2.75 5.5 1.42 9.1477e-41
2.79 5.5 1.42 9.1477e-41
2.83 5.5 1.42 9.1477e-41
2.87 5.5 1.42 9.1477e-41
2.91 5.5 1.42 9.1477e-41
2.96 5.5 1.42 9.1477e-41
2.99 5.5 1.42 9.1477e-41
3.21 5.5 2.12 9.1477e-41
3.26 5.5 2.2 9.1477e-41
3.26 5.5 2.07 9.1477e-41
3.27 5.5 1.94 9.1477e-41
3.24 5.5 1.67 9.1477e-41
3.27 5.5 1.62 9.1477e-41
0.8 5.52 2.21 9.1477e-41
0.81 5.52 2.15 9.1477e-41
0.81 5.52 2.09 9.1477e-41
0.81 5.52 2.03 9.1477e-41
0.82 5.52 1.97 9.1477e-41
0.81 5.52 1.89 9.1477e-41
0.81 5.52 1.83 9.1477e-41
0.81 5.52 1.76 9.1477e-41
0.8 5.52 1.68 9.1477e-41
0.8 5.52 1.61 9.1477e-41
0.8 5.52 1.54 9.1477e-41
0.81 5.52 1.47 9.1477e-41
0.83 5.52 1.41 9.1477e-41
0.89 5.52 1.42 9.1477e-41
0.94 5.52 1.41 9.1477e-41
1 5.52 1.42 9.1477e-41
1.06 5.52 1.42 9.1477e-41
1.11 5.52 1.42 9.1477e-41
1.17 5.52 1.41 9.1477e-41
1.22 5.52 1.41 9.1477e-41
1.27 5.52 1.41 9.1477e-41
1.33 5.52 1.41 9.1477e-41
1.38 5.52 1.41 9.1477e-41
1.43 5.52 1.42 9.1477e-41
1.49 5.52 1.42 9.1477e-41
1.54 5.52 1.41 9.1477e-41
1.58 5.52 1.41 9.1477e-41
1.64 5.52 1.41 9.1477e-41
1.68 5.52 1.41 9.1477e-41
1.73 5.52 1.42 9.1477e-41
1.79 5.52 1.42 9.1477e-41
1.83 5.52 1.41 9.1477e-41
1.88 5.52 1.42 9.1477e-41
1.92 5.52 1.42 9.1477e-41
1.97 5.52 1.42 9.1477e-41
2.02 5.52 1.41 9.1477e-41
2.06 5.52 1.41 9.1477e-41
2.11 5.52 1.42 9.1477e-41
2.15 5.52 1.42 9.1477e-41
2.2 5.52 1.42 9.1477e-41
2.24 5.52 1.42 9.1477e-41
2.29 5.52 1.42 9.1477e-41
2.33 5.52 1.42 9.1477e-41
2.38 5.52 1.42 9.1477e-41
2.42 5.52 1.41 9.1477e-41
2.46 5.52 1.42 9.1477e-41
2.5 5.52 1.41 9.1477e-41
2.55 5.52 1.42 9.1477e-41
2.59 5.52 1.41 9.1477e-41
2.63 5.52 1.42 9.1477e-41
2.67 5.52 1.41 9.1477e-41
2.71 5.52 1.42 9.1477e-41
2.75 5.52 1.42 9.1477e-41
2.79 5.52 1.41 9.1477e-41
2.83 5.52 1.42 9.1477e-41
2.87 5.52 1.42 9.1477e-41
2.91 5.52 1.42 9.1477e-41
2.95 5.52 1.42 9.1477e-41
2.99 5.52 1.42 9.1477e-41
3.21 5.52 2.12 9.1477e-41
3.26 5.52 2.2 9.1477e-41
3.26 5.52 2.07 9.1477e-41
3.27 5.52 1.94 9.1477e-41
3.24 5.52 1.67 9.1477e-41
3.27 5.52 1.62 9.1477e-41
0.8 5.54 2.21 9.1477e-41
0.81 5.54 2.16 9.1477e-41
0.82 5.54 2.1 9.1477e-41
0.81 5.54 2.03 9.1477e-41
0.81 5.54 1.96 9.1477e-41
0.81 5.54 1.89 9.1477e-41
0.8 5.54 1.82 9.1477e-41
0.8 5.54 1.75 9.1477e-41
0.8 5.54 1.68 9.1477e-41
0.8 5.54 1.61 9.1477e-41
0.81 5.54 1.54 9.1477e-41
0.81 5.54 1.47 9.1477e-41
0.83 5.54 1.41 9.1477e-41
0.89 5.54 1.42 9.1477e-41
0.94 5.54 1.41 9.1477e-41
1 5.54 1.42 9.1477e-41
1.06 5.54 1.42 9.1477e-41
1.12 5.54 1.42 9.1477e-41
1.16 5.54 1.41 9.1477e-41
1.22 5.54 1.41 9.1477e-41
1.27 5.54 1.41 9.1477e-41
1.33 5.54 1.41 9.1477e-41
1.38 5.54 1.42 9.1477e-41
1.43 5.54 1.42 9.1477e-41
1.48 5.54 1.41 9.1477e-41
1.54 5.54 1.41 9.1477e-41
1.59 5.54 1.42 9.1477e-41
1.64 5.54 1.41 9.1477e-41
1.68 5.54 1.41 9.1477e-41
1.73 5.54 1.42 9.1477e-41
1.78 5.54 1.41 9.1477e-41
1.83 5.54 1.41 9.1477e-41
1.87 5.54 1.41 9.1477e-41
1.92 5.54 1.42 9.1477e-41
1.97 5.54 1.42 9.1477e-41
2.02 5.54 1.41 9.1477e-41
2.06 5.54 1.41 9.1477e-41
2.11 5.54 1.42 9.1477e-41
2.15 5.54 1.42 9.1477e-41
2.2 5.54 1.42 9.1477e-41
2.24 5.54 1.42 9.1477e-41
2.29 5.54 1.42 9.1477e-41
2.33 5.54 1.42 9.1477e-41
2.38 5.54 1.42 9.1477e-41
2.42 5.54 1.41 9.1477e-41
2.46 5.54 1.42 9.1477e-41
2.51 5.54 1.42 9.1477e-41
2.55 5.54 1.42 9.1477e-41
2.59 5.54 1.42 9.1477e-41
2.62 5.54 1.4 9.1477e-41
2.67 5.54 1.42 9.1477e-41
2.71 5.54 1.41 9.1477e-41
2.75 5.54 1.42 9.1477e-41
2.79 5.54 1.41 9.1477e-41
2.83 5.54 1.42 9.1477e-41
2.87 5.54 1.42 9.1477e-41
2.92 5.54 1.43 9.1477e-41
2.96 5.54 1.42 9.1477e-41
2.99 5.54 1.42 9.1477e-41
3.21 5.54 2.12 9.1477e-41
3.26 5.54 2.2 9.1477e-41
3.26 5.54 2.07 9.1477e-41
3.27 5.54 1.94 9.1477e-41
3.24 5.54 1.67 9.1477e-41
3.27 5.54 1.61 9.1477e-41
0.8 5.56 2.21 9.1477e-41
0.81 5.56 2.15 9.1477e-41
0.82 5.56 2.1 9.1477e-41
0.81 5.56 2.03 9.1477e-41
0.82 5.56 1.97 9.1477e-41
0.81 5.56 1.89 9.1477e-41
0.81 5.56 1.83 9.1477e-41
0.81 5.56 1.76 9.1477e-41
0.81 5.56 1.69 9.1477e-41
0.8 5.56 1.61 9.1477e-41
0.81 5.56 1.54 9.1477e-41
0.8 5.56 1.46 9.1477e-41
0.83 5.56 1.41 9.1477e-41
0.88 5.56 1.41 9.1477e-41
0.94 5.56 1.41 9.1477e-41
1 5.56 1.41 9.1477e-41
1.06 5.56 1.42 9.1477e-41
1.11 5.56 1.42 9.1477e-41
1.17 5.56 1.41 9.1477e-41
1.23 5.56 1.42 9.1477e-41
1.27 5.56 1.41 9.1477e-41
1.33 5.56 1.41 9.1477e-41
1.38 5.56 1.42 9.1477e-41
1.43 5.56 1.42 9.1477e-41
1.49 5.56 1.42 9.1477e-41
1.53 5.56 1.41 9.1477e-41
1.58 5.56 1.41 9.1477e-41
1.64 5.56 1.41 9.1477e-41
1.68 5.56 1.41 9.1477e-41
1.73 5.56 1.42 9.1477e-41
1.78 5.56 1.41 9.1477e-41
1.83 5.56 1.41 9.1477e-41
1.88 5.56 1.42 9.1477e-41
1.92 5.56 1.42 9.1477e-41
1.97 5.56 1.42 9.1477e-41
2.02 5.56 1.41 9.1477e-41
2.06 5.56 1.41 9.1477e-41
2.11 5.56 1.42 9.1477e-41
2.15 5.56 1.42 9.1477e-41
2.2 5.56 1.43 9.1477e-41
2.24 5.56 1.42 9.1477e-41
2.29 5.56 1.42 9.1477e-41
2.33 5.56 1.42 9.1477e-41
2.38 5.56 1.43 9.1477e-41
2.41 5.56 1.4 9.1477e-41
2.46 5.56 1.42 9.1477e-41
2.5 5.56 1.41 9.1477e-41
2.54 5.56 1.41 9.1477e-41
2.59 5.56 1.41 9.1477e-41
2.63 5.56 1.41 9.1477e-41
2.67 5.56 1.42 9.1477e-41
2.71 5.56 1.41 9.1477e-41
2.75 5.56 1.42 9.1477e-41
2.79 5.56 1.42 9.1477e-41
2.83 5.56 1.42 9.1477e-41
2.87 5.56 1.42 9.1477e-41
2.92 5.56 1.43 9.1477e-41
2.96 5.56 1.42 9.1477e-41
3 5.56 1.42 9.1477e-41
3.21 5.56 2.11 9.1477e-41
3.26 5.56 2.21 9.1477e-41
3.26 5.56 2.08 9.1477e-41
3.27 5.56 1.95 9.1477e-41
3.24 5.56 1.67 9.1477e-41
3.27 5.56 1.61 9.1477e-41
0.81 5.58 2.21 9.1477e-41
0.81 5.58 2.16 9.1477e-41
0.81 5.58 2.09 9.1477e-41
0.81 5.58 2.03 9.1477e-41
0.81 5.58 1.96 9.1477e-41
0.81 5.58 1.89 9.1477e-41
0.81 5.58 1.83 9.1477e-41
0.81 5.58 1.76 9.1477e-41
0.81 5.58 1.69 9.1477e-41
0.8 5.58 1.61 9.1477e-41
0.81 5.58 1.54 9.1477e-41
0.8 5.58 1.46 9.1477e-41
0.83 5.58 1.41 9.1477e-41
0.89 5.58 1.42 9.1477e-41
0.94 5.58 1.41 9.1477e-41
1 5.58 1.42 9.1477e-41
1.06 5.58 1.42 9.1477e-41
1.12 5.58 1.42 9.1477e-41
1.17 5.58 1.42 9.1477e-41
1.22 5.58 1.41 9.1477e-41
1.27 5.58 1.41 9.1477e-41
1.33 5.58 1.41 9.1477e-41
1.38 5.58 1.42 9.1477e-41
1.43 5.58 1.42 9.1477e-41
1.49 5.58 1.43 9.1477e-41
1.54 5.58 1.42 9.1477e-41
1.59 5.58 1.42 9.1477e-41
1.63 5.58 1.41 9.1477e-41
1.68 5.58 1.41 9.1477e-41
1.73 5.58 1.42 9.1477e-41
1.78 5.58 1.41 9.1477e-41
1.83 5.58 1.42 9.1477e-41
1.88 5.58 1.42 9.1477e-41
1.93 5.58 1.42 9.1477e-41
1.97 5.58 1.42 9.1477e-41
2.02 5.58 1.41 9.1477e-41
2.06 5.58 1.41 9.1477e-41
2.11 5.58 1.42 9.1477e-41
2.15 5.58 1.42 9.1477e-41
2.2 5.58 1.42 9.1477e-41
2.24 5.58 1.42 9.1477e-41
2.29 5.58 1.42 9.1477e-41
2.33 5.58 1.42 9.1477e-41
2.38 5.58 1.42 9.1477e-41
2.42 5.58 1.42 9.1477e-41
2.46 5.58 1.42 9.1477e-41
2.51 5.58 1.42 9.1477e-41
2.55 5.58 1.42 9.1477e-41
2.59 5.58 1.41 9.1477e-41
2.63 5.58 1.42 9.1477e-41
2.67 5.58 1.42 9.1477e-41
2.71 5.58 1.41 9.1477e-41
2.75 5.58 1.42 9.1477e-41
2.79 5.58 1.42 9.1477e-41
2.83 5.58 1.42 9.1477e-41
2.87 5.58 1.42 9.1477e-41
2.92 5.58 1.43 9.1477e-41
2.95 5.58 1.42 9.1477e-41
3 5.58 1.42 9.1477e-41
3.21 5.58 2.12 9.1477e-41
3.26 5.58 2.21 9.1477e-41
3.26 5.58 2.08 9.1477e-41
3.26 5.58 1.93 9.1477e-41
3.24 5.58 1.65 9.1477e-41
3.27 5.58 1.61 9.1477e-41
0.8 5.6 2.21 9.1477e-41
0.81 5.6 2.15 9.1477e-41
0.82 5.6 2.1 9.1477e-41
0.81 5.6 2.03 9.1477e-41
0.82 5.6 1.97 9.1477e-41
0.81 5.6 1.9 9.1477e-41
0.81 5.6 1.83 9.1477e-41
0.81 5.6 1.76 9.1477e-41
0.81 5.6 1.69 9.1477e-41
0.8 5.6 1.61 9.1477e-41
0.81 5.6 1.54 9.1477e-41
0.81 5.6 1.47 9.1477e-41
0.83 5.6 1.42 9.1477e-41
0.89 5.6 1.42 9.1477e-41
0.94 5.6 1.41 9.1477e-41
1 5.6 1.41 9.1477e-41
1.06 5.6 1.42 9.1477e-41
1.11 5.6 1.42 9.1477e-41
1.17 5.6 1.42 9.1477e-41
1.23 5.6 1.42 9.1477e-41
1.27 5.6 1.41 9.1477e-41
1.33 5.6 1.42 9.1477e-41
1.38 5.6 1.41 9.1477e-41
1.43 5.6 1.42 9.1477e-41
1.48 5.6 1.41 9.1477e-41
1.54 5.6 1.42 9.1477e-41
1.59 5.6 1.42 9.1477e-41
1.64 5.6 1.41 9.1477e-41
1.69 5.6 1.42 9.1477e-41
1.73 5.6 1.41 9.1477e-41
1.79 5.6 1.42 9.1477e-41
1.84 5.6 1.43 9.1477e-41
1.88 5.6 1.42 9.1477e-41
1.92 5.6 1.42 9.1477e-41
1.97 5.6 1.42 9.1477e-41
2.02 5.6 1.41 9.1477e-41
2.06 5.6 1.41 9.1477e-41
2.11 5.6 1.42 9.1477e-41
2.15 5.6 1.42 9.1477e-41
2.2 5.6 1.42 9.1477e-41
2.24 5.6 1.42 9.1477e-41
2.29 5.6 1.41 9.1477e-41
2.33 5.6 1.43 9.1477e-41
2.38 5.6 1.42 9.1477e-41
2.42 5.6 1.42 9.1477e-41
2.46 5.6 1.42 9.1477e-41
2.5 5.6 1.41 9.1477e-41
2.55 5.6 1.42 9.1477e-41
2.59 5.6 1.42 9.1477e-41
2.63 5.6 1.41 9.1477e-41
2.67 5.6 1.43 9.1477e-41
2.71 5.6 1.41 9.1477e-41
2.75 5.6 1.42 9.1477e-41
2.79 5.6 1.42 9.1477e-41
2.83 5.6 1.42 9.1477e-41
2.88 5.6 1.43 9.1477e-41
2.92 5.6 1.43 9.1477e-41
2.96 5.6 1.42 9.1477e-41
2.99 5.6 1.42 9.1477e-41
3.21 5.6 2.11 9.1477e-41
3.26 5.6 2.21 9.1477e-41
3.27 5.6 2.09 9.1477e-41
3.27 5.6 1.94 9.1477e-41
3.24 5.6 1.66 9.1477e-41
3.27 5.6 1.62 9.1477e-41
0.81 5.62 2.21 9.1477e-41
0.81 5.62 2.16 9.1477e-41
0.82 5.62 2.1 9.1477e-41
0.82 5.62 2.03 9.1477e-41
0.82 5.62 1.97 9.1477e-41
0.81 5.62 1.9 9.1477e-41
0.82 5.62 1.83 9.1477e-41
0.82 5.62 1.77 9.1477e-41
0.81 5.62 1.69 9.1477e-41
0.81 5.62 1.62 9.1477e-41
0.81 5.62 1.54 9.1477e-41
0.81 5.62 1.47 9.1477e-41
0.83 5.62 1.41 9.1477e-41
0.89 5.62 1.42 9.1477e-41
0.94 5.62 1.41 9.1477e-41
1 5.62 1.42 9.1477e-41
1.06 5.62 1.42 9.1477e-41
1.11 5.62 1.42 9.1477e-41
1.17 5.62 1.42 9.1477e-41
1.23 5.62 1.42 9.1477e-41
1.27 5.62 1.41 9.1477e-41
1.33 5.62 1.41 9.1477e-41
1.38 5.62 1.42 9.1477e-41
1.43 5.62 1.42 9.1477e-41
1.49 5.62 1.42 9.1477e-41
1.54 5.62 1.41 9.1477e-41
1.58 5.62 1.41 9.1477e-41
1.64 5.62 1.41 9.1477e-41
1.68 5.62 1.41 9.1477e-41
1.73 5.62 1.42 9.1477e-41
1.79 5.62 1.42 9.1477e-41
1.83 5.62 1.42 9.1477e-41
1.88 5.62 1.43 9.1477e-41
1.92 5.62 1.42 9.1477e-41
1.97 5.62 1.42 9.1477e-41
2.02 5.62 1.42 9.1477e-41
2.06 5.62 1.41 9.1477e-41
2.11 5.62 1.42 9.1477e-41
2.15 5.62 1.42 9.1477e-41
2.2 5.62 1.41 9.1477e-41
2.24 5.62 1.42 9.1477e-41
2.29 5.62 1.42 9.1477e-41
2.33 5.62 1.43 9.1477e-41
2.38 5.62 1.43 9.1477e-41
2.42 5.62 1.42 9.1477e-41
2.46 5.62 1.42 9.1477e-41
2.51 5.62 1.42 9.1477e-41
2.55 5.62 1.43 9.1477e-41
2.59 5.62 1.42 9.1477e-41
2.63 5.62 1.41 9.1477e-41
2.67 5.62 1.42 9.1477e-41
2.71 5.62 1.41 9.1477e-41
2.75 5.62 1.42 9.1477e-41
2.79 5.62 1.42 9.1477e-41
2.83 5.62 1.42 9.1477e-41
2.87 5.62 1.42 9.1477e-41
2.91 5.62 1.42 9.1477e-41
2.96 5.62 1.42 9.1477e-41
3 5.62 1.42 9.1477e-41
3.21 5.62 2.11 9.1477e-41
3.26 5.62 2.2 9.1477e-41
3.27 5.62 2.1 9.1477e-41
3.27 5.62 1.95 9.1477e-41
3.24 5.62 1.67 9.1477e-41
3.27 5.62 1.62 9.1477e-41
0.81 5.64 2.21 9.1477e-41
0.81 5.64 2.15 9.1477e-41
0.81 5.64 2.09 9.1477e-41
0.82 5.64 2.03 9.1477e-41
0.81 5.64 1.96 9.1477e-41
0.81 5.64 1.89 9.1477e-41
0.81 5.64 1.83 9.1477e-41
0.8 5.64 1.75 9.1477e-41
0.81 5.64 1.69 9.1477e-41
0.81 5.64 1.62 9.1477e-41
0.81 5.64 1.54 9.1477e-41
0.81 5.64 1.47 9.1477e-41
0.83 5.64 1.41 9.1477e-41
0.89 5.64 1.42 9.1477e-41
0.95 5.64 1.42 9.1477e-41
1 5.64 1.42 9.1477e-41
1.06 5.64 1.42 9.1477e-41
1.12 5.64 1.42 9.1477e-41
1.17 5.64 1.42 9.1477e-41
1.23 5.64 1.42 9.1477e-41
1.27 5.64 1.41 9.1477e-41
1.33 5.64 1.41 9.1477e-41
1.39 5.64 1.42 9.1477e-41
1.44 5.64 1.43 9.1477e-41
1.49 5.64 1.42 9.1477e-41
1.54 5.64 1.41 9.1477e-41
1.59 5.64 1.42 9.1477e-41
1.64 5.64 1.41 9.1477e-41
1.68 5.64 1.41 9.1477e-41
1.73 5.64 1.42 9.1477e-41
1.78 5.64 1.41 9.1477e-41
1.83 5.64 1.42 9.1477e-41
1.88 5.64 1.43 9.1477e-41
1.92 5.64 1.42 9.1477e-41
1.97 5.64 1.42 9.1477e-41
2.02 5.64 1.42 9.1477e-41
2.06 5.64 1.41 9.1477e-41
2.11 5.64 1.42 9.1477e-41
2.16 5.64 1.43 9.1477e-41
2.2 5.64 1.42 9.1477e-41
2.24 5.64 1.42 9.1477e-41
2.29 5.64 1.42 9.1477e-41
2.33 5.64 1.43 9.1477e-41
2.38 5.64 1.42 9.1477e-41
2.42 5.64 1.43 9.1477e-41
2.46 5.64 1.42 9.1477e-41
2.51 5.64 1.42 9.1477e-41
2.55 5.64 1.42 9.1477e-41
2.59 5.64 1.42 9.1477e-41
2.63 5.64 1.41 9.1477e-41
2.67 5.64 1.42 9.1477e-41
2.71 5.64 1.42 9.1477e-41
2.76 5.64 1.43 9.1477e-41
2.8 5.64 1.43 9.1477e-41
2.83 5.64 1.42 9.1477e-41
2.88 5.64 1.43 9.1477e-41
2.92 5.64 1.43 9.1477e-41
2.96 5.64 1.42 9.1477e-41
2.99 5.64 1.42 9.1477e-41
3.21 5.64 2.12 9.1477e-41
3.26 5.64 2.21 9.1477e-41
3.26 5.64 2.08 9.1477e-41
3.26 5.64 1.93 9.1477e-41
3.24 5.64 1.66 9.1477e-41
3.27 5.64 1.62 9.1477e-41
0.8 5.66 2.2 9.1477e-41
0.81 5.66 2.16 9.1477e-41
0.82 5.66 2.1 9.1477e-41
0.82 5.66 2.03 9.1477e-41
0.82 5.66 1.97 9.1477e-41
0.81 5.66 1.89 9.1477e-41
0.82 5.66 1.83 9.1477e-41
0.8 5.66 1.75 9.1477e-41
0.81 5.66 1.69 9.1477e-41
0.81 5.66 1.62 9.1477e-41
0.81 5.66 1.54 9.1477e-41
0.8 5.66 1.46 9.1477e-41
0.83 5.66 1.41 9.1477e-41
0.89 5.66 1.42 9.1477e-41
0.94 5.66 1.41 9.1477e-41
1 5.66 1.42 9.1477e-41
1.06 5.66 1.43 9.1477e-41
1.12 5.66 1.42 9.1477e-41
1.17 5.66 1.42 9.1477e-41
1.23 5.66 1.42 9.1477e-41
1.28 5.66 1.42 9.1477e-41
1.33 5.66 1.41 9.1477e-41
1.39 5.66 1.42 9.1477e-41
1.43 5.66 1.42 9.1477e-41
1.49 5.66 1.42 9.1477e-41
1.54 5.66 1.42 9.1477e-41
1.59 5.66 1.42 9.1477e-41
1.64 5.66 1.42 9.1477e-41
1.68 5.66 1.41 9.1477e-41
1.74 5.66 1.42 9.1477e-41
1.79 5.66 1.42 9.1477e-41
1.83 5.66 1.42 9.1477e-41
1.88 5.66 1.42 9.1477e-41
1.93 5.66 1.42 9.1477e-41
1.98 5.66 1.42 9.1477e-41
2.03 5.66 1.43 9.1477e-41
2.06 5.66 1.41 9.1477e-41
2.11 5.66 1.42 9.1477e-41
2.16 5.66 1.43 9.1477e-41
2.2 5.66 1.43 9.1477e-41
2.24 5.66 1.42 9.1477e-41
2.29 5.66 1.42 9.1477e-41
2.33 5.66 1.43 9.1477e-41
2.38 5.66 1.42 9.1477e-41
2.42 5.66 1.43 9.1477e-41
2.46 5.66 1.43 9.1477e-41
2.51 5.66 1.42 9.1477e-41
2.55 5.66 1.43 9.1477e-41
2.59 5.66 1.41 9.1477e-41
2.63 5.66 1.43 9.1477e-41
2.67 5.66 1.42 9.1477e-41
2.71 5.66 1.42 9.1477e-41
2.75 5.66 1.42 9.1477e-41
2.8 5.66 1.43 9.1477e-41
2.84 5.66 1.43 9.1477e-41
2.88 5.66 1.43 9.1477e-41
2.92 5.66 1.43 9.1477e-41
2.96 5.66 1.42 9.1477e-41
3 5.66 1.43 9.1477e-41
3.21 5.66 2.13 9.1477e-41
3.26 5.66 2.21 9.1477e-41
3.27 5.66 2.09 9.1477e-41
3.27 5.66 1.95 9.1477e-41
3.24 5.66 1.66 9.1477e-41
3.27 5.66 1.61 9.1477e-41
0.8 5.68 2.21 9.1477e-41
0.82 5.68 2.16 9.1477e-41
0.82 5.68 2.1 9.1477e-41
0.82 5.68 2.03 9.1477e-41
0.81 5.68 1.96 9.1477e-41
0.81 5.68 1.89 9.1477e-41
0.82 5.68 1.84 9.1477e-41
0.81 5.68 1.76 9.1477e-41
0.82 5.68 1.7 9.1477e-41
0.82 5.68 1.63 9.1477e-41
0.81 5.68 1.55 9.1477e-41
0.81 5.68 1.47 9.1477e-41
0.83 5.68 1.42 9.1477e-41
0.89 5.68 1.43 9.1477e-41
0.95 5.68 1.42 9.1477e-41
1 5.68 1.42 9.1477e-41
1.06 5.68 1.43 9.1477e-41
1.12 5.68 1.42 9.1477e-41
1.17 5.68 1.42 9.1477e-41
1.22 5.68 1.41 9.1477e-41
1.29 5.68 1.43 9.1477e-41
1.34 5.68 1.43 9.1477e-41
1.39 5.68 1.42 9.1477e-41
1.44 5.68 1.43 9.1477e-41
1.49 5.68 1.42 9.1477e-41
1.54 5.68 1.42 9.1477e-41
1.59 5.68 1.42 9.1477e-41
1.64 5.68 1.42 9.1477e-41
1.69 5.68 1.42 9.1477e-41
1.74 5.68 1.42 9.1477e-41
1.79 5.68 1.42 9.1477e-41
1.83 5.68 1.42 9.1477e-41
1.88 5.68 1.42 9.1477e-41
1.93 5.68 1.42 9.1477e-41
1.98 5.68 1.43 9.1477e-41
2.02 5.68 1.42 9.1477e-41
2.07 5.68 1.42 9.1477e-41
2.11 5.68 1.42 9.1477e-41
2.16 5.68 1.43 9.1477e-41
2.2 5.68 1.43 9.1477e-41
2.24 5.68 1.42 9.1477e-41
2.29 5.68 1.42 9.1477e-41
2.33 5.68 1.43 9.1477e-41
2.38 5.68 1.42 9.1477e-41
2.42 5.68 1.43 9.1477e-41
2.46 5.68 1.42 9.1477e-41
2.51 5.68 1.42 9.1477e-41
2.55 5.68 1.42 9.1477e-41
2.59 5.68 1.42 9.1477e-41
2.63 5.68 1.43 9.1477e-41
2.67 5.68 1.43 9.1477e-41
2.71 5.68 1.42 9.1477e-41
2.76 5.68 1.43 9.1477e-41
2.79 5.68 1.42 9.1477e-41
2.84 5.68 1.43 9.1477e-41
2.87 5.68 1.42 9.1477e-41
2.92 5.68 1.43 9.1477e-41
2.96 5.68 1.42 9.1477e-41
3 5.68 1.42 9.1477e-41
3.21 5.68 2.14 9.1477e-41
3.26 5.68 2.21 9.1477e-41
3.26 5.68 2.07 9.1477e-41
3.27 5.68 1.95 9.1477e-41
3.24 5.68 1.66 9.1477e-41
3.27 5.68 1.61 9.1477e-41
0.8 5.7 2.21 9.1477e-41
0.8 5.7 2.14 9.1477e-41
0.8 5.7 2.08 9.1477e-41
0.79 5.7 2 9.1477e-41
0.8 5.7 1.95 9.1477e-41
0.8 5.7 1.88 9.1477e-41
0.8 5.7 1.81 9.1477e-41
0.79 5.7 1.74 9.1477e-41
0.79 5.7 1.67 9.1477e-41
0.79 5.7 1.59 9.1477e-41
0.8 5.7 1.53 9.1477e-41
0.8 5.7 1.46 9.1477e-41
0.83 5.7 1.42 9.1477e-41
0.89 5.7 1.43 9.1477e-41
0.95 5.7 1.42 9.1477e-41
1 5.7 1.42 9.1477e-41
1.06 5.7 1.43 9.1477e-41
1.12 5.7 1.42 9.1477e-41
1.17 5.7 1.42 9.1477e-41
1.23 5.7 1.42 9.1477e-41
1.27 5.7 1.41 9.1477e-41
1.33 5.7 1.42 9.1477e-41
1.39 5.7 1.42 9.1477e-41
1.43 5.7 1.42 9.1477e-41
1.49 5.7 1.43 9.1477e-41
1.54 5.7 1.42 9.1477e-41
1.59 5.7 1.43 9.1477e-41
1.64 5.7 1.42 9.1477e-41
1.69 5.7 1.43 9.1477e-41
1.74 5.7 1.42 9.1477e-41
1.79 5.7 1.42 9.1477e-41
1.84 5.7 1.43 9.1477e-41
1.88 5.7 1.43 9.1477e-41
1.93 5.7 1.42 9.1477e-41
1.98 5.7 1.43 9.1477e-41
2.02 5.7 1.42 9.1477e-41
2.07 5.7 1.43 9.1477e-41
2.11 5.7 1.42 9.1477e-41
2.16 5.7 1.43 9.1477e-41
2.2 5.7 1.43 9.1477e-41
2.24 5.7 1.42 9.1477e-41
2.29 5.7 1.42 9.1477e-41
2.33 5.7 1.43 9.1477e-41
2.38 5.7 1.43 9.1477e-41
2.42 5.7 1.42 9.1477e-41
2.46 5.7 1.43 9.1477e-41
2.51 5.7 1.43 9.1477e-41
2.55 5.7 1.42 9.1477e-41
2.59 5.7 1.42 9.1477e-41
2.63 5.7 1.43 9.1477e-41
2.67 5.7 1.43 9.1477e-41
2.72 5.7 1.43 9.1477e-41
2.75 5.7 1.42 9.1477e-41
2.8 5.7 1.43 9.1477e-41
2.84 5.7 1.44 9.1477e-41
2.88 5.7 1.43 9.1477e-41
2.92 5.7 1.43 9.1477e-41
2.96 5.7 1.42 9.1477e-41
3 5.7 1.42 9.1477e-41
3.21 5.7 2.12 9.1477e-41
3.26 5.7 2.2 9.1477e-41
3.27 5.7 2.09 9.1477e-41
3.27 5.7 1.97 9.1477e-41
3.27 5.7 1.79 9.1477e-41
3.27 5.7 1.61 9.1477e-41
0.82 5.72 2.22 9.1477e-41
0.81 5.72 2.16 9.1477e-41
0.82 5.72 2.1 9.1477e-41
0.82 5.72 2.03 9.1477e-41
0.82 5.72 1.97 9.1477e-41
0.81 5.72 1.9 9.1477e-41
0.82 5.72 1.83 9.1477e-41
0.82 5.72 1.77 9.1477e-41
0.82 5.72 1.7 9.1477e-41
0.81 5.72 1.62 9.1477e-41
0.81 5.72 1.55 9.1477e-41
0.81 5.72 1.47 9.1477e-41
0.83 5.72 1.42 9.1477e-41
0.89 5.72 1.43 9.1477e-41
0.95 5.72 1.42 9.1477e-41
1.01 5.72 1.43 9.1477e-41
1.06 5.72 1.43 9.1477e-41
1.11 5.72 1.42 9.1477e-41
1.17 5.72 1.42 9.1477e-41
1.23 5.72 1.43 9.1477e-41
1.29 5.72 1.43 9.1477e-41
1.33 5.72 1.42 9.1477e-41
1.39 5.72 1.42 9.1477e-41
1.43 5.72 1.42 9.1477e-41
1.49 5.72 1.42 9.1477e-41
1.54 5.72 1.42 9.1477e-41
1.59 5.72 1.43 9.1477e-41
1.65 5.72 1.43 9.1477e-41
1.69 5.72 1.43 9.1477e-41
1.74 5.72 1.43 9.1477e-41
1.79 5.72 1.42 9.1477e-41
1.84 5.72 1.43 9.1477e-41
1.88 5.72 1.43 9.1477e-41
1.93 5.72 1.42 9.1477e-41
1.98 5.72 1.42 9.1477e-41
2.02 5.72 1.42 9.1477e-41
2.07 5.72 1.42 9.1477e-41
2.12 5.72 1.43 9.1477e-41
2.16 5.72 1.43 9.1477e-41
2.2 5.72 1.43 9.1477e-41
2.25 5.72 1.43 9.1477e-41
2.29 5.72 1.42 9.1477e-41
2.33 5.72 1.43 9.1477e-41
2.38 5.72 1.42 9.1477e-41
2.42 5.72 1.42 9.1477e-41
2.46 5.72 1.43 9.1477e-41
2.51 5.72 1.43 9.1477e-41
2.55 5.72 1.44 9.1477e-41
2.59 5.72 1.42 9.1477e-41
2.63 5.72 1.42 9.1477e-41
2.67 5.72 1.43 9.1477e-41
2.71 5.72 1.42 9.1477e-41
2.76 5.72 1.43 9.1477e-41
2.79 5.72 1.42 9.1477e-41
2.84 5.72 1.43 9.1477e-41
2.88 5.72 1.43 9.1477e-41
2.92 5.72 1.43 9.1477e-41
2.96 5.72 1.43 9.1477e-41
3 5.72 1.42 9.1477e-41
3.02 5.72 1.37 9.1477e-41
3.27 5.72 2.22 9.1477e-41
3.26 5.72 2.06 9.1477e-41
3.27 5.72 1.94 9.1477e-41
3.26 5.72 1.74 9.1477e-41
3.26 5.72 1.57 9.1477e-41
3.26 5.72 1.37 9.1477e-41
0.82 5.74 2.22 9.1477e-41
0.81 5.74 2.16 9.1477e-41
0.83 5.74 2.11 9.1477e-41
0.82 5.74 2.03 9.1477e-41
0.82 5.74 1.98 9.1477e-41
0.81 5.74 1.9 9.1477e-41
0.82 5.74 1.83 9.1477e-41
0.82 5.74 1.77 9.1477e-41
0.81 5.74 1.69 9.1477e-41
0.81 5.74 1.62 9.1477e-41
0.81 5.74 1.55 9.1477e-41
0.81 5.74 1.47 9.1477e-41
0.83 5.74 1.42 9.1477e-41
0.89 5.74 1.43 9.1477e-41
0.95 5.74 1.42 9.1477e-41
1 5.74 1.42 9.1477e-41
1.06 5.74 1.43 9.1477e-41
1.12 5.74 1.42 9.1477e-41
1.17 5.74 1.42 9.1477e-41
1.23 5.74 1.42 9.1477e-41
1.28 5.74 1.42 9.1477e-41
1.34 5.74 1.43 9.1477e-41
1.39 5.74 1.42 9.1477e-41
1.44 5.74 1.43 9.1477e-41
1.49 5.74 1.43 9.1477e-41
1.55 5.74 1.43 9.1477e-41
1.59 5.74 1.43 9.1477e-41
1.64 5.74 1.42 9.1477e-41
1.69 5.74 1.42 9.1477e-41
1.74 5.74 1.42 9.1477e-41
1.79 5.74 1.42 9.1477e-41
1.84 5.74 1.43 9.1477e-41
1.88 5.74 1.43 9.1477e-41
1.93 5.74 1.43 9.1477e-41
1.98 5.74 1.42 9.1477e-41
2.03 5.74 1.43 9.1477e-41
2.07 5.74 1.43 9.1477e-41
2.12 5.74 1.43 9.1477e-41
2.16 5.74 1.43 9.1477e-41
2.2 5.74 1.43 9.1477e-41
2.25 5.74 1.43 9.1477e-41
2.29 5.74 1.42 9.1477e-41
2.33 5.74 1.43 9.1477e-41
2.38 5.74 1.42 9.1477e-41
2.42 5.74 1.42 9.1477e-41
2.46 5.74 1.42 9.1477e-41
2.51 5.74 1.43 9.1477e-41
2.55 5.74 1.43 9.1477e-41
2.59 5.74 1.42 9.1477e-41
2.63 5.74 1.43 9.1477e-41
2.67 5.74 1.43 9.1477e-41
2.72 5.74 1.43 9.1477e-41
2.76 5.74 1.43 9.1477e-41
2.79 5.74 1.42 9.1477e-41
2.84 5.74 1.43 9.1477e-41
2.88 5.74 1.43 9.1477e-41
2.92 5.74 1.44 9.1477e-41
2.96 5.74 1.43 9.1477e-41
3 5.74 1.42 9.1477e-41
3.02 5.74 1.37 9.1477e-41
3.26 5.74 2.2 9.1477e-41
3.27 5.74 2.1 9.1477e-41
3.26 5.74 1.92 9.1477e-41
3.25 5.74 1.71 9.1477e-41
3.25 5.74 1.54 9.1477e-41
3.25 5.74 1.33 9.1477e-41
0.79 5.76 2.19 9.1477e-41
0.79 5.76 2.14 9.1477e-41
0.8 5.76 2.08 9.1477e-41
0.79 5.76 2 9.1477e-41
0.79 5.76 1.94 9.1477e-41
0.8 5.76 1.88 9.1477e-41
0.79 5.76 1.8 9.1477e-41
0.79 5.76 1.74 9.1477e-41
0.79 5.76 1.67 9.1477e-41
0.79 5.76 1.59 9.1477e-41
0.81 5.76 1.54 9.1477e-41
0.81 5.76 1.47 9.1477e-41
0.83 5.76 1.42 9.1477e-41
0.89 5.76 1.43 9.1477e-41
0.95 5.76 1.42 9.1477e-41
1.01 5.76 1.43 9.1477e-41
1.06 5.76 1.43 9.1477e-41
1.12 5.76 1.42 9.1477e-41
1.17 5.76 1.42 9.1477e-41
1.23 5.76 1.42 9.1477e-41
1.28 5.76 1.42 9.1477e-41
1.33 5.76 1.42 9.1477e-41
1.39 5.76 1.42 9.1477e-41
1.44 5.76 1.43 9.1477e-41
1.49 5.76 1.43 9.1477e-41
1.54 5.76 1.42 9.1477e-41
1.59 5.76 1.43 9.1477e-41
1.64 5.76 1.42 9.1477e-41
1.7 5.76 1.44 9.1477e-41
1.74 5.76 1.42 9.1477e-41
1.79 5.76 1.42 9.1477e-41
1.84 5.76 1.43 9.1477e-41
1.88 5.76 1.43 9.1477e-41
1.93 5.76 1.42 9.1477e-41
1.98 5.76 1.42 9.1477e-41
2.02 5.76 1.41 9.1477e-41
2.07 5.76 1.43 9.1477e-41
2.11 5.76 1.42 9.1477e-41
2.16 5.76 1.43 9.1477e-41
2.2 5.76 1.43 9.1477e-41
2.25 5.76 1.43 9.1477e-41
2.29 5.76 1.43 9.1477e-41
2.33 5.76 1.43 9.1477e-41
2.38 5.76 1.43 9.1477e-41
2.42 5.76 1.42 9.1477e-41
2.46 5.76 1.43 9.1477e-41
2.51 5.76 1.42 9.1477e-41
2.55 5.76 1.43 9.1477e-41
2.59 5.76 1.42 9.1477e-41
2.63 5.76 1.43 9.1477e-41
2.67 5.76 1.43 9.1477e-41
2.71 5.76 1.42 9.1477e-41
2.75 5.76 1.42 9.1477e-41
2.8 5.76 1.43 9.1477e-41
2.84 5.76 1.43 9.1477e-41
2.88 5.76 1.43 9.1477e-41
2.92 5.76 1.43 9.1477e-41
2.96 5.76 1.42 9.1477e-41
3 5.76 1.42 9.1477e-41
3.02 5.76 1.37 9.1477e-41
3.25 5.76 2.17 9.1477e-41
3.26 5.76 2.06 9.1477e-41
3.26 5.76 1.92 9.1477e-41
3.26 5.76 1.76 9.1477e-41
3.26 5.76 1.59 9.1477e-41
3.26 5.76 1.36 9.1477e-41
3.27 5.76 1.23 9.1477e-41
0.79 5.78 2.19 9.1477e-41
0.79 5.78 2.14 9.1477e-41
0.79 5.78 2.07 9.1477e-41
0.79 5.78 2 9.1477e-41
0.8 5.78 1.95 9.1477e-41
0.8 5.78 1.88 9.1477e-41
0.8 5.78 1.82 9.1477e-41
0.8 5.78 1.75 9.1477e-41
0.8 5.78 1.68 9.1477e-41
0.8 5.78 1.61 9.1477e-41
0.83 5.78 1.57 9.1477e-41
0.84 5.78 1.51 9.1477e-41
0.86 5.78 1.46 9.1477e-41
0.91 5.78 1.44 9.1477e-41
0.97 5.78 1.45 9.1477e-41
1.02 5.78 1.44 9.1477e-41
1.07 5.78 1.43 9.1477e-41
1.12 5.78 1.43 9.1477e-41
1.18 5.78 1.43 9.1477e-41
1.23 5.78 1.43 9.1477e-41
1.29 5.78 1.43 9.1477e-41
1.34 5.78 1.43 9.1477e-41
1.39 5.78 1.43 9.1477e-41
1.44 5.78 1.43 9.1477e-41
1.49 5.78 1.43 9.1477e-41
1.55 5.78 1.43 9.1477e-41
1.59 5.78 1.43 9.1477e-41
1.64 5.78 1.42 9.1477e-41
1.69 5.78 1.43 9.1477e-41
1.74 5.78 1.42 9.1477e-41
1.79 5.78 1.42 9.1477e-41
1.84 5.78 1.43 9.1477e-41
1.88 5.78 1.42 9.1477e-41
1.93 5.78 1.43 9.1477e-41
1.98 5.78 1.43 9.1477e-41
2.03 5.78 1.43 9.1477e-41
2.07 5.78 1.42 9.1477e-41
2.12 5.78 1.43 9.1477e-41
2.16 5.78 1.43 9.1477e-41
2.2 5.78 1.43 9.1477e-41
2.25 5.78 1.44 9.1477e-41
2.29 5.78 1.42 9.1477e-41
2.34 5.78 1.43 9.1477e-41
2.38 5.78 1.43 9.1477e-41
2.42 5.78 1.43 9.1477e-41
2.47 5.78 1.44 9.1477e-41
2.51 5.78 1.43 9.1477e-41
2.55 5.78 1.43 9.1477e-41
2.59 5.78 1.43 9.1477e-41
2.63 5.78 1.43 9.1477e-41
2.67 5.78 1.43 9.1477e-41
2.72 5.78 1.43 9.1477e-41
2.75 5.78 1.42 9.1477e-41
2.8 5.78 1.43 9.1477e-41
2.84 5.78 1.44 9.1477e-41
2.88 5.78 1.43 9.1477e-41
2.92 5.78 1.44 9.1477e-41
2.96 5.78 1.43 9.1477e-41
3 5.78 1.42 9.1477e-41
3.02 5.78 1.37 9.1477e-41
3.25 5.78 2.17 9.1477e-41
3.26 5.78 2.06 9.1477e-41
3.26 5.78 1.92 9.1477e-41
3.26 5.78 1.75 9.1477e-41
3.26 5.78 1.58 9.1477e-41
3.27 5.78 1.41 9.1477e-41
1.05 5.8 2.23 9.1477e-41
1.1 5.8 2.23 9.1477e-41
1.15 5.8 2.22 9.1477e-41
1.2 5.8 2.23 9.1477e-41
1.25 5.8 2.23 9.1477e-41
1.3 5.8 2.22 9.1477e-41
1.36 5.8 2.23 9.1477e-41
1.4 5.8 2.23 9.1477e-41
1.45 5.8 2.23 9.1477e-41
1.49 5.8 2.22 9.1477e-41
1.54 5.8 2.22 9.1477e-41
1.59 5.8 2.22 9.1477e-41
1.62 5.8 2.2 9.1477e-41
1.1 5.8 1.4 9.1477e-41
1.17 5.8 1.41 9.1477e-41
1.22 5.8 1.41 9.1477e-41
1.28 5.8 1.42 9.1477e-41
1.33 5.8 1.41 9.1477e-41
1.38 5.8 1.41 9.1477e-41
1.45 5.8 1.43 9.1477e-41
1.52 5.8 1.47 9.1477e-41
1.55 5.8 1.44 9.1477e-41
1.58 5.8 1.41 9.1477e-41
1.64 5.8 1.42 9.1477e-41
1.69 5.8 1.43 9.1477e-41
1.74 5.8 1.42 9.1477e-41
1.79 5.8 1.42 9.1477e-41
1.83 5.8 1.42 9.1477e-41
1.88 5.8 1.42 9.1477e-41
1.92 5.8 1.42 9.1477e-41
2.04 5.8 1.56 9.1477e-41
2.08 5.8 1.54 9.1477e-41
2.11 5.8 1.52 9.1477e-41
2.13 5.8 1.47 9.1477e-41
2.17 5.8 1.46 9.1477e-41
2.22 5.8 1.45 9.1477e-41
2.26 5.8 1.45 9.1477e-41
2.3 5.8 1.45 9.1477e-41
2.34 5.8 1.44 9.1477e-41
2.38 5.8 1.44 9.1477e-41
2.43 5.8 1.44 9.1477e-41
2.47 5.8 1.44 9.1477e-41
2.51 5.8 1.43 9.1477e-41
2.55 5.8 1.44 9.1477e-41
2.59 5.8 1.43 9.1477e-41
2.64 5.8 1.44 9.1477e-41
2.67 5.8 1.43 9.1477e-41
2.72 5.8 1.43 9.1477e-41
2.76 5.8 1.43 9.1477e-41
2.8 5.8 1.43 9.1477e-41
2.84 5.8 1.44 9.1477e-41
2.88 5.8 1.44 9.1477e-41
2.92 5.8 1.44 9.1477e-41
2.96 5.8 1.42 9.1477e-41
3 5.8 1.43 9.1477e-41
3.03 5.8 1.42 9.1477e-41
3.26 5.8 2.19 9.1477e-41
3.26 5.8 2.08 9.1477e-41
3.26 5.8 1.93 9.1477e-41
3.26 5.8 1.74 9.1477e-41
3.26 5.8 1.59 9.1477e-41
3.27 5.8 1.43 9.1477e-41
3.25 5.8 1.14 9.1477e-41
1.83 5.82 2.26 9.1477e-41
1.87 5.82 2.24 9.1477e-41
1.9 5.82 2.23 9.1477e-41
1.93 5.82 2.21 9.1477e-41
1.96 5.82 2.2 9.1477e-41
2.01 5.82 2.21 9.1477e-41
2.06 5.82 2.22 9.1477e-41
2.1 5.82 2.22 9.1477e-41
2.15 5.82 2.24 9.1477e-41
2.2 5.82 2.26 9.1477e-41
2.23 5.82 2.25 9.1477e-41
2.25 5.82 2.21 9.1477e-41
2.29 5.82 2.22 9.1477e-41
2.32 5.82 2.2 9.1477e-41
2.38 5.82 2.23 9.1477e-41
2.42 5.82 2.23 9.1477e-41
2.45 5.82 2.22 9.1477e-41
2.49 5.82 2.23 9.1477e-41
2.53 5.82 2.24 9.1477e-41
2.56 5.82 2.23 9.1477e-41
2.6 5.82 2.25 9.1477e-41
2.63 5.82 2.21 9.1477e-41
2.67 5.82 2.23 9.1477e-41
2.71 5.82 2.25 9.1477e-41
2.75 5.82 2.25 9.1477e-41
2.78 5.82 2.25 9.1477e-41
2.82 5.82 2.26 9.1477e-41
2.85 5.82 2.25 9.1477e-41
2.88 5.82 2.24 9.1477e-41
2.92 5.82 2.25 9.1477e-41
