# .PCD v.7 - Point Cloud Data file format
VERSION .7
FIELDS x y z rgb
SIZE 4 4 4 4
TYPE F F F F
WIDTH 1886
HEIGHT 1
POINTS 1886
DATA ascii
2.89 1.5 2.76 9.1477e-41
2.92 1.5 2.76 9.1477e-41
2.95 1.5 2.76 9.1477e-41
2.98 1.5 2.76 9.1477e-41
3.01 1.5 2.77 9.1477e-41
3.04 1.5 2.77 9.1477e-41
3.06 1.5 2.76 9.1477e-41
3.1 1.5 2.77 9.1477e-41
3.12 1.5 2.76 9.1477e-41
3.15 1.5 2.76 9.1477e-41
3.18 1.5 2.77 9.1477e-41
3.2 1.5 2.76 9.1477e-41
3.23 1.5 2.75 9.1477e-41
3.25 1.5 2.74 9.1477e-41
3.27 1.5 2.69 9.1477e-41
3.29 1.5 2.66 9.1477e-41
3.31 1.5 2.64 9.1477e-41
3.32 1.5 2.58 9.1477e-41
3.33 1.5 2.48 9.1477e-41
3.33 1.5 2.37 9.1477e-41
3.34 1.5 2.28 9.1477e-41
3.35 1.5 2.15 9.1477e-41
3.36 1.5 2.04 9.1477e-41
3.36 1.5 1.91 9.1477e-41
3.36 1.5 1.7 9.1477e-41
3.35 1.5 1.45 9.1477e-41
3.33 1.5 1.45 3.57e-43
3.31 1.5 0.69 9.1477e-41
1.18 1.52 2.6 9.1477e-41
1.22 1.52 2.6 9.1477e-41
1.27 1.52 2.59 9.1477e-41
1.31 1.52 2.58 9.1477e-41
1.35 1.52 2.57 9.1477e-41
1.41 1.52 2.59 9.1477e-41
1.45 1.52 2.58 9.1477e-41
1.49 1.52 2.56 9.1477e-41
1.5 1.52 2.53 9.1477e-41
1.49 1.52 2.46 9.1477e-41
1.5 1.52 2.41 9.1477e-41
1.49 1.52 2.34 9.1477e-41
1.5 1.52 2.29 9.1477e-41
1.48 1.52 2.29 3.57e-43
1.86 1.52 2.29 3.57e-43
1.91 1.52 2.29 3.57e-43
1.95 1.52 2.29 3.57e-43
1.99 1.52 2.29 3.57e-43
2.02 1.52 2.66 9.1477e-41
1.46 1.52 1.77 9.1477e-41
2.09 1.52 2.64 9.1477e-41
2.13 1.52 2.66 9.1477e-41
2.17 1.52 2.66 9.1477e-41
2.21 1.52 2.66 9.1477e-41
1.43 1.52 1.33 9.1477e-41
1.47 1.52 1.3 9.1477e-41
2.32 1.52 2.66 9.1477e-41
2.35 1.52 2.65 9.1477e-41
2.38 1.52 2.65 9.1477e-41
2.42 1.52 2.66 9.1477e-41
2.45 1.52 2.65 9.1477e-41
2.49 1.52 2.66 9.1477e-41
2.52 1.52 2.64 9.1477e-41
2.55 1.52 2.65 9.1477e-41
2.59 1.52 2.65 9.1477e-41
2.62 1.52 2.65 9.1477e-41
2.65 1.52 2.65 9.1477e-41
2.68 1.52 2.65 9.1477e-41
2.71 1.52 2.64 9.1477e-41
2.75 1.52 2.65 9.1477e-41
2.78 1.52 2.65 9.1477e-41
2.81 1.52 2.66 9.1477e-41
2.84 1.52 2.65 9.1477e-41
2.88 1.52 2.66 9.1477e-41
2.9 1.52 2.65 9.1477e-41
2.93 1.52 2.65 9.1477e-41
2.97 1.52 2.66 9.1477e-41
3 1.52 2.67 9.1477e-41
3.03 1.52 2.67 9.1477e-41
3.06 1.52 2.67 9.1477e-41
3.1 1.52 2.7 9.1477e-41
3.12 1.52 2.68 9.1477e-41
3.15 1.52 2.67 9.1477e-41
3.18 1.52 2.68 9.1477e-41
3.21 1.52 2.67 9.1477e-41
3.23 1.52 2.67 9.1477e-41
3.26 1.52 2.66 9.1477e-41
3.28 1.52 2.64 9.1477e-41
3.3 1.52 2.62 9.1477e-41
3.31 1.52 2.51 9.1477e-41
3.31 1.52 2.42 9.1477e-41
3.33 1.52 2.34 9.1477e-41
3.33 1.52 2.23 9.1477e-41
3.34 1.52 2.12 9.1477e-41
3.35 1.52 2.01 9.1477e-41
3.36 1.52 1.88 9.1477e-41
3.35 1.52 1.63 9.1477e-41
3.35 1.52 1.43 9.1477e-41
3.32 1.52 1.43 3.57e-43
3.31 1.52 0.69 9.1477e-41
1.18 1.54 2.61 9.1477e-41
1.22 1.54 2.6 9.1477e-41
1.26 1.54 2.59 9.1477e-41
1.31 1.54 2.58 9.1477e-41
1.36 1.54 2.58 9.1477e-41
1.41 1.54 2.59 9.1477e-41
1.46 1.54 2.59 9.1477e-41
1.49 1.54 2.56 9.1477e-41
1.51 1.54 2.54 9.1477e-41
1.5 1.54 2.47 9.1477e-41
1.51 1.54 2.43 9.1477e-41
1.49 1.54 2.34 9.1477e-41
1.5 1.54 2.3 9.1477e-41
1.5 1.54 2.22 9.1477e-41
1.49 1.54 2.15 9.1477e-41
1.5 1.54 2.1 9.1477e-41
1.49 1.54 2.02 9.1477e-41
1.49 1.54 1.95 9.1477e-41
1.48 1.54 1.88 9.1477e-41
1.5 1.54 1.83 9.1477e-41
1.51 1.54 1.77 9.1477e-41
1.48 1.54 1.65 9.1477e-41
1.48 1.54 1.58 9.1477e-41
1.47 1.54 1.48 9.1477e-41
1.48 1.54 1.41 9.1477e-41
1.49 1.54 1.35 9.1477e-41
1.49 1.54 1.25 9.1477e-41
1.47 1.54 1.13 9.1477e-41
1.47 1.54 1.03 9.1477e-41
1.51 1.54 1 9.1477e-41
1.54 1.54 0.97 9.1477e-41
1.73 1.54 1.22 9.1477e-41
1.79 1.54 1.24 9.1477e-41
1.81 1.54 1.18 9.1477e-41
1.81 1.54 1.08 9.1477e-41
1.81 1.54 0.99 9.1477e-41
1.77 1.54 0.81 9.1477e-41
1.81 1.54 0.77 9.1477e-41
1.91 1.54 0.87 9.1477e-41
2.75 1.54 2.65 9.1477e-41
2.05 1.54 0.98 9.1477e-41
2.11 1.54 0.99 9.1477e-41
2.15 1.54 0.98 9.1477e-41
2.2 1.54 0.97 9.1477e-41
2.25 1.54 0.99 9.1477e-41
2.3 1.54 1 9.1477e-41
2.96 1.54 2.64 9.1477e-41
2.99 1.54 2.64 9.1477e-41
3.02 1.54 2.64 9.1477e-41
3.07 1.54 2.6 9.1477e-41
3.09 1.54 2.57 9.1477e-41
3.13 1.54 2.62 9.1477e-41
3.16 1.54 2.62 9.1477e-41
3.18 1.54 2.6 9.1477e-41
3.21 1.54 2.6 9.1477e-41
3.23 1.54 2.57 9.1477e-41
3.25 1.54 2.52 9.1477e-41
3.25 1.54 2.39 9.1477e-41
3.27 1.54 2.35 9.1477e-41
3.28 1.54 2.27 9.1477e-41
3.29 1.54 2.18 9.1477e-41
3.3 1.54 2.1 9.1477e-41
3.32 1.54 2.02 9.1477e-41
3.33 1.54 1.92 9.1477e-41
3.33 1.54 1.74 9.1477e-41
3.32 1.54 1.49 9.1477e-41
3.33 1.54 1.31 9.1477e-41
3.31 1.54 1 9.1477e-41
3.33 1.54 0.83 9.1477e-41
1.18 1.56 2.6 9.1477e-41
1.22 1.56 2.6 9.1477e-41
1.27 1.56 2.59 9.1477e-41
1.31 1.56 2.58 9.1477e-41
1.37 1.56 2.59 9.1477e-41
1.42 1.56 2.6 9.1477e-41
1.46 1.56 2.59 9.1477e-41
1.49 1.56 2.57 9.1477e-41
1.5 1.56 2.53 9.1477e-41
1.51 1.56 2.48 9.1477e-41
1.51 1.56 2.42 9.1477e-41
1.5 1.56 2.35 9.1477e-41
1.5 1.56 2.29 9.1477e-41
1.5 1.56 2.23 9.1477e-41
1.49 1.56 2.15 9.1477e-41
1.49 1.56 2.09 9.1477e-41
1.49 1.56 2.02 9.1477e-41
1.49 1.56 1.95 9.1477e-41
1.48 1.56 1.87 9.1477e-41
1.48 1.56 1.8 9.1477e-41
1.48 1.56 1.73 9.1477e-41
1.48 1.56 1.65 9.1477e-41
1.47 1.56 1.55 9.1477e-41
1.48 1.56 1.49 9.1477e-41
1.48 1.56 1.4 9.1477e-41
1.49 1.56 1.34 9.1477e-41
1.49 1.56 1.25 9.1477e-41
1.49 1.56 1.16 9.1477e-41
1.45 1.56 1 9.1477e-41
1.5 1.56 0.99 9.1477e-41
1.54 1.56 0.97 9.1477e-41
1.74 1.56 1.25 9.1477e-41
1.8 1.56 1.27 9.1477e-41
1.81 1.56 1.18 9.1477e-41
1.81 1.56 1.08 9.1477e-41
1.82 1.56 1 9.1477e-41
1.77 1.56 0.81 9.1477e-41
1.83 1.56 0.83 9.1477e-41
1.93 1.56 0.93 9.1477e-41
2.01 1.56 0.99 9.1477e-41
2.07 1.56 1.02 9.1477e-41
2.13 1.56 1.04 9.1477e-41
2.17 1.56 1.03 9.1477e-41
2.22 1.56 1.03 9.1477e-41
2.26 1.56 1.02 9.1477e-41
2.31 1.56 1.03 9.1477e-41
2.34 1.56 0.99 9.1477e-41
2.36 1.56 0.9 9.1477e-41
2.34 1.56 0.71 9.1477e-41
2.6 1.56 1.2 9.1477e-41
2.64 1.56 1.19 9.1477e-41
2.65 1.56 1.09 9.1477e-41
2.64 1.56 0.91 9.1477e-41
2.66 1.56 0.84 9.1477e-41
2.73 1.56 0.9 9.1477e-41
2.79 1.56 0.97 9.1477e-41
2.83 1.56 0.95 9.1477e-41
2.88 1.56 0.96 9.1477e-41
2.92 1.56 0.95 9.1477e-41
2.96 1.56 0.95 9.1477e-41
3.01 1.56 0.96 9.1477e-41
3.28 1.56 1.98 9.1477e-41
3.29 1.56 1.87 9.1477e-41
3.29 1.56 1.7 9.1477e-41
3.27 1.56 1.44 9.1477e-41
3.26 1.56 1.15 9.1477e-41
3.27 1.56 1.02 9.1477e-41
3.31 1.56 1.02 3.57e-43
3.33 1.56 0.83 9.1477e-41
1.16 1.58 2.63 9.1477e-41
1.16 1.58 2.58 9.1477e-41
1.21 1.58 2.58 9.1477e-41
1.26 1.58 2.58 9.1477e-41
1.3 1.58 2.58 9.1477e-41
1.36 1.58 2.58 9.1477e-41
1.41 1.58 2.59 9.1477e-41
1.45 1.58 2.58 9.1477e-41
1.49 1.58 2.56 9.1477e-41
1.5 1.58 2.53 9.1477e-41
1.5 1.58 2.47 9.1477e-41
1.5 1.58 2.41 9.1477e-41
1.5 1.58 2.35 9.1477e-41
1.5 1.58 2.3 9.1477e-41
1.48 1.58 2.2 9.1477e-41
1.45 1.58 2.03 9.1477e-41
1.37 1.58 1.85 9.1477e-41
1.37 1.58 1.56 9.1477e-41
1.38 1.58 1.5 9.1477e-41
1.4 1.58 1.45 9.1477e-41
1.43 1.58 1.41 9.1477e-41
1.47 1.58 1.39 9.1477e-41
1.48 1.58 1.32 9.1477e-41
1.48 1.58 1.24 9.1477e-41
1.48 1.58 1.15 9.1477e-41
1.48 1.58 1.04 9.1477e-41
1.5 1.58 1 9.1477e-41
1.59 1.58 1.07 9.1477e-41
1.74 1.58 1.24 9.1477e-41
1.8 1.58 1.27 9.1477e-41
1.81 1.58 1.18 9.1477e-41
1.81 1.58 1.08 9.1477e-41
1.82 1.58 1.01 9.1477e-41
1.78 1.58 0.82 9.1477e-41
1.83 1.58 0.83 9.1477e-41
1.95 1.58 0.97 9.1477e-41
2.02 1.58 1.01 9.1477e-41
2.07 1.58 1.02 9.1477e-41
2.12 1.58 1.02 9.1477e-41
2.17 1.58 1.03 9.1477e-41
2.22 1.58 1.03 9.1477e-41
2.26 1.58 1.02 9.1477e-41
2.31 1.58 1.02 9.1477e-41
2.34 1.58 0.98 9.1477e-41
2.35 1.58 0.89 9.1477e-41
2.35 1.58 0.74 9.1477e-41
2.51 1.58 1.06 9.1477e-41
2.61 1.58 1.23 9.1477e-41
2.65 1.58 1.21 9.1477e-41
2.65 1.58 1.09 9.1477e-41
2.64 1.58 0.91 9.1477e-41
2.67 1.58 0.86 9.1477e-41
2.73 1.58 0.93 9.1477e-41
2.81 1.58 1.03 9.1477e-41
2.85 1.58 1.02 9.1477e-41
2.89 1.58 1.03 9.1477e-41
2.93 1.58 1.02 9.1477e-41
2.98 1.58 1.02 9.1477e-41
3.02 1.58 1.02 9.1477e-41
3.06 1.58 1.01 9.1477e-41
3.1 1.58 1.01 9.1477e-41
3.15 1.58 1.02 9.1477e-41
3.19 1.58 1.01 9.1477e-41
3.23 1.58 1 9.1477e-41
3.27 1.58 1.02 9.1477e-41
3.31 1.58 1.02 3.57e-43
3.33 1.58 0.83 9.1477e-41
1.17 1.6 2.69 9.1477e-41
1.17 1.6 2.65 9.1477e-41
1.21 1.6 2.64 9.1477e-41
1.26 1.6 2.63 9.1477e-41
1.3 1.6 2.63 9.1477e-41
1.35 1.6 2.63 9.1477e-41
1.38 1.6 2.61 9.1477e-41
1.42 1.6 2.6 9.1477e-41
1.06 1.6 2.12 9.1477e-41
1.02 1.6 2.01 9.1477e-41
1.58 1.6 2.62 9.1477e-41
1.62 1.6 2.62 3.57e-43
1.5 1.6 2.62 3.57e-43
1.5 1.6 2.62 3.57e-43
1.5 1.6 2.3 9.1477e-41
1.03 1.6 1.6 9.1477e-41
1.06 1.6 1.58 9.1477e-41
1.08 1.6 1.52 9.1477e-41
1.1 1.6 1.48 9.1477e-41
0.61 1.6 1.48 3.57e-43
1.48 1.6 1.48 3.57e-43
1.48 1.6 1.24 9.1477e-41
1.49 1.6 1.07 9.1477e-41
1.72 1.6 1.4 9.1477e-41
1.68 1.6 1.23 9.1477e-41
1.76 1.6 1.28 9.1477e-41
1.8 1.6 1.27 9.1477e-41
1.81 1.6 1.18 9.1477e-41
1.81 1.6 1.08 9.1477e-41
1.82 1.6 1 9.1477e-41
1.78 1.6 0.82 9.1477e-41
1.83 1.6 0.81 9.1477e-41
2.07 1.6 1.02 9.1477e-41
2.12 1.6 1.03 9.1477e-41
2.17 1.6 1.03 9.1477e-41
2.22 1.6 1.03 9.1477e-41
2.26 1.6 1.01 9.1477e-41
2.3 1.6 1.01 9.1477e-41
2.34 1.6 0.98 9.1477e-41
2.36 1.6 0.92 9.1477e-41
2.4 1.6 0.9 9.1477e-41
2.53 1.6 1.12 9.1477e-41
2.61 1.6 1.25 9.1477e-41
2.65 1.6 1.24 9.1477e-41
2.65 1.6 1.09 9.1477e-41
2.64 1.6 0.91 9.1477e-41
2.69 1.6 0.92 9.1477e-41
2.75 1.6 0.99 9.1477e-41
2.79 1.6 0.97 9.1477e-41
2.88 1.6 0.98 9.1477e-41
2.93 1.6 0.99 9.1477e-41
2.97 1.6 0.98 9.1477e-41
3.01 1.6 0.98 9.1477e-41
3.05 1.6 0.98 9.1477e-41
3.09 1.6 0.97 9.1477e-41
3.14 1.6 0.97 9.1477e-41
3.18 1.6 0.98 9.1477e-41
3.23 1.6 0.98 9.1477e-41
3.27 1.6 1.01 9.1477e-41
3.31 1.6 1.01 3.57e-43
3.33 1.6 0.83 9.1477e-41
1.09 1.62 3.28 9.1477e-41
1.1 1.62 3.25 9.1477e-41
1.11 1.62 3.21 9.1477e-41
1.1 1.62 3.16 9.1477e-41
1.11 1.62 3.13 9.1477e-41
1.11 1.62 3.08 9.1477e-41
1.13 1.62 3.05 9.1477e-41
1.13 1.62 3.01 9.1477e-41
1.13 1.62 2.96 9.1477e-41
1.13 1.62 2.91 9.1477e-41
1.14 1.62 2.87 9.1477e-41
1.15 1.62 2.83 9.1477e-41
1.15 1.62 2.78 9.1477e-41
1.2 1.62 2.78 9.1477e-41
1.18 1.62 2.71 9.1477e-41
1.1 1.62 2.57 9.1477e-41
1.09 1.62 2.51 9.1477e-41
1.09 1.62 2.46 9.1477e-41
1.12 1.62 2.42 9.1477e-41
1.13 1.62 2.38 9.1477e-41
1.13 1.62 2.33 9.1477e-41
1.16 1.62 2.3 9.1477e-41
1.78 1.62 2.96 9.1477e-41
1.79 1.62 2.92 9.1477e-41
1.81 1.62 2.9 9.1477e-41
1.81 1.62 2.85 9.1477e-41
1.84 1.62 2.84 9.1477e-41
1.84 1.62 2.78 9.1477e-41
1.85 1.62 2.75 9.1477e-41
1.86 1.62 2.71 9.1477e-41
1.88 1.62 2.68 9.1477e-41
1.9 1.62 2.66 9.1477e-41
1.93 1.62 2.65 9.1477e-41
1.97 1.62 2.64 9.1477e-41
2 1.62 2.63 9.1477e-41
2.03 1.62 2.62 9.1477e-41
2.07 1.62 2.61 9.1477e-41
2.1 1.62 2.61 9.1477e-41
1.83 1.62 2.12 9.1477e-41
1.82 1.62 2.04 9.1477e-41
1.82 1.62 1.97 9.1477e-41
1.81 1.62 1.88 9.1477e-41
1.81 1.62 1.8 9.1477e-41
1.82 1.62 1.73 9.1477e-41
1.81 1.62 1.64 9.1477e-41
1.81 1.62 1.55 9.1477e-41
1.81 1.62 1.47 9.1477e-41
1.83 1.62 1.41 9.1477e-41
1.83 1.62 1.33 9.1477e-41
1.82 1.62 1.2 9.1477e-41
1.81 1.62 1.1 9.1477e-41
1.82 1.62 1.01 9.1477e-41
1.78 1.62 0.83 9.1477e-41
1.87 1.62 0.91 9.1477e-41
2.07 1.62 1.01 9.1477e-41
2.12 1.62 1.03 9.1477e-41
2.17 1.62 1.02 9.1477e-41
2.22 1.62 1.03 9.1477e-41
2.26 1.62 1.02 9.1477e-41
2.3 1.62 1 9.1477e-41
2.32 1.62 0.94 9.1477e-41
2.38 1.62 0.96 9.1477e-41
2.33 1.62 0.7 9.1477e-41
2.51 1.62 1.07 9.1477e-41
2.62 1.62 1.26 9.1477e-41
2.65 1.62 1.23 9.1477e-41
2.64 1.62 1.07 9.1477e-41
2.65 1.62 0.96 9.1477e-41
2.67 1.62 0.86 9.1477e-41
2.75 1.62 0.97 9.1477e-41
2.81 1.62 1.03 9.1477e-41
2.85 1.62 1.03 9.1477e-41
2.89 1.62 1.02 9.1477e-41
2.94 1.62 1.03 9.1477e-41
2.98 1.62 1.02 9.1477e-41
3.02 1.62 1 9.1477e-41
3.06 1.62 1 9.1477e-41
3.1 1.62 0.99 9.1477e-41
3.14 1.62 0.97 9.1477e-41
3.18 1.62 0.96 9.1477e-41
3.22 1.62 0.96 9.1477e-41
3.26 1.62 0.93 9.1477e-41
3.3 1.62 0.91 9.1477e-41
3.33 1.62 0.82 9.1477e-41
1.06 1.64 3.39 9.1477e-41
1.1 1.64 3.38 9.1477e-41
1.16 1.64 3.38 9.1477e-41
1.2 1.64 3.37 9.1477e-41
1.24 1.64 3.37 9.1477e-41
1.31 1.64 3.38 9.1477e-41
1.35 1.64 3.37 9.1477e-41
1.4 1.64 3.37 9.1477e-41
1.43 1.64 3.36 9.1477e-41
1.47 1.64 3.36 9.1477e-41
1.53 1.64 3.37 9.1477e-41
1.57 1.64 3.36 9.1477e-41
1.59 1.64 3.34 9.1477e-41
1.63 1.64 3.33 9.1477e-41
1.66 1.64 3.32 9.1477e-41
1.68 1.64 3.31 9.1477e-41
1.66 1.64 3.24 9.1477e-41
1.8 1.64 3.34 9.1477e-41
1.84 1.64 3.34 9.1477e-41
1.88 1.64 3.34 9.1477e-41
1.89 1.64 3.31 9.1477e-41
1.87 1.64 3.25 9.1477e-41
1.89 1.64 3.22 9.1477e-41
1.89 1.64 3.18 9.1477e-41
1.88 1.64 3.13 9.1477e-41
1.88 1.64 3.08 9.1477e-41
1.88 1.64 3.03 9.1477e-41
1.88 1.64 2.99 9.1477e-41
1.88 1.64 2.94 9.1477e-41
1.89 1.64 2.9 9.1477e-41
1.88 1.64 2.85 9.1477e-41
1.88 1.64 2.79 9.1477e-41
1.89 1.64 2.74 9.1477e-41
1.9 1.64 2.71 9.1477e-41
1.9 1.64 2.65 9.1477e-41
1.89 1.64 2.59 9.1477e-41
1.9 1.64 2.54 9.1477e-41
1.9 1.64 2.48 9.1477e-41
1.89 1.64 2.41 9.1477e-41
1.89 1.64 2.34 9.1477e-41
1.88 1.64 2.27 9.1477e-41
1.85 1.64 2.16 9.1477e-41
1.85 1.64 2.09 9.1477e-41
1.86 1.64 2.09 3.57e-43
1.81 1.64 2.09 3.57e-43
1.81 1.64 1.8 9.1477e-41
2.53 1.64 2.96 9.1477e-41
2.54 1.64 2.93 9.1477e-41
2.56 1.64 2.9 9.1477e-41
2.56 1.64 2.85 9.1477e-41
2.58 1.64 2.82 9.1477e-41
2.59 1.64 2.78 9.1477e-41
2.6 1.64 2.74 9.1477e-41
2.62 1.64 2.71 9.1477e-41
2.63 1.64 2.67 9.1477e-41
2.66 1.64 2.66 9.1477e-41
2.69 1.64 2.66 9.1477e-41
2.71 1.64 2.64 9.1477e-41
2.74 1.64 2.63 9.1477e-41
2.05 1.64 0.97 9.1477e-41
2.1 1.64 0.97 9.1477e-41
2.14 1.64 0.96 9.1477e-41
2.84 1.64 2.56 9.1477e-41
2.61 1.64 1.91 9.1477e-41
2.89 1.64 2.53 9.1477e-41
2.91 1.64 2.51 9.1477e-41
2.9 1.64 2.39 9.1477e-41
2.6 1.64 1.45 9.1477e-41
2.62 1.64 1.26 9.1477e-41
2.65 1.64 1.24 9.1477e-41
2.65 1.64 1.08 9.1477e-41
2.66 1.64 0.98 9.1477e-41
2.67 1.64 0.88 9.1477e-41
2.74 1.64 0.96 9.1477e-41
2.81 1.64 1.03 9.1477e-41
2.85 1.64 1.03 9.1477e-41
2.89 1.64 1.03 9.1477e-41
2.93 1.64 1.02 9.1477e-41
2.98 1.64 1.02 9.1477e-41
3.02 1.64 1.02 9.1477e-41
3.06 1.64 1.02 9.1477e-41
3.1 1.64 1.01 9.1477e-41
3.15 1.64 1.01 9.1477e-41
3.19 1.64 1.03 9.1477e-41
3.23 1.64 1.01 9.1477e-41
3.27 1.64 1.02 9.1477e-41
3.31 1.64 1 9.1477e-41
3.34 1.64 0.88 9.1477e-41
1.01 1.66 3.35 9.1477e-41
1.02 1.66 3.31 9.1477e-41
1.02 1.66 3.27 9.1477e-41
1.04 1.66 3.24 9.1477e-41
1.06 1.66 3.22 9.1477e-41
1.1 1.66 3.21 9.1477e-41
1.08 1.66 3.14 9.1477e-41
1.03 1.66 3.06 9.1477e-41
0.97 1.66 2.96 9.1477e-41
0.96 1.66 2.9 9.1477e-41
0.97 1.66 2.86 9.1477e-41
1.59 1.66 3.38 9.1477e-41
0.98 1.66 2.77 9.1477e-41
1.68 1.66 3.38 9.1477e-41
1.65 1.66 3.31 9.1477e-41
0.98 1.66 2.61 9.1477e-41
1 1.66 2.58 9.1477e-41
0.97 1.66 2.49 9.1477e-41
1.87 1.66 3.37 9.1477e-41
1.91 1.66 3.38 9.1477e-41
1.95 1.66 3.37 9.1477e-41
1.98 1.66 3.37 9.1477e-41
2.02 1.66 3.37 9.1477e-41
2.05 1.66 3.37 9.1477e-41
2.09 1.66 3.37 9.1477e-41
2.12 1.66 3.36 9.1477e-41
2.16 1.66 3.37 9.1477e-41
2.19 1.66 3.36 9.1477e-41
2.21 1.66 3.35 9.1477e-41
2.25 1.66 3.35 9.1477e-41
2.28 1.66 3.36 9.1477e-41
2.31 1.66 3.34 9.1477e-41
2.32 1.66 3.32 9.1477e-41
2.35 1.66 3.32 9.1477e-41
2.39 1.66 3.33 9.1477e-41
2.42 1.66 3.32 9.1477e-41
2.44 1.66 3.32 9.1477e-41
2.46 1.66 3.29 9.1477e-41
2.47 1.66 3.27 9.1477e-41
2.49 1.66 3.25 9.1477e-41
2.55 1.66 3.3 9.1477e-41
2.61 1.66 3.34 9.1477e-41
2.62 1.66 3.32 9.1477e-41
2.66 1.66 3.33 9.1477e-41
2.66 1.66 3.29 9.1477e-41
2.66 1.66 3.24 9.1477e-41
2.66 1.66 3.18 9.1477e-41
2.66 1.66 3.13 9.1477e-41
2.66 1.66 3.09 9.1477e-41
2.66 1.66 3.03 9.1477e-41
2.66 1.66 2.97 9.1477e-41
2.65 1.66 2.91 9.1477e-41
2.66 1.66 2.86 9.1477e-41
2.65 1.66 2.78 9.1477e-41
2.65 1.66 2.72 9.1477e-41
2.66 1.66 2.66 9.1477e-41
2.66 1.66 2.59 9.1477e-41
2.66 1.66 2.53 9.1477e-41
2.66 1.66 2.45 9.1477e-41
2.67 1.66 2.39 9.1477e-41
2.66 1.66 2.31 9.1477e-41
2.65 1.66 2.18 9.1477e-41
2.85 1.66 2.59 9.1477e-41
2.89 1.66 2.61 9.1477e-41
2.92 1.66 2.6 9.1477e-41
2.94 1.66 2.58 9.1477e-41
2.98 1.66 2.6 9.1477e-41
3 1.66 2.57 9.1477e-41
3.03 1.66 2.57 9.1477e-41
3.04 1.66 2.53 9.1477e-41
3.11 1.66 2.64 9.1477e-41
3.14 1.66 2.64 9.1477e-41
3.17 1.66 2.64 9.1477e-41
3.2 1.66 2.65 9.1477e-41
3.22 1.66 2.64 9.1477e-41
3.25 1.66 2.64 9.1477e-41
3.28 1.66 2.65 9.1477e-41
3.32 1.66 2.66 9.1477e-41
3.35 1.66 2.68 9.1477e-41
3.36 1.66 2.68 3.57e-43
3.02 1.66 2.68 3.57e-43
3.06 1.66 2.68 3.57e-43
3.1 1.66 1.01 9.1477e-41
3.14 1.66 1 9.1477e-41
3.19 1.66 1.01 9.1477e-41
3.22 1.66 0.96 9.1477e-41
3.38 1.66 1.6 9.1477e-41
3.39 1.66 1.44 9.1477e-41
3.34 1.66 0.89 9.1477e-41
1 1.68 3.35 9.1477e-41
1 1.68 3.3 9.1477e-41
1.01 1.68 3.26 9.1477e-41
1 1.68 3.22 9.1477e-41
1.02 1.68 3.18 9.1477e-41
1.03 1.68 3.15 9.1477e-41
1.03 1.68 3.1 9.1477e-41
1.02 1.68 3.05 9.1477e-41
1 1.68 2.99 9.1477e-41
0.99 1.68 2.93 9.1477e-41
1 1.68 2.89 9.1477e-41
0.99 1.68 2.83 9.1477e-41
1.02 1.68 2.8 9.1477e-41
1 1.68 2.74 9.1477e-41
0.99 1.68 2.67 9.1477e-41
1.01 1.68 2.65 9.1477e-41
1.04 1.68 2.62 9.1477e-41
1.02 1.68 2.54 9.1477e-41
1.01 1.68 2.48 9.1477e-41
1 1.68 2.41 9.1477e-41
0.97 1.68 2.33 9.1477e-41
0.96 1.68 2.25 9.1477e-41
0.94 1.68 2.17 9.1477e-41
0.95 1.68 2.12 9.1477e-41
0.94 1.68 2.04 9.1477e-41
0.94 1.68 1.98 9.1477e-41
0.94 1.68 1.91 9.1477e-41
0.94 1.68 1.85 9.1477e-41
0.95 1.68 1.8 9.1477e-41
0.96 1.68 1.74 9.1477e-41
0.97 1.68 1.67 9.1477e-41
0.95 1.68 1.58 9.1477e-41
0.94 1.68 1.49 9.1477e-41
0.95 1.68 1.43 9.1477e-41
0.96 1.68 1.35 9.1477e-41
2.45 1.68 3.36 9.1477e-41
1.07 1.68 1.35 9.1477e-41
1.11 1.68 1.33 9.1477e-41
2.54 1.68 3.37 9.1477e-41
2.57 1.68 3.37 9.1477e-41
2.59 1.68 3.36 9.1477e-41
2.63 1.68 3.37 9.1477e-41
2.65 1.68 3.37 9.1477e-41
2.68 1.68 3.36 9.1477e-41
2.7 1.68 3.36 9.1477e-41
2.74 1.68 3.37 9.1477e-41
2.76 1.68 3.36 9.1477e-41
2.79 1.68 3.36 9.1477e-41
2.81 1.68 3.36 9.1477e-41
2.83 1.68 3.35 9.1477e-41
2.86 1.68 3.35 9.1477e-41
2.88 1.68 3.34 9.1477e-41
2.91 1.68 3.34 9.1477e-41
2.93 1.68 3.33 9.1477e-41
2.95 1.68 3.32 9.1477e-41
2.97 1.68 3.32 9.1477e-41
2.99 1.68 3.31 9.1477e-41
3.01 1.68 3.29 9.1477e-41
3.03 1.68 3.27 9.1477e-41
3.04 1.68 3.24 9.1477e-41
3.06 1.68 3.23 9.1477e-41
3.06 1.68 3.17 9.1477e-41
3.03 1.68 3.04 9.1477e-41
3.01 1.68 2.93 9.1477e-41
3.01 1.68 2.84 9.1477e-41
3.01 1.68 2.84 3.57e-43
2.98 1.68 2.6 9.1477e-41
3 1.68 2.58 9.1477e-41
3.13 1.68 2.88 9.1477e-41
3.15 1.68 2.86 9.1477e-41
3.16 1.68 2.8 9.1477e-41
3.17 1.68 2.75 9.1477e-41
3.17 1.68 2.64 9.1477e-41
3.4 1.68 3.32 9.1477e-41
3.42 1.68 3.31 9.1477e-41
3.41 1.68 3.22 9.1477e-41
3.41 1.68 3.12 9.1477e-41
3.39 1.68 2.96 9.1477e-41
3.39 1.68 2.86 9.1477e-41
3.4 1.68 2.79 9.1477e-41
3.41 1.68 2.69 9.1477e-41
3.4 1.68 2.56 9.1477e-41
3.4 1.68 2.43 9.1477e-41
3.41 1.68 2.3 9.1477e-41
3.42 1.68 2.18 9.1477e-41
3.42 1.68 2.03 9.1477e-41
3.42 1.68 1.86 9.1477e-41
3.43 1.68 1.7 9.1477e-41
3.43 1.68 1.48 9.1477e-41
1.03 1.7 3.36 9.1477e-41
1.02 1.7 3.32 9.1477e-41
1.02 1.7 3.27 9.1477e-41
1.03 1.7 3.23 9.1477e-41
1.03 1.7 3.19 9.1477e-41
1.02 1.7 3.14 9.1477e-41
1.02 1.7 3.1 9.1477e-41
1.02 1.7 3.05 9.1477e-41
1.02 1.7 3 9.1477e-41
1.02 1.7 2.95 9.1477e-41
1.02 1.7 2.9 9.1477e-41
1.01 1.7 2.85 9.1477e-41
1.02 1.7 2.81 9.1477e-41
1.02 1.7 2.76 9.1477e-41
1.02 1.7 2.7 9.1477e-41
1.01 1.7 2.65 9.1477e-41
1.03 1.7 2.61 9.1477e-41
1.02 1.7 2.54 9.1477e-41
1.01 1.7 2.48 9.1477e-41
1.01 1.7 2.43 9.1477e-41
1.01 1.7 2.36 9.1477e-41
1 1.7 2.3 9.1477e-41
1 1.7 2.24 9.1477e-41
1.01 1.7 2.18 9.1477e-41
1 1.7 2.11 9.1477e-41
1 1.7 2.05 9.1477e-41
1 1.7 1.98 9.1477e-41
1 1.7 1.92 9.1477e-41
1 1.7 1.85 9.1477e-41
1 1.7 1.79 9.1477e-41
1 1.7 1.71 9.1477e-41
1 1.7 1.64 9.1477e-41
1 1.7 1.56 9.1477e-41
0.99 1.7 1.48 9.1477e-41
0.99 1.7 1.4 9.1477e-41
1.03 1.7 1.38 9.1477e-41
1.1 1.7 1.39 9.1477e-41
1.15 1.7 1.39 9.1477e-41
1.2 1.7 1.39 9.1477e-41
1.26 1.7 1.4 9.1477e-41
1.31 1.7 1.39 9.1477e-41
1.37 1.7 1.39 9.1477e-41
1.41 1.7 1.38 9.1477e-41
1.45 1.7 1.35 9.1477e-41
1.49 1.7 1.35 9.1477e-41
1.54 1.7 1.34 9.1477e-41
1.59 1.7 1.34 9.1477e-41
1.64 1.7 1.33 9.1477e-41
1.69 1.7 1.34 9.1477e-41
1.73 1.7 1.32 9.1477e-41
1.79 1.7 1.33 9.1477e-41
1.83 1.7 1.33 9.1477e-41
1.87 1.7 1.32 9.1477e-41
1.92 1.7 1.32 9.1477e-41
1.97 1.7 1.32 9.1477e-41
2.01 1.7 1.31 9.1477e-41
2.06 1.7 1.32 9.1477e-41
2.11 1.7 1.33 9.1477e-41
2.15 1.7 1.32 9.1477e-41
2.2 1.7 1.31 9.1477e-41
2.25 1.7 1.32 9.1477e-41
3.13 1.7 3.36 9.1477e-41
3.16 1.7 3.36 9.1477e-41
3.18 1.7 3.36 9.1477e-41
3.21 1.7 3.36 9.1477e-41
3.23 1.7 3.35 9.1477e-41
3.25 1.7 3.35 9.1477e-41
3.27 1.7 3.36 9.1477e-41
3.29 1.7 3.35 9.1477e-41
3.32 1.7 3.35 9.1477e-41
3.34 1.7 3.34 9.1477e-41
3.36 1.7 3.35 9.1477e-41
3.38 1.7 3.35 9.1477e-41
3.41 1.7 3.35 9.1477e-41
3.43 1.7 3.36 9.1477e-41
3.45 1.7 3.35 9.1477e-41
3.47 1.7 3.33 9.1477e-41
3.47 1.7 3.25 9.1477e-41
3.47 1.7 3.17 9.1477e-41
3.47 1.7 3.07 9.1477e-41
3.47 1.7 2.96 9.1477e-41
3.47 1.7 2.84 9.1477e-41
3.46 1.7 2.7 9.1477e-41
3.46 1.7 2.57 9.1477e-41
3.46 1.7 2.41 9.1477e-41
3.46 1.7 2.23 9.1477e-41
3.45 1.7 2.02 9.1477e-41
3.45 1.7 1.81 9.1477e-41
3.44 1.7 1.56 9.1477e-41
1 1.72 2.18 9.1477e-41
1 1.72 2.12 9.1477e-41
1 1.72 2.05 9.1477e-41
1 1.72 1.99 9.1477e-41
1 1.72 1.92 9.1477e-41
1 1.72 1.85 9.1477e-41
0.99 1.72 1.78 9.1477e-41
0.99 1.72 1.7 9.1477e-41
0.99 1.72 1.63 9.1477e-41
0.99 1.72 1.55 9.1477e-41
0.99 1.72 1.48 9.1477e-41
0.99 1.72 1.4 9.1477e-41
1.04 1.72 1.39 9.1477e-41
1.1 1.72 1.4 9.1477e-41
1.14 1.72 1.38 9.1477e-41
1.2 1.72 1.38 9.1477e-41
1.26 1.72 1.39 9.1477e-41
1.31 1.72 1.38 9.1477e-41
1.36 1.72 1.38 9.1477e-41
1.41 1.72 1.38 9.1477e-41
1.47 1.72 1.39 9.1477e-41
1.51 1.72 1.38 9.1477e-41
1.56 1.72 1.38 9.1477e-41
1.62 1.72 1.38 9.1477e-41
1.66 1.72 1.38 9.1477e-41
1.72 1.72 1.39 9.1477e-41
1.76 1.72 1.38 9.1477e-41
1.81 1.72 1.38 9.1477e-41
1.86 1.72 1.37 9.1477e-41
1.91 1.72 1.39 9.1477e-41
1.95 1.72 1.38 9.1477e-41
2 1.72 1.37 9.1477e-41
2.05 1.72 1.38 9.1477e-41
2.09 1.72 1.37 9.1477e-41
2.14 1.72 1.38 9.1477e-41
2.18 1.72 1.37 9.1477e-41
2.22 1.72 1.37 9.1477e-41
2.27 1.72 1.37 9.1477e-41
2.31 1.72 1.36 9.1477e-41
2.35 1.72 1.36 9.1477e-41
2.4 1.72 1.38 9.1477e-41
2.44 1.72 1.36 9.1477e-41
2.48 1.72 1.37 9.1477e-41
2.53 1.72 1.37 9.1477e-41
2.57 1.72 1.36 9.1477e-41
2.6 1.72 1.34 9.1477e-41
2.64 1.72 1.31 9.1477e-41
2.68 1.72 1.31 9.1477e-41
2.72 1.72 1.32 9.1477e-41
2.76 1.72 1.3 9.1477e-41
2.8 1.72 1.3 9.1477e-41
2.84 1.72 1.3 9.1477e-41
2.88 1.72 1.3 9.1477e-41
2.91 1.72 1.27 9.1477e-41
3.48 1.72 3.28 9.1477e-41
3.47 1.72 3.17 9.1477e-41
3.47 1.72 3.07 9.1477e-41
3.47 1.72 2.97 9.1477e-41
3.47 1.72 2.84 9.1477e-41
3.46 1.72 2.7 9.1477e-41
3.46 1.72 2.56 9.1477e-41
3.46 1.72 2.4 9.1477e-41
3.46 1.72 2.22 9.1477e-41
3.45 1.72 2.02 9.1477e-41
3.45 1.72 1.8 9.1477e-41
3.44 1.72 1.52 9.1477e-41
1.01 1.74 2.18 9.1477e-41
1 1.74 2.11 9.1477e-41
1 1.74 2.06 9.1477e-41
1 1.74 1.98 9.1477e-41
0.99 1.74 1.91 9.1477e-41
0.99 1.74 1.84 9.1477e-41
0.99 1.74 1.78 9.1477e-41
0.99 1.74 1.7 9.1477e-41
0.99 1.74 1.63 9.1477e-41
0.99 1.74 1.55 9.1477e-41
0.98 1.74 1.47 9.1477e-41
0.99 1.74 1.4 9.1477e-41
1.04 1.74 1.39 9.1477e-41
1.1 1.74 1.39 9.1477e-41
1.15 1.74 1.39 9.1477e-41
1.2 1.74 1.38 9.1477e-41
1.26 1.74 1.39 9.1477e-41
1.31 1.74 1.38 9.1477e-41
1.37 1.74 1.39 9.1477e-41
1.41 1.74 1.38 9.1477e-41
1.47 1.74 1.39 9.1477e-41
1.51 1.74 1.38 9.1477e-41
1.56 1.74 1.38 9.1477e-41
1.62 1.74 1.38 9.1477e-41
1.66 1.74 1.38 9.1477e-41
1.71 1.74 1.38 9.1477e-41
1.76 1.74 1.38 9.1477e-41
1.81 1.74 1.38 9.1477e-41
1.86 1.74 1.37 9.1477e-41
1.91 1.74 1.38 9.1477e-41
1.95 1.74 1.37 9.1477e-41
2 1.74 1.38 9.1477e-41
2.05 1.74 1.38 9.1477e-41
2.09 1.74 1.37 9.1477e-41
2.13 1.74 1.37 9.1477e-41
2.18 1.74 1.37 9.1477e-41
2.22 1.74 1.36 9.1477e-41
2.27 1.74 1.37 9.1477e-41
2.32 1.74 1.38 9.1477e-41
2.35 1.74 1.36 9.1477e-41
2.4 1.74 1.37 9.1477e-41
2.44 1.74 1.36 9.1477e-41
2.48 1.74 1.37 9.1477e-41
2.53 1.74 1.36 9.1477e-41
2.57 1.74 1.37 9.1477e-41
2.61 1.74 1.37 9.1477e-41
2.65 1.74 1.37 9.1477e-41
2.7 1.74 1.37 9.1477e-41
2.73 1.74 1.35 9.1477e-41
2.78 1.74 1.36 9.1477e-41
2.82 1.74 1.36 9.1477e-41
2.86 1.74 1.37 9.1477e-41
2.9 1.74 1.35 9.1477e-41
2.92 1.74 1.3 9.1477e-41
3.48 1.74 3.28 9.1477e-41
3.47 1.74 3.17 9.1477e-41
3.47 1.74 3.08 9.1477e-41
3.47 1.74 2.97 9.1477e-41
3.47 1.74 2.84 9.1477e-41
3.47 1.74 2.71 9.1477e-41
3.46 1.74 2.55 9.1477e-41
3.46 1.74 2.4 9.1477e-41
3.45 1.74 2.21 9.1477e-41
3.45 1.74 2.03 9.1477e-41
3.45 1.74 1.81 9.1477e-41
3.44 1.74 1.53 9.1477e-41
1 1.76 2.18 9.1477e-41
1 1.76 2.12 9.1477e-41
1 1.76 2.05 9.1477e-41
1 1.76 1.98 9.1477e-41
1 1.76 1.92 9.1477e-41
1 1.76 1.85 9.1477e-41
0.99 1.76 1.78 9.1477e-41
0.99 1.76 1.7 9.1477e-41
0.98 1.76 1.62 9.1477e-41
0.99 1.76 1.55 9.1477e-41
0.99 1.76 1.48 9.1477e-41
0.99 1.76 1.4 9.1477e-41
1.04 1.76 1.39 9.1477e-41
1.1 1.76 1.39 9.1477e-41
1.15 1.76 1.39 9.1477e-41
1.21 1.76 1.4 9.1477e-41
1.25 1.76 1.38 9.1477e-41
1.31 1.76 1.39 9.1477e-41
1.36 1.76 1.38 9.1477e-41
1.41 1.76 1.38 9.1477e-41
1.47 1.76 1.39 9.1477e-41
1.51 1.76 1.38 9.1477e-41
1.57 1.76 1.38 9.1477e-41
1.62 1.76 1.38 9.1477e-41
1.67 1.76 1.38 9.1477e-41
1.71 1.76 1.38 9.1477e-41
1.77 1.76 1.39 9.1477e-41
1.81 1.76 1.38 9.1477e-41
1.86 1.76 1.37 9.1477e-41
1.9 1.76 1.37 9.1477e-41
1.95 1.76 1.37 9.1477e-41
2 1.76 1.38 9.1477e-41
2.04 1.76 1.37 9.1477e-41
2.09 1.76 1.38 9.1477e-41
2.13 1.76 1.37 9.1477e-41
2.18 1.76 1.36 9.1477e-41
2.22 1.76 1.37 9.1477e-41
2.27 1.76 1.38 9.1477e-41
2.31 1.76 1.37 9.1477e-41
2.35 1.76 1.35 9.1477e-41
2.39 1.76 1.36 9.1477e-41
2.44 1.76 1.36 9.1477e-41
2.48 1.76 1.37 9.1477e-41
2.53 1.76 1.37 9.1477e-41
2.57 1.76 1.37 9.1477e-41
2.61 1.76 1.36 9.1477e-41
2.65 1.76 1.36 9.1477e-41
2.7 1.76 1.37 9.1477e-41
2.74 1.76 1.36 9.1477e-41
2.78 1.76 1.37 9.1477e-41
2.82 1.76 1.36 9.1477e-41
2.86 1.76 1.37 9.1477e-41
2.88 1.76 1.29 9.1477e-41
3.47 1.76 3.35 9.1477e-41
3.47 1.76 3.27 9.1477e-41
3.47 1.76 3.18 9.1477e-41
3.47 1.76 3.07 9.1477e-41
3.47 1.76 2.98 9.1477e-41
3.47 1.76 2.84 9.1477e-41
3.47 1.76 2.71 9.1477e-41
3.46 1.76 2.56 9.1477e-41
3.46 1.76 2.4 9.1477e-41
3.46 1.76 2.24 9.1477e-41
3.45 1.76 2.03 9.1477e-41
3.45 1.76 1.81 9.1477e-41
3.44 1.76 1.55 9.1477e-41
1 1.78 2.18 9.1477e-41
1 1.78 2.12 9.1477e-41
1 1.78 2.05 9.1477e-41
1 1.78 1.99 9.1477e-41
1 1.78 1.92 9.1477e-41
1 1.78 1.85 9.1477e-41
0.99 1.78 1.78 9.1477e-41
0.99 1.78 1.7 9.1477e-41
0.98 1.78 1.62 9.1477e-41
0.98 1.78 1.55 9.1477e-41
0.98 1.78 1.47 9.1477e-41
0.99 1.78 1.4 9.1477e-41
1.04 1.78 1.39 9.1477e-41
1.1 1.78 1.39 9.1477e-41
1.15 1.78 1.39 9.1477e-41
1.2 1.78 1.39 9.1477e-41
1.26 1.78 1.39 9.1477e-41
1.31 1.78 1.38 9.1477e-41
1.36 1.78 1.38 9.1477e-41
1.41 1.78 1.38 9.1477e-41
1.46 1.78 1.38 9.1477e-41
1.51 1.78 1.38 9.1477e-41
1.57 1.78 1.38 9.1477e-41
1.62 1.78 1.38 9.1477e-41
1.66 1.78 1.38 9.1477e-41
1.71 1.78 1.37 9.1477e-41
1.76 1.78 1.38 9.1477e-41
1.81 1.78 1.38 9.1477e-41
1.86 1.78 1.38 9.1477e-41
1.9 1.78 1.37 9.1477e-41
1.95 1.78 1.38 9.1477e-41
2 1.78 1.37 9.1477e-41
2.05 1.78 1.38 9.1477e-41
2.09 1.78 1.37 9.1477e-41
2.13 1.78 1.37 9.1477e-41
2.18 1.78 1.37 9.1477e-41
2.22 1.78 1.36 9.1477e-41
2.27 1.78 1.37 9.1477e-41
2.31 1.78 1.37 9.1477e-41
2.35 1.78 1.36 9.1477e-41
2.4 1.78 1.37 9.1477e-41
2.44 1.78 1.36 9.1477e-41
2.48 1.78 1.37 9.1477e-41
2.53 1.78 1.36 9.1477e-41
2.56 1.78 1.35 9.1477e-41
2.61 1.78 1.36 9.1477e-41
2.65 1.78 1.36 9.1477e-41
2.69 1.78 1.36 9.1477e-41
2.74 1.78 1.36 9.1477e-41
2.78 1.78 1.36 9.1477e-41
2.82 1.78 1.36 9.1477e-41
2.84 1.78 1.31 9.1477e-41
2.88 1.78 1.29 9.1477e-41
3.47 1.78 3.33 9.1477e-41
3.46 1.78 3.24 9.1477e-41
3.46 1.78 3.12 9.1477e-41
3.47 1.78 3.08 9.1477e-41
3.47 1.78 2.95 9.1477e-41
3.44 1.78 2.74 9.1477e-41
3.46 1.78 2.69 9.1477e-41
3.46 1.78 2.56 9.1477e-41
3.25 1.78 1.33 9.1477e-41
3.44 1.78 2.15 9.1477e-41
3.45 1.78 2.04 9.1477e-41
3.43 1.78 1.73 9.1477e-41
3.46 1.78 1.64 9.1477e-41
1 1.8 2.18 9.1477e-41
1 1.8 2.12 9.1477e-41
1 1.8 2.05 9.1477e-41
1 1.8 1.98 9.1477e-41
1 1.8 1.92 9.1477e-41
0.99 1.8 1.84 9.1477e-41
0.99 1.8 1.77 9.1477e-41
0.99 1.8 1.7 9.1477e-41
0.98 1.8 1.62 9.1477e-41
0.98 1.8 1.55 9.1477e-41
0.98 1.8 1.47 9.1477e-41
0.99 1.8 1.4 9.1477e-41
1.04 1.8 1.39 9.1477e-41
1.09 1.8 1.38 9.1477e-41
1.14 1.8 1.38 9.1477e-41
1.2 1.8 1.39 9.1477e-41
1.26 1.8 1.39 9.1477e-41
1.31 1.8 1.38 9.1477e-41
1.37 1.8 1.39 9.1477e-41
1.41 1.8 1.38 9.1477e-41
1.47 1.8 1.39 9.1477e-41
1.51 1.8 1.38 9.1477e-41
1.56 1.8 1.38 9.1477e-41
1.62 1.8 1.38 9.1477e-41
1.66 1.8 1.38 9.1477e-41
1.71 1.8 1.38 9.1477e-41
1.76 1.8 1.38 9.1477e-41
1.81 1.8 1.38 9.1477e-41
1.86 1.8 1.38 9.1477e-41
1.91 1.8 1.38 9.1477e-41
1.95 1.8 1.38 9.1477e-41
2 1.8 1.37 9.1477e-41
2.05 1.8 1.38 9.1477e-41
2.09 1.8 1.38 9.1477e-41
2.13 1.8 1.36 9.1477e-41
2.18 1.8 1.38 9.1477e-41
2.22 1.8 1.37 9.1477e-41
2.27 1.8 1.37 9.1477e-41
2.31 1.8 1.37 9.1477e-41
2.35 1.8 1.36 9.1477e-41
2.4 1.8 1.37 9.1477e-41
2.44 1.8 1.36 9.1477e-41
2.48 1.8 1.37 9.1477e-41
2.53 1.8 1.36 9.1477e-41
2.57 1.8 1.36 9.1477e-41
2.61 1.8 1.36 9.1477e-41
2.65 1.8 1.36 9.1477e-41
2.69 1.8 1.36 9.1477e-41
2.74 1.8 1.36 9.1477e-41
2.78 1.8 1.36 9.1477e-41
2.82 1.8 1.36 9.1477e-41
2.86 1.8 1.36 9.1477e-41
2.89 1.8 1.34 9.1477e-41
2.94 1.8 1.35 9.1477e-41
2.98 1.8 1.35 9.1477e-41
3.01 1.8 1.31 9.1477e-41
3.04 1.8 1.3 9.1477e-41
3.09 1.8 1.32 9.1477e-41
3.14 1.8 1.35 9.1477e-41
3.17 1.8 1.31 9.1477e-41
3.21 1.8 1.32 9.1477e-41
3.39 1.8 2.02 9.1477e-41
3.44 1.8 2.14 9.1477e-41
3.46 1.8 2.05 9.1477e-41
3.44 1.8 1.78 9.1477e-41
3.44 1.8 1.55 9.1477e-41
1.01 1.82 2.18 9.1477e-41
1 1.82 2.11 9.1477e-41
1 1.82 2.05 9.1477e-41
1 1.82 1.99 9.1477e-41
0.99 1.82 1.91 9.1477e-41
1 1.82 1.85 9.1477e-41
0.99 1.82 1.78 9.1477e-41
0.99 1.82 1.7 9.1477e-41
0.99 1.82 1.63 9.1477e-41
0.99 1.82 1.55 9.1477e-41
0.98 1.82 1.47 9.1477e-41
0.99 1.82 1.4 9.1477e-41
1.05 1.82 1.4 9.1477e-41
1.1 1.82 1.39 9.1477e-41
1.15 1.82 1.39 9.1477e-41
1.2 1.82 1.39 9.1477e-41
1.25 1.82 1.38 9.1477e-41
1.31 1.82 1.38 9.1477e-41
1.36 1.82 1.38 9.1477e-41
1.41 1.82 1.38 9.1477e-41
1.46 1.82 1.38 9.1477e-41
1.51 1.82 1.37 9.1477e-41
1.57 1.82 1.38 9.1477e-41
1.62 1.82 1.38 9.1477e-41
1.66 1.82 1.38 9.1477e-41
1.7 1.82 1.36 9.1477e-41
1.76 1.82 1.37 9.1477e-41
1.81 1.82 1.38 9.1477e-41
1.85 1.82 1.36 9.1477e-41
1.91 1.82 1.38 9.1477e-41
1.95 1.82 1.37 9.1477e-41
2 1.82 1.37 9.1477e-41
2.04 1.82 1.37 9.1477e-41
2.09 1.82 1.37 9.1477e-41
2.13 1.82 1.37 9.1477e-41
2.18 1.82 1.36 9.1477e-41
2.22 1.82 1.37 9.1477e-41
2.27 1.82 1.37 9.1477e-41
2.31 1.82 1.37 9.1477e-41
2.35 1.82 1.36 9.1477e-41
2.4 1.82 1.37 9.1477e-41
2.44 1.82 1.36 9.1477e-41
2.48 1.82 1.37 9.1477e-41
2.53 1.82 1.37 9.1477e-41
2.57 1.82 1.37 9.1477e-41
2.61 1.82 1.36 9.1477e-41
2.65 1.82 1.36 9.1477e-41
2.69 1.82 1.36 9.1477e-41
2.73 1.82 1.35 9.1477e-41
2.78 1.82 1.36 9.1477e-41
2.82 1.82 1.36 9.1477e-41
2.86 1.82 1.36 9.1477e-41
2.9 1.82 1.37 9.1477e-41
2.94 1.82 1.36 9.1477e-41
2.98 1.82 1.36 9.1477e-41
3.02 1.82 1.36 9.1477e-41
3.06 1.82 1.37 9.1477e-41
3.1 1.82 1.36 9.1477e-41
3.14 1.82 1.36 9.1477e-41
3.18 1.82 1.36 9.1477e-41
3.22 1.82 1.35 9.1477e-41
3.38 1.82 2.01 9.1477e-41
3.44 1.82 2.13 9.1477e-41
3.46 1.82 2.07 9.1477e-41
3.43 1.82 1.68 9.1477e-41
3.44 1.82 1.56 9.1477e-41
1.01 1.84 2.18 9.1477e-41
1 1.84 2.11 9.1477e-41
1 1.84 2.05 9.1477e-41
1 1.84 1.99 9.1477e-41
1 1.84 1.92 9.1477e-41
0.99 1.84 1.84 9.1477e-41
0.99 1.84 1.78 9.1477e-41
0.99 1.84 1.7 9.1477e-41
0.99 1.84 1.63 9.1477e-41
0.98 1.84 1.55 9.1477e-41
0.98 1.84 1.47 9.1477e-41
0.99 1.84 1.4 9.1477e-41
1.04 1.84 1.39 9.1477e-41
1.1 1.84 1.39 9.1477e-41
1.14 1.84 1.38 9.1477e-41
1.2 1.84 1.39 9.1477e-41
1.26 1.84 1.39 9.1477e-41
1.31 1.84 1.38 9.1477e-41
1.35 1.84 1.37 9.1477e-41
1.41 1.84 1.38 9.1477e-41
1.46 1.84 1.38 9.1477e-41
1.51 1.84 1.38 9.1477e-41
1.56 1.84 1.38 9.1477e-41
1.62 1.84 1.38 9.1477e-41
1.66 1.84 1.38 9.1477e-41
1.71 1.84 1.37 9.1477e-41
1.76 1.84 1.38 9.1477e-41
1.8 1.84 1.37 9.1477e-41
1.86 1.84 1.38 9.1477e-41
1.9 1.84 1.37 9.1477e-41
1.95 1.84 1.37 9.1477e-41
2 1.84 1.38 9.1477e-41
2.04 1.84 1.37 9.1477e-41
2.09 1.84 1.37 9.1477e-41
2.13 1.84 1.37 9.1477e-41
2.18 1.84 1.37 9.1477e-41
2.22 1.84 1.37 9.1477e-41
2.27 1.84 1.37 9.1477e-41
2.31 1.84 1.37 9.1477e-41
2.35 1.84 1.36 9.1477e-41
2.39 1.84 1.36 9.1477e-41
2.44 1.84 1.37 9.1477e-41
2.48 1.84 1.37 9.1477e-41
2.53 1.84 1.36 9.1477e-41
2.57 1.84 1.36 9.1477e-41
2.61 1.84 1.35 9.1477e-41
2.65 1.84 1.37 9.1477e-41
2.69 1.84 1.36 9.1477e-41
2.73 1.84 1.35 9.1477e-41
2.78 1.84 1.36 9.1477e-41
2.82 1.84 1.36 9.1477e-41
2.86 1.84 1.36 9.1477e-41
2.9 1.84 1.36 9.1477e-41
2.94 1.84 1.36 9.1477e-41
2.98 1.84 1.36 9.1477e-41
3.02 1.84 1.36 9.1477e-41
3.06 1.84 1.35 9.1477e-41
3.1 1.84 1.36 9.1477e-41
3.14 1.84 1.36 9.1477e-41
3.18 1.84 1.36 9.1477e-41
3.22 1.84 1.36 9.1477e-41
3.38 1.84 2.01 9.1477e-41
3.44 1.84 2.13 9.1477e-41
3.46 1.84 2.06 9.1477e-41
3.42 1.84 1.65 9.1477e-41
3.44 1.84 1.54 9.1477e-41
1 1.86 2.18 9.1477e-41
1 1.86 2.11 9.1477e-41
1 1.86 2.05 9.1477e-41
1 1.86 1.98 9.1477e-41
1 1.86 1.92 9.1477e-41
1 1.86 1.85 9.1477e-41
0.99 1.86 1.78 9.1477e-41
0.99 1.86 1.7 9.1477e-41
0.99 1.86 1.63 9.1477e-41
0.98 1.86 1.55 9.1477e-41
0.98 1.86 1.46 9.1477e-41
0.99 1.86 1.4 9.1477e-41
1.04 1.86 1.39 9.1477e-41
1.1 1.86 1.39 9.1477e-41
1.15 1.86 1.39 9.1477e-41
1.2 1.86 1.39 9.1477e-41
1.26 1.86 1.39 9.1477e-41
1.31 1.86 1.39 9.1477e-41
1.37 1.86 1.39 9.1477e-41
1.42 1.86 1.39 9.1477e-41
1.47 1.86 1.39 9.1477e-41
1.51 1.86 1.38 9.1477e-41
1.57 1.86 1.38 9.1477e-41
1.62 1.86 1.38 9.1477e-41
1.66 1.86 1.38 9.1477e-41
1.71 1.86 1.38 9.1477e-41
1.76 1.86 1.38 9.1477e-41
1.81 1.86 1.38 9.1477e-41
1.86 1.86 1.37 9.1477e-41
1.91 1.86 1.38 9.1477e-41
1.95 1.86 1.38 9.1477e-41
2 1.86 1.38 9.1477e-41
2.04 1.86 1.37 9.1477e-41
2.09 1.86 1.37 9.1477e-41
2.14 1.86 1.38 9.1477e-41
2.18 1.86 1.37 9.1477e-41
2.22 1.86 1.37 9.1477e-41
2.27 1.86 1.37 9.1477e-41
2.31 1.86 1.37 9.1477e-41
2.35 1.86 1.36 9.1477e-41
2.39 1.86 1.36 9.1477e-41
2.44 1.86 1.37 9.1477e-41
2.48 1.86 1.37 9.1477e-41
2.53 1.86 1.36 9.1477e-41
2.57 1.86 1.37 9.1477e-41
2.61 1.86 1.37 9.1477e-41
2.65 1.86 1.36 9.1477e-41
2.7 1.86 1.37 9.1477e-41
2.74 1.86 1.36 9.1477e-41
2.78 1.86 1.36 9.1477e-41
2.82 1.86 1.37 9.1477e-41
2.85 1.86 1.35 9.1477e-41
2.9 1.86 1.36 9.1477e-41
2.94 1.86 1.36 9.1477e-41
2.98 1.86 1.35 9.1477e-41
3.02 1.86 1.35 9.1477e-41
3.06 1.86 1.36 9.1477e-41
3.1 1.86 1.36 9.1477e-41
3.14 1.86 1.35 9.1477e-41
3.18 1.86 1.36 9.1477e-41
3.22 1.86 1.35 9.1477e-41
3.39 1.86 2.02 9.1477e-41
3.44 1.86 2.14 9.1477e-41
3.44 1.86 1.98 9.1477e-41
3.42 1.86 1.62 9.1477e-41
3.44 1.86 1.54 9.1477e-41
1 1.88 2.18 9.1477e-41
1 1.88 2.11 9.1477e-41
1 1.88 2.05 9.1477e-41
1 1.88 1.98 9.1477e-41
1 1.88 1.92 9.1477e-41
0.99 1.88 1.84 9.1477e-41
0.99 1.88 1.77 9.1477e-41
0.99 1.88 1.7 9.1477e-41
0.99 1.88 1.63 9.1477e-41
0.98 1.88 1.55 9.1477e-41
0.98 1.88 1.46 9.1477e-41
0.99 1.88 1.4 9.1477e-41
1.05 1.88 1.4 9.1477e-41
1.1 1.88 1.4 9.1477e-41
1.14 1.88 1.38 9.1477e-41
1.2 1.88 1.39 9.1477e-41
1.25 1.88 1.38 9.1477e-41
1.31 1.88 1.39 9.1477e-41
1.36 1.88 1.38 9.1477e-41
1.41 1.88 1.38 9.1477e-41
1.47 1.88 1.39 9.1477e-41
1.51 1.88 1.38 9.1477e-41
1.57 1.88 1.39 9.1477e-41
1.62 1.88 1.38 9.1477e-41
1.66 1.88 1.38 9.1477e-41
1.71 1.88 1.38 9.1477e-41
1.76 1.88 1.38 9.1477e-41
1.81 1.88 1.38 9.1477e-41
1.86 1.88 1.38 9.1477e-41
1.91 1.88 1.38 9.1477e-41
1.95 1.88 1.38 9.1477e-41
2 1.88 1.38 9.1477e-41
2.04 1.88 1.37 9.1477e-41
2.09 1.88 1.38 9.1477e-41
2.13 1.88 1.37 9.1477e-41
2.18 1.88 1.37 9.1477e-41
2.22 1.88 1.36 9.1477e-41
2.27 1.88 1.37 9.1477e-41
2.31 1.88 1.37 9.1477e-41
2.36 1.88 1.37 9.1477e-41
2.4 1.88 1.37 9.1477e-41
2.44 1.88 1.36 9.1477e-41
2.48 1.88 1.37 9.1477e-41
2.53 1.88 1.37 9.1477e-41
2.57 1.88 1.37 9.1477e-41
2.61 1.88 1.36 9.1477e-41
2.65 1.88 1.36 9.1477e-41
2.7 1.88 1.37 9.1477e-41
2.74 1.88 1.37 9.1477e-41
2.78 1.88 1.36 9.1477e-41
2.82 1.88 1.37 9.1477e-41
2.86 1.88 1.37 9.1477e-41
2.9 1.88 1.36 9.1477e-41
2.94 1.88 1.36 9.1477e-41
2.98 1.88 1.36 9.1477e-41
3.02 1.88 1.36 9.1477e-41
3.06 1.88 1.35 9.1477e-41
3.1 1.88 1.37 9.1477e-41
3.14 1.88 1.36 9.1477e-41
3.18 1.88 1.36 9.1477e-41
3.22 1.88 1.35 9.1477e-41
3.39 1.88 2.03 9.1477e-41
3.44 1.88 2.14 9.1477e-41
3.45 1.88 2 9.1477e-41
3.42 1.88 1.61 9.1477e-41
3.44 1.88 1.54 9.1477e-41
1 1.9 2.18 9.1477e-41
0.99 1.9 2.11 9.1477e-41
1 1.9 2.05 9.1477e-41
1 1.9 1.98 9.1477e-41
0.99 1.9 1.91 9.1477e-41
0.99 1.9 1.84 9.1477e-41
0.99 1.9 1.78 9.1477e-41
0.99 1.9 1.7 9.1477e-41
0.98 1.9 1.62 9.1477e-41
0.98 1.9 1.55 9.1477e-41
0.98 1.9 1.47 9.1477e-41
0.99 1.9 1.4 9.1477e-41
1.04 1.9 1.39 9.1477e-41
1.1 1.9 1.39 9.1477e-41
1.15 1.9 1.39 9.1477e-41
1.2 1.9 1.39 9.1477e-41
1.25 1.9 1.38 9.1477e-41
1.31 1.9 1.39 9.1477e-41
1.37 1.9 1.39 9.1477e-41
1.41 1.9 1.38 9.1477e-41
1.47 1.9 1.39 9.1477e-41
1.52 1.9 1.39 9.1477e-41
1.57 1.9 1.38 9.1477e-41
1.62 1.9 1.38 9.1477e-41
1.67 1.9 1.38 9.1477e-41
1.71 1.9 1.38 9.1477e-41
1.76 1.9 1.38 9.1477e-41
1.81 1.9 1.38 9.1477e-41
1.86 1.9 1.38 9.1477e-41
1.9 1.9 1.37 9.1477e-41
1.95 1.9 1.38 9.1477e-41
2 1.9 1.38 9.1477e-41
2.05 1.9 1.38 9.1477e-41
2.09 1.9 1.37 9.1477e-41
2.13 1.9 1.37 9.1477e-41
2.18 1.9 1.37 9.1477e-41
2.22 1.9 1.36 9.1477e-41
2.27 1.9 1.38 9.1477e-41
2.32 1.9 1.38 9.1477e-41
2.35 1.9 1.36 9.1477e-41
2.4 1.9 1.37 9.1477e-41
2.44 1.9 1.36 9.1477e-41
2.48 1.9 1.37 9.1477e-41
2.53 1.9 1.36 9.1477e-41
2.57 1.9 1.37 9.1477e-41
2.61 1.9 1.35 9.1477e-41
2.65 1.9 1.36 9.1477e-41
2.7 1.9 1.37 9.1477e-41
2.74 1.9 1.36 9.1477e-41
2.78 1.9 1.36 9.1477e-41
2.82 1.9 1.36 9.1477e-41
2.86 1.9 1.37 9.1477e-41
2.9 1.9 1.35 9.1477e-41
2.94 1.9 1.36 9.1477e-41
2.98 1.9 1.36 9.1477e-41
3.02 1.9 1.36 9.1477e-41
3.06 1.9 1.36 9.1477e-41
3.1 1.9 1.36 9.1477e-41
3.14 1.9 1.36 9.1477e-41
3.18 1.9 1.35 9.1477e-41
3.22 1.9 1.35 9.1477e-41
3.39 1.9 2.03 9.1477e-41
3.44 1.9 2.14 9.1477e-41
3.45 1.9 2 9.1477e-41
3.42 1.9 1.62 9.1477e-41
3.44 1.9 1.54 9.1477e-41
1.01 1.92 2.18 9.1477e-41
1 1.92 2.11 9.1477e-41
1 1.92 2.05 9.1477e-41
1 1.92 1.98 9.1477e-41
0.99 1.92 1.91 9.1477e-41
0.99 1.92 1.84 9.1477e-41
0.99 1.92 1.77 9.1477e-41
0.99 1.92 1.7 9.1477e-41
0.98 1.92 1.62 9.1477e-41
0.98 1.92 1.55 9.1477e-41
0.98 1.92 1.46 9.1477e-41
0.99 1.92 1.4 9.1477e-41
1.04 1.92 1.39 9.1477e-41
1.1 1.92 1.4 9.1477e-41
1.14 1.92 1.38 9.1477e-41
1.2 1.92 1.38 9.1477e-41
1.25 1.92 1.38 9.1477e-41
1.31 1.92 1.39 9.1477e-41
1.36 1.92 1.38 9.1477e-41
1.41 1.92 1.38 9.1477e-41
1.47 1.92 1.39 9.1477e-41
1.51 1.92 1.38 9.1477e-41
1.57 1.92 1.38 9.1477e-41
1.62 1.92 1.38 9.1477e-41
1.67 1.92 1.38 9.1477e-41
1.71 1.92 1.37 9.1477e-41
1.76 1.92 1.38 9.1477e-41
1.81 1.92 1.38 9.1477e-41
1.86 1.92 1.38 9.1477e-41
1.91 1.92 1.38 9.1477e-41
1.95 1.92 1.37 9.1477e-41
2 1.92 1.38 9.1477e-41
2.04 1.92 1.37 9.1477e-41
2.09 1.92 1.37 9.1477e-41
2.13 1.92 1.37 9.1477e-41
2.18 1.92 1.37 9.1477e-41
2.22 1.92 1.36 9.1477e-41
2.27 1.92 1.37 9.1477e-41
2.31 1.92 1.36 9.1477e-41
2.35 1.92 1.36 9.1477e-41
2.4 1.92 1.37 9.1477e-41
2.44 1.92 1.37 9.1477e-41
2.48 1.92 1.37 9.1477e-41
2.53 1.92 1.36 9.1477e-41
2.57 1.92 1.37 9.1477e-41
2.61 1.92 1.36 9.1477e-41
2.65 1.92 1.36 9.1477e-41
2.69 1.92 1.36 9.1477e-41
2.74 1.92 1.36 9.1477e-41
2.78 1.92 1.36 9.1477e-41
2.82 1.92 1.36 9.1477e-41
2.86 1.92 1.36 9.1477e-41
2.9 1.92 1.37 9.1477e-41
2.94 1.92 1.35 9.1477e-41
2.98 1.92 1.36 9.1477e-41
3.02 1.92 1.37 9.1477e-41
3.06 1.92 1.36 9.1477e-41
3.1 1.92 1.36 9.1477e-41
3.14 1.92 1.36 9.1477e-41
3.18 1.92 1.35 9.1477e-41
3.22 1.92 1.36 9.1477e-41
3.39 1.92 2.03 9.1477e-41
3.44 1.92 2.13 9.1477e-41
3.45 1.92 2.01 9.1477e-41
3.42 1.92 1.62 9.1477e-41
3.44 1.92 1.55 9.1477e-41
1 1.94 2.18 9.1477e-41
1 1.94 2.11 9.1477e-41
1 1.94 2.05 9.1477e-41
1 1.94 1.98 9.1477e-41
0.99 1.94 1.91 9.1477e-41
0.99 1.94 1.84 9.1477e-41
0.99 1.94 1.77 9.1477e-41
0.99 1.94 1.7 9.1477e-41
0.98 1.94 1.62 9.1477e-41
0.98 1.94 1.55 9.1477e-41
0.98 1.94 1.46 9.1477e-41
0.99 1.94 1.4 9.1477e-41
1.04 1.94 1.39 9.1477e-41
1.1 1.94 1.4 9.1477e-41
1.14 1.94 1.38 9.1477e-41
1.2 1.94 1.39 9.1477e-41
1.26 1.94 1.39 9.1477e-41
1.31 1.94 1.39 9.1477e-41
1.37 1.94 1.39 9.1477e-41
1.41 1.94 1.38 9.1477e-41
1.47 1.94 1.39 9.1477e-41
1.51 1.94 1.38 9.1477e-41
1.57 1.94 1.38 9.1477e-41
1.62 1.94 1.38 9.1477e-41
1.66 1.94 1.38 9.1477e-41
1.71 1.94 1.38 9.1477e-41
1.76 1.94 1.38 9.1477e-41
1.81 1.94 1.38 9.1477e-41
1.86 1.94 1.37 9.1477e-41
1.91 1.94 1.38 9.1477e-41
1.95 1.94 1.38 9.1477e-41
2 1.94 1.37 9.1477e-41
2.04 1.94 1.37 9.1477e-41
2.09 1.94 1.37 9.1477e-41
2.14 1.94 1.38 9.1477e-41
2.18 1.94 1.37 9.1477e-41
2.22 1.94 1.37 9.1477e-41
2.27 1.94 1.38 9.1477e-41
2.31 1.94 1.36 9.1477e-41
2.36 1.94 1.37 9.1477e-41
2.39 1.94 1.36 9.1477e-41
2.44 1.94 1.37 9.1477e-41
2.48 1.94 1.37 9.1477e-41
2.53 1.94 1.37 9.1477e-41
2.57 1.94 1.36 9.1477e-41
2.61 1.94 1.36 9.1477e-41
2.65 1.94 1.36 9.1477e-41
2.69 1.94 1.36 9.1477e-41
2.74 1.94 1.36 9.1477e-41
2.77 1.94 1.35 9.1477e-41
2.82 1.94 1.37 9.1477e-41
2.85 1.94 1.35 9.1477e-41
2.9 1.94 1.37 9.1477e-41
2.94 1.94 1.36 9.1477e-41
2.98 1.94 1.36 9.1477e-41
3.02 1.94 1.37 9.1477e-41
3.06 1.94 1.35 9.1477e-41
3.1 1.94 1.36 9.1477e-41
3.14 1.94 1.36 9.1477e-41
3.18 1.94 1.36 9.1477e-41
3.22 1.94 1.36 9.1477e-41
3.39 1.94 2.04 9.1477e-41
3.44 1.94 2.14 9.1477e-41
3.44 1.94 1.98 9.1477e-41
3.42 1.94 1.62 9.1477e-41
3.44 1.94 1.55 9.1477e-41
0.99 1.96 2.17 9.1477e-41
0.99 1.96 2.11 9.1477e-41
1 1.96 2.05 9.1477e-41
0.99 1.96 1.98 9.1477e-41
0.99 1.96 1.91 9.1477e-41
0.99 1.96 1.84 9.1477e-41
0.98 1.96 1.76 9.1477e-41
0.99 1.96 1.7 9.1477e-41
0.98 1.96 1.62 9.1477e-41
0.98 1.96 1.54 9.1477e-41
0.98 1.96 1.47 9.1477e-41
0.99 1.96 1.4 9.1477e-41
1.04 1.96 1.39 9.1477e-41
1.1 1.96 1.39 9.1477e-41
1.15 1.96 1.39 9.1477e-41
1.2 1.96 1.39 9.1477e-41
1.25 1.96 1.38 9.1477e-41
1.31 1.96 1.38 9.1477e-41
1.36 1.96 1.38 9.1477e-41
1.41 1.96 1.38 9.1477e-41
1.46 1.96 1.38 9.1477e-41
1.52 1.96 1.39 9.1477e-41
1.56 1.96 1.38 9.1477e-41
1.62 1.96 1.38 9.1477e-41
1.66 1.96 1.38 9.1477e-41
1.71 1.96 1.38 9.1477e-41
1.77 1.96 1.39 9.1477e-41
1.8 1.96 1.37 9.1477e-41
1.86 1.96 1.37 9.1477e-41
1.9 1.96 1.37 9.1477e-41
1.95 1.96 1.37 9.1477e-41
2 1.96 1.38 9.1477e-41
2.04 1.96 1.37 9.1477e-41
2.09 1.96 1.37 9.1477e-41
2.13 1.96 1.37 9.1477e-41
2.18 1.96 1.37 9.1477e-41
2.22 1.96 1.36 9.1477e-41
2.27 1.96 1.37 9.1477e-41
2.31 1.96 1.37 9.1477e-41
2.35 1.96 1.36 9.1477e-41
2.39 1.96 1.36 9.1477e-41
2.44 1.96 1.36 9.1477e-41
2.48 1.96 1.37 9.1477e-41
2.53 1.96 1.36 9.1477e-41
2.57 1.96 1.37 9.1477e-41
2.61 1.96 1.36 9.1477e-41
2.65 1.96 1.36 9.1477e-41
2.7 1.96 1.37 9.1477e-41
2.73 1.96 1.35 9.1477e-41
2.78 1.96 1.36 9.1477e-41
2.82 1.96 1.36 9.1477e-41
2.86 1.96 1.37 9.1477e-41
2.9 1.96 1.36 9.1477e-41
2.94 1.96 1.37 9.1477e-41
2.98 1.96 1.36 9.1477e-41
3.02 1.96 1.36 9.1477e-41
3.06 1.96 1.36 9.1477e-41
3.1 1.96 1.35 9.1477e-41
3.14 1.96 1.36 9.1477e-41
3.18 1.96 1.36 9.1477e-41
3.22 1.96 1.36 9.1477e-41
3.39 1.96 2.04 9.1477e-41
3.44 1.96 2.14 9.1477e-41
3.44 1.96 1.98 9.1477e-41
3.42 1.96 1.61 9.1477e-41
3.44 1.96 1.55 9.1477e-41
0.99 1.98 2.17 9.1477e-41
0.99 1.98 2.11 9.1477e-41
0.99 1.98 2.04 9.1477e-41
1 1.98 1.98 9.1477e-41
0.99 1.98 1.91 9.1477e-41
0.99 1.98 1.84 9.1477e-41
0.99 1.98 1.77 9.1477e-41
0.99 1.98 1.7 9.1477e-41
0.98 1.98 1.61 9.1477e-41
0.98 1.98 1.54 9.1477e-41
0.98 1.98 1.47 9.1477e-41
0.99 1.98 1.4 9.1477e-41
1.05 1.98 1.4 9.1477e-41
1.1 1.98 1.39 9.1477e-41
1.16 1.98 1.4 9.1477e-41
1.2 1.98 1.39 9.1477e-41
1.25 1.98 1.38 9.1477e-41
1.31 1.98 1.39 9.1477e-41
1.36 1.98 1.38 9.1477e-41
1.41 1.98 1.38 9.1477e-41
1.47 1.98 1.39 9.1477e-41
1.51 1.98 1.38 9.1477e-41
1.56 1.98 1.38 9.1477e-41
1.62 1.98 1.38 9.1477e-41
1.66 1.98 1.38 9.1477e-41
1.71 1.98 1.38 9.1477e-41
1.76 1.98 1.38 9.1477e-41
1.81 1.98 1.38 9.1477e-41
1.86 1.98 1.38 9.1477e-41
1.9 1.98 1.37 9.1477e-41
1.95 1.98 1.38 9.1477e-41
2 1.98 1.38 9.1477e-41
2.05 1.98 1.38 9.1477e-41
2.08 1.98 1.36 9.1477e-41
2.13 1.98 1.37 9.1477e-41
2.18 1.98 1.37 9.1477e-41
2.22 1.98 1.37 9.1477e-41
2.27 1.98 1.37 9.1477e-41
2.31 1.98 1.37 9.1477e-41
2.36 1.98 1.37 9.1477e-41
2.39 1.98 1.36 9.1477e-41
2.44 1.98 1.37 9.1477e-41
2.48 1.98 1.36 9.1477e-41
2.53 1.98 1.36 9.1477e-41
2.57 1.98 1.37 9.1477e-41
2.61 1.98 1.37 9.1477e-41
2.65 1.98 1.37 9.1477e-41
2.69 1.98 1.36 9.1477e-41
2.73 1.98 1.35 9.1477e-41
2.78 1.98 1.36 9.1477e-41
2.82 1.98 1.36 9.1477e-41
2.86 1.98 1.36 9.1477e-41
2.9 1.98 1.37 9.1477e-41
2.94 1.98 1.36 9.1477e-41
2.98 1.98 1.37 9.1477e-41
3.02 1.98 1.35 9.1477e-41
3.06 1.98 1.36 9.1477e-41
3.1 1.98 1.36 9.1477e-41
3.14 1.98 1.36 9.1477e-41
3.18 1.98 1.36 9.1477e-41
3.22 1.98 1.36 9.1477e-41
3.39 1.98 2.03 9.1477e-41
3.44 1.98 2.14 9.1477e-41
3.44 1.98 1.98 9.1477e-41
3.42 1.98 1.62 9.1477e-41
3.44 1.98 1.55 9.1477e-41
1 2 2.18 9.1477e-41
1 2 2.11 9.1477e-41
0.99 2 2.04 9.1477e-41
0.99 2 1.98 9.1477e-41
0.99 2 1.91 9.1477e-41
0.99 2 1.84 9.1477e-41
0.99 2 1.77 9.1477e-41
0.98 2 1.69 9.1477e-41
0.98 2 1.62 9.1477e-41
0.98 2 1.54 9.1477e-41
0.98 2 1.47 9.1477e-41
0.99 2 1.4 9.1477e-41
1.04 2 1.39 9.1477e-41
1.1 2 1.39 9.1477e-41
1.15 2 1.39 9.1477e-41
1.2 2 1.39 9.1477e-41
1.25 2 1.38 9.1477e-41
1.31 2 1.39 9.1477e-41
1.37 2 1.39 9.1477e-41
1.41 2 1.38 9.1477e-41
1.46 2 1.38 9.1477e-41
1.51 2 1.38 9.1477e-41
1.57 2 1.38 9.1477e-41
1.62 2 1.38 9.1477e-41
1.66 2 1.38 9.1477e-41
1.71 2 1.38 9.1477e-41
1.76 2 1.38 9.1477e-41
1.8 2 1.37 9.1477e-41
1.86 2 1.38 9.1477e-41
1.91 2 1.38 9.1477e-41
1.95 2 1.38 9.1477e-41
2 2 1.38 9.1477e-41
2.05 2 1.38 9.1477e-41
2.09 2 1.37 9.1477e-41
2.13 2 1.37 9.1477e-41
2.18 2 1.38 9.1477e-41
2.22 2 1.36 9.1477e-41
2.27 2 1.38 9.1477e-41
2.31 2 1.37 9.1477e-41
2.35 2 1.36 9.1477e-41
2.4 2 1.37 9.1477e-41
2.44 2 1.36 9.1477e-41
2.48 2 1.37 9.1477e-41
2.53 2 1.36 9.1477e-41
2.57 2 1.37 9.1477e-41
2.61 2 1.37 9.1477e-41
2.65 2 1.37 9.1477e-41
2.69 2 1.36 9.1477e-41
2.74 2 1.36 9.1477e-41
2.78 2 1.37 9.1477e-41
2.81 2 1.35 9.1477e-41
2.86 2 1.36 9.1477e-41
2.9 2 1.36 9.1477e-41
2.94 2 1.37 9.1477e-41
2.98 2 1.36 9.1477e-41
3.02 2 1.37 9.1477e-41
3.06 2 1.36 9.1477e-41
3.1 2 1.36 9.1477e-41
3.14 2 1.35 9.1477e-41
3.18 2 1.36 9.1477e-41
3.22 2 1.36 9.1477e-41
3.39 2 2.04 9.1477e-41
3.44 2 2.14 9.1477e-41
3.44 2 1.97 9.1477e-41
3.42 2 1.61 9.1477e-41
3.44 2 1.55 9.1477e-41
0.99 2.02 2.17 9.1477e-41
1 2.02 2.11 9.1477e-41
0.99 2.02 2.04 9.1477e-41
1 2.02 1.98 9.1477e-41
0.99 2.02 1.91 9.1477e-41
0.99 2.02 1.84 9.1477e-41
0.99 2.02 1.77 9.1477e-41
0.99 2.02 1.7 9.1477e-41
0.98 2.02 1.62 9.1477e-41
0.98 2.02 1.54 9.1477e-41
0.98 2.02 1.46 9.1477e-41
0.99 2.02 1.4 9.1477e-41
1.04 2.02 1.39 9.1477e-41
1.1 2.02 1.39 9.1477e-41
1.14 2.02 1.38 9.1477e-41
1.2 2.02 1.39 9.1477e-41
1.26 2.02 1.39 9.1477e-41
1.31 2.02 1.39 9.1477e-41
1.37 2.02 1.39 9.1477e-41
1.41 2.02 1.38 9.1477e-41
1.47 2.02 1.39 9.1477e-41
1.51 2.02 1.38 9.1477e-41
1.56 2.02 1.38 9.1477e-41
1.62 2.02 1.38 9.1477e-41
1.67 2.02 1.38 9.1477e-41
1.71 2.02 1.38 9.1477e-41
1.77 2.02 1.39 9.1477e-41
1.81 2.02 1.38 9.1477e-41
1.86 2.02 1.38 9.1477e-41
1.91 2.02 1.38 9.1477e-41
1.95 2.02 1.37 9.1477e-41
2 2.02 1.37 9.1477e-41
2.05 2.02 1.38 9.1477e-41
2.08 2.02 1.36 9.1477e-41
2.14 2.02 1.38 9.1477e-41
2.18 2.02 1.36 9.1477e-41
2.22 2.02 1.37 9.1477e-41
2.27 2.02 1.38 9.1477e-41
2.31 2.02 1.37 9.1477e-41
2.36 2.02 1.37 9.1477e-41
2.4 2.02 1.38 9.1477e-41
2.44 2.02 1.37 9.1477e-41
2.48 2.02 1.37 9.1477e-41
2.53 2.02 1.37 9.1477e-41
2.57 2.02 1.37 9.1477e-41
2.61 2.02 1.36 9.1477e-41
2.65 2.02 1.37 9.1477e-41
2.7 2.02 1.37 9.1477e-41
2.74 2.02 1.36 9.1477e-41
2.78 2.02 1.37 9.1477e-41
2.82 2.02 1.36 9.1477e-41
2.86 2.02 1.37 9.1477e-41
2.9 2.02 1.36 9.1477e-41
2.94 2.02 1.38 9.1477e-41
2.98 2.02 1.36 9.1477e-41
3.02 2.02 1.36 9.1477e-41
3.06 2.02 1.36 9.1477e-41
3.1 2.02 1.36 9.1477e-41
3.14 2.02 1.36 9.1477e-41
3.18 2.02 1.35 9.1477e-41
3.22 2.02 1.35 9.1477e-41
3.39 2.02 2.05 9.1477e-41
3.44 2.02 2.14 9.1477e-41
3.44 2.02 1.97 9.1477e-41
3.42 2.02 1.62 9.1477e-41
3.44 2.02 1.55 9.1477e-41
1 2.04 2.18 9.1477e-41
1 2.04 2.11 9.1477e-41
1 2.04 2.05 9.1477e-41
0.99 2.04 1.98 9.1477e-41
1 2.04 1.92 9.1477e-41
0.99 2.04 1.84 9.1477e-41
0.99 2.04 1.77 9.1477e-41
0.98 2.04 1.69 9.1477e-41
0.98 2.04 1.62 9.1477e-41
0.98 2.04 1.54 9.1477e-41
0.98 2.04 1.46 9.1477e-41
0.99 2.04 1.4 9.1477e-41
1.04 2.04 1.39 9.1477e-41
1.1 2.04 1.39 9.1477e-41
1.15 2.04 1.39 9.1477e-41
1.2 2.04 1.39 9.1477e-41
1.25 2.04 1.38 9.1477e-41
1.31 2.04 1.38 9.1477e-41
1.37 2.04 1.39 9.1477e-41
1.41 2.04 1.38 9.1477e-41
1.46 2.04 1.38 9.1477e-41
1.51 2.04 1.38 9.1477e-41
1.57 2.04 1.38 9.1477e-41
1.62 2.04 1.38 9.1477e-41
1.67 2.04 1.38 9.1477e-41
1.71 2.04 1.38 9.1477e-41
1.76 2.04 1.38 9.1477e-41
