# .PCD v.7 - Point Cloud Data file format
VERSION .7
FIELDS x y z rgb
SIZE 4 4 4 4
TYPE F F F F
WIDTH 1864
HEIGHT 1
POINTS 1864
DATA ascii
2.35 0.14 2.65 9.1477e-41
2.39 0.14 2.65 9.1477e-41
2.41 0.14 2.64 9.1477e-41
2.44 0.14 2.63 9.1477e-41
2.48 0.14 2.64 9.1477e-41
2.51 0.14 2.62 9.1477e-41
2.54 0.14 2.63 9.1477e-41
2.57 0.14 2.62 9.1477e-41
2.6 0.14 2.62 9.1477e-41
2.64 0.14 2.62 9.1477e-41
2.67 0.14 2.62 9.1477e-41
2.7 0.14 2.61 9.1477e-41
2.73 0.14 2.61 9.1477e-41
2.76 0.14 2.6 9.1477e-41
2.79 0.14 2.6 9.1477e-41
2.82 0.14 2.59 9.1477e-41
2.84 0.14 2.58 9.1477e-41
2.86 0.14 2.53 9.1477e-41
2.65 0.14 1.9 9.1477e-41
2.69 0.14 1.91 9.1477e-41
2.72 0.14 1.91 9.1477e-41
2.75 0.14 1.89 9.1477e-41
2.79 0.14 1.89 9.1477e-41
2.86 0.14 1.98 9.1477e-41
2.89 0.14 1.97 9.1477e-41
2.91 0.14 1.91 9.1477e-41
2.92 0.14 1.83 9.1477e-41
2.94 0.14 1.77 9.1477e-41
2.94 0.14 1.66 9.1477e-41
2.95 0.14 1.55 9.1477e-41
2.98 0.14 1.51 9.1477e-41
3 0.14 1.43 9.1477e-41
3 0.14 1.27 9.1477e-41
2.98 0.14 1.04 9.1477e-41
2.97 0.14 0.81 9.1477e-41
3 0.14 0.72 9.1477e-41
0.88 0.15 2.68 9.1477e-41
0.95 0.15 2.69 9.1477e-41
1 0.15 2.69 9.1477e-41
1.06 0.15 2.69 9.1477e-41
1.11 0.15 2.69 9.1477e-41
1.17 0.15 2.69 9.1477e-41
1.22 0.15 2.7 9.1477e-41
1.27 0.15 2.7 9.1477e-41
1.31 0.15 2.69 9.1477e-41
1.37 0.15 2.7 9.1477e-41
1.41 0.15 2.69 9.1477e-41
1.45 0.15 2.69 9.1477e-41
1.5 0.15 2.69 9.1477e-41
1.54 0.15 2.69 9.1477e-41
1.59 0.15 2.69 9.1477e-41
1.63 0.15 2.69 9.1477e-41
1.67 0.15 2.68 9.1477e-41
1.72 0.15 2.69 9.1477e-41
1.76 0.15 2.68 9.1477e-41
1.79 0.15 2.68 9.1477e-41
1.84 0.15 2.69 9.1477e-41
1.88 0.15 2.68 9.1477e-41
1.92 0.15 2.68 9.1477e-41
1.96 0.15 2.68 9.1477e-41
1.99 0.15 2.67 9.1477e-41
2.03 0.15 2.68 9.1477e-41
2.07 0.15 2.67 9.1477e-41
2.11 0.15 2.67 9.1477e-41
2.15 0.15 2.67 9.1477e-41
2.18 0.15 2.67 9.1477e-41
2.21 0.15 2.66 9.1477e-41
2.25 0.15 2.67 9.1477e-41
2.29 0.15 2.67 9.1477e-41
2.32 0.15 2.66 9.1477e-41
2.36 0.15 2.66 9.1477e-41
2.39 0.15 2.65 9.1477e-41
2.42 0.15 2.66 9.1477e-41
2.46 0.15 2.66 9.1477e-41
2.49 0.15 2.66 9.1477e-41
2.52 0.15 2.65 9.1477e-41
2.55 0.15 2.65 9.1477e-41
2.58 0.15 2.64 9.1477e-41
2.61 0.15 2.63 9.1477e-41
2.64 0.15 2.63 9.1477e-41
2.67 0.15 2.62 9.1477e-41
2.7 0.15 2.62 9.1477e-41
2.73 0.15 2.61 9.1477e-41
2.76 0.15 2.61 9.1477e-41
2.79 0.15 2.61 9.1477e-41
2.82 0.15 2.6 9.1477e-41
2.85 0.15 2.6 9.1477e-41
2.86 0.15 2.55 9.1477e-41
2.67 0.15 1.96 9.1477e-41
2.7 0.15 1.96 9.1477e-41
2.73 0.15 1.92 9.1477e-41
2.77 0.15 1.94 9.1477e-41
2.82 0.15 1.96 9.1477e-41
2.87 0.15 2.02 9.1477e-41
2.9 0.15 1.98 9.1477e-41
2.92 0.15 1.95 9.1477e-41
2.93 0.15 1.86 9.1477e-41
2.94 0.15 1.77 9.1477e-41
2.95 0.15 1.68 9.1477e-41
2.95 0.15 1.55 9.1477e-41
2.98 0.15 1.52 9.1477e-41
3 0.15 1.43 9.1477e-41
3 0.15 1.28 9.1477e-41
2.97 0.15 0.99 9.1477e-41
2.97 0.15 0.8 9.1477e-41
3 0.15 0.74 9.1477e-41
0.9 0.16 2.69 9.1477e-41
0.95 0.16 2.69 9.1477e-41
1.01 0.16 2.69 9.1477e-41
1.07 0.16 2.7 9.1477e-41
1.13 0.16 2.71 9.1477e-41
1.17 0.16 2.7 9.1477e-41
1.23 0.16 2.7 9.1477e-41
1.28 0.16 2.71 9.1477e-41
1.32 0.16 2.7 9.1477e-41
1.37 0.16 2.7 9.1477e-41
1.42 0.16 2.7 9.1477e-41
1.46 0.16 2.69 9.1477e-41
1.51 0.16 2.7 9.1477e-41
1.55 0.16 2.69 9.1477e-41
1.59 0.16 2.7 9.1477e-41
1.63 0.16 2.69 9.1477e-41
1.68 0.16 2.69 9.1477e-41
1.72 0.16 2.69 9.1477e-41
1.76 0.16 2.69 9.1477e-41
1.81 0.16 2.69 9.1477e-41
1.85 0.16 2.7 9.1477e-41
1.88 0.16 2.68 9.1477e-41
1.92 0.16 2.68 9.1477e-41
1.96 0.16 2.69 9.1477e-41
2 0.16 2.69 9.1477e-41
2.04 0.16 2.68 9.1477e-41
2.08 0.16 2.68 9.1477e-41
2.11 0.16 2.68 9.1477e-41
2.15 0.16 2.67 9.1477e-41
2.19 0.16 2.68 9.1477e-41
2.22 0.16 2.68 9.1477e-41
2.26 0.16 2.67 9.1477e-41
2.29 0.16 2.67 9.1477e-41
2.32 0.16 2.67 9.1477e-41
2.37 0.16 2.68 9.1477e-41
2.4 0.16 2.67 9.1477e-41
2.42 0.16 2.66 9.1477e-41
2.46 0.16 2.66 9.1477e-41
2.49 0.16 2.66 9.1477e-41
2.53 0.16 2.66 9.1477e-41
2.56 0.16 2.66 9.1477e-41
2.59 0.16 2.66 9.1477e-41
2.62 0.16 2.66 9.1477e-41
2.65 0.16 2.64 9.1477e-41
2.68 0.16 2.64 9.1477e-41
2.71 0.16 2.64 9.1477e-41
2.74 0.16 2.62 9.1477e-41
2.77 0.16 2.63 9.1477e-41
2.8 0.16 2.62 9.1477e-41
2.82 0.16 2.61 9.1477e-41
2.85 0.16 2.6 9.1477e-41
2.86 0.16 2.6 3.57e-43
2.67 0.16 1.96 9.1477e-41
2.71 0.16 1.98 9.1477e-41
2.74 0.16 1.96 9.1477e-41
2.79 0.16 1.99 9.1477e-41
2.86 0.16 2.08 9.1477e-41
2.89 0.16 2.06 9.1477e-41
2.91 0.16 2.01 9.1477e-41
2.92 0.16 1.96 9.1477e-41
2.93 0.16 1.86 9.1477e-41
2.94 0.16 1.76 9.1477e-41
2.94 0.16 1.64 9.1477e-41
2.95 0.16 1.53 9.1477e-41
2.97 0.16 1.49 9.1477e-41
2.98 0.16 1.37 9.1477e-41
2.99 0.16 1.23 9.1477e-41
2.94 0.16 0.87 9.1477e-41
2.97 0.16 0.81 9.1477e-41
3 0.16 0.72 9.1477e-41
0.85 0.17 2.7 9.1477e-41
0.91 0.17 2.7 9.1477e-41
0.97 0.17 2.71 9.1477e-41
1.02 0.17 2.71 9.1477e-41
1.08 0.17 2.71 9.1477e-41
1.13 0.17 2.71 9.1477e-41
1.19 0.17 2.72 9.1477e-41
1.23 0.17 2.71 9.1477e-41
1.29 0.17 2.72 9.1477e-41
1.33 0.17 2.71 9.1477e-41
1.37 0.17 2.7 9.1477e-41
1.43 0.17 2.71 9.1477e-41
1.46 0.17 2.7 9.1477e-41
1.51 0.17 2.7 9.1477e-41
1.56 0.17 2.7 9.1477e-41
1.61 0.17 2.71 9.1477e-41
1.65 0.17 2.7 9.1477e-41
1.68 0.17 2.7 9.1477e-41
1.73 0.17 2.7 9.1477e-41
1.77 0.17 2.7 9.1477e-41
1.81 0.17 2.7 9.1477e-41
1.85 0.17 2.7 9.1477e-41
1.89 0.17 2.7 9.1477e-41
1.93 0.17 2.69 9.1477e-41
1.97 0.17 2.7 9.1477e-41
2 0.17 2.69 9.1477e-41
2.04 0.17 2.69 9.1477e-41
2.08 0.17 2.69 9.1477e-41
2.12 0.17 2.69 9.1477e-41
2.15 0.17 2.68 9.1477e-41
2.19 0.17 2.69 9.1477e-41
2.22 0.17 2.68 9.1477e-41
2.26 0.17 2.68 9.1477e-41
2.3 0.17 2.68 9.1477e-41
2.33 0.17 2.68 9.1477e-41
2.37 0.17 2.69 9.1477e-41
2.4 0.17 2.67 9.1477e-41
2.43 0.17 2.68 9.1477e-41
2.46 0.17 2.67 9.1477e-41
2.5 0.17 2.67 9.1477e-41
2.53 0.17 2.67 9.1477e-41
2.57 0.17 2.67 9.1477e-41
2.59 0.17 2.66 9.1477e-41
2.62 0.17 2.66 9.1477e-41
2.65 0.17 2.65 9.1477e-41
2.69 0.17 2.66 9.1477e-41
2.71 0.17 2.64 9.1477e-41
2.75 0.17 2.65 9.1477e-41
2.78 0.17 2.64 9.1477e-41
2.81 0.17 2.64 9.1477e-41
2.83 0.17 2.63 9.1477e-41
2.85 0.17 2.6 9.1477e-41
2.87 0.17 2.56 9.1477e-41
2.69 0.17 2.02 9.1477e-41
2.72 0.17 2 9.1477e-41
2.76 0.17 2.01 9.1477e-41
2.82 0.17 2.07 9.1477e-41
2.87 0.17 2.13 9.1477e-41
2.89 0.17 2.08 9.1477e-41
2.91 0.17 2.03 9.1477e-41
2.93 0.17 1.97 9.1477e-41
2.93 0.17 1.86 9.1477e-41
2.93 0.17 1.75 9.1477e-41
2.93 0.17 1.6 9.1477e-41
2.93 0.17 1.47 9.1477e-41
2.94 0.17 1.36 9.1477e-41
2.92 0.17 1.14 9.1477e-41
2.94 0.17 1.04 9.1477e-41
2.92 0.17 0.77 9.1477e-41
2.97 0.17 0.8 9.1477e-41
2.98 0.17 0.67 9.1477e-41
0.85 0.18 2.7 9.1477e-41
0.91 0.18 2.71 9.1477e-41
0.98 0.18 2.72 9.1477e-41
1.03 0.18 2.72 9.1477e-41
1.09 0.18 2.72 9.1477e-41
1.14 0.18 2.72 9.1477e-41
1.19 0.18 2.72 9.1477e-41
1.25 0.18 2.73 9.1477e-41
1.3 0.18 2.73 9.1477e-41
1.33 0.18 2.71 9.1477e-41
1.39 0.18 2.72 9.1477e-41
1.43 0.18 2.72 9.1477e-41
1.48 0.18 2.72 9.1477e-41
1.52 0.18 2.71 9.1477e-41
1.56 0.18 2.71 9.1477e-41
1.61 0.18 2.71 9.1477e-41
1.65 0.18 2.71 9.1477e-41
1.69 0.18 2.71 9.1477e-41
1.74 0.18 2.71 9.1477e-41
1.78 0.18 2.71 9.1477e-41
1.82 0.18 2.71 9.1477e-41
1.86 0.18 2.7 9.1477e-41
1.89 0.18 2.7 9.1477e-41
1.94 0.18 2.71 9.1477e-41
1.97 0.18 2.7 9.1477e-41
2.01 0.18 2.7 9.1477e-41
2.05 0.18 2.7 9.1477e-41
2.08 0.18 2.69 9.1477e-41
2.12 0.18 2.7 9.1477e-41
2.16 0.18 2.69 9.1477e-41
2.19 0.18 2.69 9.1477e-41
2.23 0.18 2.69 9.1477e-41
2.27 0.18 2.69 9.1477e-41
2.3 0.18 2.68 9.1477e-41
2.34 0.18 2.69 9.1477e-41
2.38 0.18 2.7 9.1477e-41
2.4 0.18 2.68 9.1477e-41
2.44 0.18 2.68 9.1477e-41
2.47 0.18 2.68 9.1477e-41
2.5 0.18 2.68 9.1477e-41
2.53 0.18 2.68 9.1477e-41
2.57 0.18 2.67 9.1477e-41
2.6 0.18 2.67 9.1477e-41
2.63 0.18 2.67 9.1477e-41
2.66 0.18 2.66 9.1477e-41
2.69 0.18 2.66 9.1477e-41
2.72 0.18 2.66 9.1477e-41
2.75 0.18 2.65 9.1477e-41
2.78 0.18 2.65 9.1477e-41
2.81 0.18 2.65 9.1477e-41
2.84 0.18 2.64 9.1477e-41
2.86 0.18 2.61 9.1477e-41
2.87 0.18 2.56 9.1477e-41
2.69 0.18 2.56 3.57e-43
2.72 0.18 2 9.1477e-41
2.77 0.18 2.04 9.1477e-41
2.85 0.18 2.17 9.1477e-41
2.89 0.18 2.17 9.1477e-41
2.9 0.18 2.11 9.1477e-41
2.92 0.18 2.06 9.1477e-41
2.93 0.18 1.98 9.1477e-41
2.93 0.18 1.88 9.1477e-41
2.93 0.18 1.75 9.1477e-41
2.93 0.18 1.62 9.1477e-41
2.93 0.18 1.47 9.1477e-41
2.93 0.18 1.33 9.1477e-41
2.92 0.18 1.12 9.1477e-41
2.93 0.18 1.01 9.1477e-41
2.93 0.18 0.8 9.1477e-41
2.96 0.18 0.77 9.1477e-41
0.87 0.19 2.72 9.1477e-41
0.94 0.19 2.73 9.1477e-41
1 0.19 2.74 9.1477e-41
1.05 0.19 2.74 9.1477e-41
1.11 0.19 2.74 9.1477e-41
1.16 0.19 2.74 9.1477e-41
1.21 0.19 2.74 9.1477e-41
1.27 0.19 2.75 9.1477e-41
1.31 0.19 2.74 9.1477e-41
1.35 0.19 2.73 9.1477e-41
1.4 0.19 2.73 9.1477e-41
1.45 0.19 2.74 9.1477e-41
1.5 0.19 2.74 9.1477e-41
1.54 0.19 2.74 9.1477e-41
1.59 0.19 2.74 9.1477e-41
1.62 0.19 2.73 9.1477e-41
1.67 0.19 2.73 9.1477e-41
1.71 0.19 2.73 9.1477e-41
1.75 0.19 2.73 9.1477e-41
1.79 0.19 2.73 9.1477e-41
1.83 0.19 2.72 9.1477e-41
1.87 0.19 2.73 9.1477e-41
1.91 0.19 2.72 9.1477e-41
1.94 0.19 2.71 9.1477e-41
1.99 0.19 2.72 9.1477e-41
2.02 0.19 2.72 9.1477e-41
2.05 0.19 2.7 9.1477e-41
2.09 0.19 2.71 9.1477e-41
2.12 0.19 2.7 9.1477e-41
2.17 0.19 2.71 9.1477e-41
2.2 0.19 2.71 9.1477e-41
2.24 0.19 2.71 9.1477e-41
2.27 0.19 2.7 9.1477e-41
2.3 0.19 2.69 9.1477e-41
2.34 0.19 2.7 9.1477e-41
2.38 0.19 2.7 9.1477e-41
2.41 0.19 2.7 9.1477e-41
2.44 0.19 2.69 9.1477e-41
2.47 0.19 2.69 9.1477e-41
2.5 0.19 2.68 9.1477e-41
2.54 0.19 2.69 9.1477e-41
2.57 0.19 2.68 9.1477e-41
2.6 0.19 2.68 9.1477e-41
2.64 0.19 2.68 9.1477e-41
2.66 0.19 2.67 9.1477e-41
2.69 0.19 2.67 9.1477e-41
2.72 0.19 2.66 9.1477e-41
2.75 0.19 2.66 9.1477e-41
2.78 0.19 2.66 9.1477e-41
2.81 0.19 2.66 9.1477e-41
2.84 0.19 2.64 9.1477e-41
2.86 0.19 2.62 9.1477e-41
2.86 0.19 2.54 9.1477e-41
2.7 0.19 2.54 3.57e-43
2.72 0.19 2.54 3.57e-43
2.77 0.19 2.04 9.1477e-41
2.87 0.19 2.21 9.1477e-41
2.89 0.19 2.19 9.1477e-41
2.91 0.19 2.14 9.1477e-41
2.92 0.19 2.07 9.1477e-41
2.93 0.19 1.97 9.1477e-41
2.93 0.19 1.86 9.1477e-41
2.94 0.19 1.76 9.1477e-41
2.93 0.19 1.63 9.1477e-41
2.93 0.19 1.46 9.1477e-41
2.93 0.19 1.34 9.1477e-41
2.91 0.19 1.08 9.1477e-41
2.92 0.19 0.98 9.1477e-41
2.92 0.19 0.78 9.1477e-41
2.95 0.19 0.73 9.1477e-41
0.9 0.2 2.75 9.1477e-41
0.96 0.2 2.75 9.1477e-41
1.01 0.2 2.75 9.1477e-41
1.07 0.2 2.76 9.1477e-41
1.13 0.2 2.76 9.1477e-41
1.17 0.2 2.75 9.1477e-41
1.23 0.2 2.76 9.1477e-41
1.28 0.2 2.76 9.1477e-41
1.32 0.2 2.75 9.1477e-41
1.37 0.2 2.75 9.1477e-41
1.42 0.2 2.76 9.1477e-41
1.47 0.2 2.75 9.1477e-41
1.51 0.2 2.75 9.1477e-41
1.55 0.2 2.75 9.1477e-41
1.59 0.2 2.74 9.1477e-41
1.64 0.2 2.75 9.1477e-41
1.68 0.2 2.75 9.1477e-41
1.72 0.2 2.75 9.1477e-41
1.77 0.2 2.75 9.1477e-41
1.8 0.2 2.74 9.1477e-41
1.84 0.2 2.74 9.1477e-41
1.88 0.2 2.74 9.1477e-41
1.92 0.2 2.74 9.1477e-41
1.96 0.2 2.74 9.1477e-41
2 0.2 2.74 9.1477e-41
2.04 0.2 2.73 9.1477e-41
2.07 0.2 2.72 9.1477e-41
2.1 0.2 2.72 9.1477e-41
2.15 0.2 2.73 9.1477e-41
2.18 0.2 2.72 9.1477e-41
2.21 0.2 2.71 9.1477e-41
2.25 0.2 2.72 9.1477e-41
2.28 0.2 2.72 9.1477e-41
2.31 0.2 2.71 9.1477e-41
2.35 0.2 2.72 9.1477e-41
2.39 0.2 2.71 9.1477e-41
2.42 0.2 2.71 9.1477e-41
2.44 0.2 2.69 9.1477e-41
2.48 0.2 2.7 9.1477e-41
2.51 0.2 2.7 9.1477e-41
2.54 0.2 2.69 9.1477e-41
2.57 0.2 2.69 9.1477e-41
2.6 0.2 2.69 9.1477e-41
2.64 0.2 2.68 9.1477e-41
2.67 0.2 2.69 9.1477e-41
2.7 0.2 2.68 9.1477e-41
2.73 0.2 2.67 9.1477e-41
2.76 0.2 2.67 9.1477e-41
2.79 0.2 2.67 9.1477e-41
2.82 0.2 2.66 9.1477e-41
2.84 0.2 2.64 9.1477e-41
2.86 0.2 2.64 3.57e-43
2.86 0.2 2.64 3.57e-43
2.7 0.2 2.64 3.57e-43
2.72 0.2 2 9.1477e-41
2.86 0.2 2.27 9.1477e-41
2.89 0.2 2.26 9.1477e-41
2.9 0.2 2.2 9.1477e-41
2.92 0.2 2.16 9.1477e-41
2.92 0.2 2.07 9.1477e-41
2.93 0.2 1.97 9.1477e-41
2.93 0.2 1.86 9.1477e-41
2.94 0.2 1.77 9.1477e-41
2.94 0.2 1.64 9.1477e-41
2.92 0.2 1.45 9.1477e-41
2.93 0.2 1.33 9.1477e-41
2.9 0.2 1.07 9.1477e-41
2.93 0.2 0.99 9.1477e-41
2.93 0.2 0.8 9.1477e-41
2.95 0.2 0.71 9.1477e-41
0.85 0.21 2.76 9.1477e-41
0.91 0.21 2.76 9.1477e-41
0.96 0.21 2.76 9.1477e-41
1.03 0.21 2.76 9.1477e-41
1.08 0.21 2.76 9.1477e-41
1.13 0.21 2.76 9.1477e-41
1.18 0.21 2.76 9.1477e-41
1.23 0.21 2.76 9.1477e-41
1.28 0.21 2.76 9.1477e-41
1.32 0.21 2.75 9.1477e-41
1.36 0.21 2.74 9.1477e-41
1.42 0.21 2.76 9.1477e-41
1.47 0.21 2.75 9.1477e-41
1.51 0.21 2.75 9.1477e-41
1.56 0.21 2.75 9.1477e-41
1.6 0.21 2.76 9.1477e-41
1.64 0.21 2.75 9.1477e-41
1.68 0.21 2.75 9.1477e-41
1.73 0.21 2.75 9.1477e-41
1.77 0.21 2.75 9.1477e-41
1.8 0.21 2.74 9.1477e-41
1.85 0.21 2.75 9.1477e-41
1.89 0.21 2.74 9.1477e-41
1.93 0.21 2.75 9.1477e-41
1.97 0.21 2.75 9.1477e-41
2 0.21 2.74 9.1477e-41
2.04 0.21 2.74 9.1477e-41
2.08 0.21 2.74 9.1477e-41
2.12 0.21 2.74 9.1477e-41
2.15 0.21 2.74 9.1477e-41
2.19 0.21 2.74 9.1477e-41
2.23 0.21 2.74 9.1477e-41
2.26 0.21 2.73 9.1477e-41
2.29 0.21 2.73 9.1477e-41
2.33 0.21 2.73 9.1477e-41
2.36 0.21 2.73 9.1477e-41
2.4 0.21 2.73 9.1477e-41
2.43 0.21 2.73 9.1477e-41
2.46 0.21 2.72 9.1477e-41
2.49 0.21 2.72 9.1477e-41
2.52 0.21 2.72 9.1477e-41
2.56 0.21 2.72 9.1477e-41
2.58 0.21 2.71 9.1477e-41
2.61 0.21 2.7 9.1477e-41
2.64 0.21 2.7 9.1477e-41
2.67 0.21 2.7 9.1477e-41
2.7 0.21 2.69 9.1477e-41
2.73 0.21 2.68 9.1477e-41
2.76 0.21 2.68 9.1477e-41
2.79 0.21 2.68 9.1477e-41
2.82 0.21 2.66 9.1477e-41
2.84 0.21 2.65 9.1477e-41
2.86 0.21 2.65 3.57e-43
2.86 0.21 2.65 3.57e-43
2.7 0.21 2.65 3.57e-43
2.72 0.21 2 9.1477e-41
2.87 0.21 2.32 9.1477e-41
2.89 0.21 2.28 9.1477e-41
2.91 0.21 2.24 9.1477e-41
2.92 0.21 2.17 9.1477e-41
2.93 0.21 2.09 9.1477e-41
2.93 0.21 1.98 9.1477e-41
2.93 0.21 1.87 9.1477e-41
2.94 0.21 1.77 9.1477e-41
2.94 0.21 1.64 9.1477e-41
2.93 0.21 1.47 9.1477e-41
2.93 0.21 1.34 9.1477e-41
2.9 0.21 1.07 9.1477e-41
2.92 0.21 0.97 9.1477e-41
2.93 0.21 0.82 9.1477e-41
2.95 0.21 0.72 9.1477e-41
2.98 0.21 0.65 9.1477e-41
0.85 0.22 2.76 9.1477e-41
0.9 0.22 2.74 9.1477e-41
0.96 0.22 2.75 9.1477e-41
1.01 0.22 2.75 9.1477e-41
1.05 0.22 2.74 9.1477e-41
1.1 0.22 2.73 9.1477e-41
1.15 0.22 2.73 9.1477e-41
1.19 0.22 2.72 9.1477e-41
1.26 0.22 2.74 9.1477e-41
1.3 0.22 2.73 9.1477e-41
1.32 0.22 2.7 9.1477e-41
1.37 0.22 2.7 9.1477e-41
1.43 0.22 2.71 9.1477e-41
1.48 0.22 2.72 9.1477e-41
1.52 0.22 2.72 9.1477e-41
1.57 0.22 2.72 9.1477e-41
1.61 0.22 2.72 9.1477e-41
1.66 0.22 2.72 9.1477e-41
1.7 0.22 2.72 9.1477e-41
1.75 0.22 2.72 9.1477e-41
1.79 0.22 2.73 9.1477e-41
1.84 0.22 2.73 9.1477e-41
1.88 0.22 2.74 9.1477e-41
1.92 0.22 2.74 9.1477e-41
1.96 0.22 2.74 9.1477e-41
2 0.22 2.74 9.1477e-41
2.04 0.22 2.74 9.1477e-41
2.08 0.22 2.74 9.1477e-41
2.12 0.22 2.74 9.1477e-41
2.16 0.22 2.75 9.1477e-41
2.19 0.22 2.74 9.1477e-41
2.22 0.22 2.73 9.1477e-41
2.26 0.22 2.74 9.1477e-41
2.3 0.22 2.74 9.1477e-41
2.33 0.22 2.73 9.1477e-41
2.36 0.22 2.73 9.1477e-41
2.4 0.22 2.74 9.1477e-41
2.43 0.22 2.73 9.1477e-41
2.46 0.22 2.73 9.1477e-41
2.5 0.22 2.73 9.1477e-41
2.53 0.22 2.73 9.1477e-41
2.56 0.22 2.73 9.1477e-41
2.59 0.22 2.73 9.1477e-41
2.62 0.22 2.72 9.1477e-41
2.65 0.22 2.72 9.1477e-41
2.68 0.22 2.71 9.1477e-41
2.71 0.22 2.71 9.1477e-41
2.74 0.22 2.71 9.1477e-41
2.76 0.22 2.69 9.1477e-41
2.8 0.22 2.69 9.1477e-41
2.83 0.22 2.68 9.1477e-41
2.85 0.22 2.66 9.1477e-41
2.86 0.22 2.66 3.57e-43
2.86 0.22 2.66 3.57e-43
2.7 0.22 2.04 9.1477e-41
2.87 0.22 2.39 9.1477e-41
2.88 0.22 2.35 9.1477e-41
2.9 0.22 2.3 9.1477e-41
2.91 0.22 2.24 9.1477e-41
2.92 0.22 2.18 9.1477e-41
2.93 0.22 2.09 9.1477e-41
2.93 0.22 1.97 9.1477e-41
2.93 0.22 1.88 9.1477e-41
2.94 0.22 1.78 9.1477e-41
2.94 0.22 1.65 9.1477e-41
2.93 0.22 1.47 9.1477e-41
2.94 0.22 1.36 9.1477e-41
2.91 0.22 1.08 9.1477e-41
2.93 0.22 0.99 9.1477e-41
2.93 0.22 0.82 9.1477e-41
2.95 0.22 0.73 9.1477e-41
2.99 0.22 0.68 9.1477e-41
0.83 0.23 2.73 9.1477e-41
0.8 0.23 2.66 9.1477e-41
0.88 0.23 2.67 9.1477e-41
0.95 0.23 2.69 9.1477e-41
1 0.23 2.69 9.1477e-41
1.06 0.23 2.69 9.1477e-41
1.1 0.23 2.68 9.1477e-41
1.16 0.23 2.69 9.1477e-41
1.25 0.23 2.73 9.1477e-41
1.29 0.23 2.72 9.1477e-41
1.31 0.23 2.68 9.1477e-41
1.35 0.23 2.68 9.1477e-41
1.4 0.23 2.68 9.1477e-41
1.45 0.23 2.69 9.1477e-41
1.49 0.23 2.68 9.1477e-41
1.54 0.23 2.69 9.1477e-41
1.58 0.23 2.67 9.1477e-41
1.63 0.23 2.68 9.1477e-41
1.67 0.23 2.68 9.1477e-41
1.71 0.23 2.68 9.1477e-41
1.75 0.23 2.67 9.1477e-41
1.79 0.23 2.67 9.1477e-41
1.83 0.23 2.67 9.1477e-41
1.87 0.23 2.67 9.1477e-41
1.91 0.23 2.67 9.1477e-41
1.95 0.23 2.67 9.1477e-41
2 0.23 2.69 9.1477e-41
2.04 0.23 2.68 9.1477e-41
2.08 0.23 2.68 9.1477e-41
2.12 0.23 2.69 9.1477e-41
2.16 0.23 2.69 9.1477e-41
2.19 0.23 2.69 9.1477e-41
2.24 0.23 2.71 9.1477e-41
2.28 0.23 2.71 9.1477e-41
2.31 0.23 2.71 9.1477e-41
2.36 0.23 2.73 9.1477e-41
2.39 0.23 2.72 9.1477e-41
2.43 0.23 2.72 9.1477e-41
2.46 0.23 2.73 9.1477e-41
2.5 0.23 2.74 9.1477e-41
2.53 0.23 2.73 9.1477e-41
2.57 0.23 2.74 9.1477e-41
2.6 0.23 2.73 9.1477e-41
2.63 0.23 2.73 9.1477e-41
2.66 0.23 2.73 9.1477e-41
2.69 0.23 2.72 9.1477e-41
2.72 0.23 2.73 9.1477e-41
2.75 0.23 2.72 9.1477e-41
2.78 0.23 2.72 9.1477e-41
2.8 0.23 2.7 9.1477e-41
2.83 0.23 2.7 9.1477e-41
2.85 0.23 2.67 9.1477e-41
2.87 0.23 2.67 3.57e-43
2.86 0.23 2.67 3.57e-43
2.7 0.23 2.04 9.1477e-41
2.87 0.23 2.41 9.1477e-41
2.89 0.23 2.37 9.1477e-41
2.91 0.23 2.33 9.1477e-41
2.92 0.23 2.25 9.1477e-41
2.92 0.23 2.18 9.1477e-41
2.93 0.23 2.08 9.1477e-41
2.92 0.23 1.95 9.1477e-41
2.93 0.23 1.88 9.1477e-41
2.94 0.23 1.79 9.1477e-41
2.94 0.23 1.66 9.1477e-41
2.93 0.23 1.47 9.1477e-41
2.94 0.23 1.37 9.1477e-41
2.91 0.23 1.08 9.1477e-41
2.93 0.23 1 9.1477e-41
2.93 0.23 0.83 9.1477e-41
2.95 0.23 0.72 9.1477e-41
2.98 0.23 0.66 9.1477e-41
0.8 0.24 2.7 9.1477e-41
0.81 0.24 2.67 9.1477e-41
0.9 0.24 2.69 9.1477e-41
0.97 0.24 2.71 9.1477e-41
1.03 0.24 2.72 9.1477e-41
1.08 0.24 2.71 9.1477e-41
1.13 0.24 2.71 9.1477e-41
1.19 0.24 2.72 9.1477e-41
1.25 0.24 2.73 9.1477e-41
1.3 0.24 2.73 9.1477e-41
1.33 0.24 2.71 9.1477e-41
1.38 0.24 2.71 9.1477e-41
1.42 0.24 2.7 9.1477e-41
1.46 0.24 2.7 9.1477e-41
1.52 0.24 2.71 9.1477e-41
1.56 0.24 2.7 9.1477e-41
1.59 0.24 2.7 9.1477e-41
1.63 0.24 2.69 9.1477e-41
1.68 0.24 2.7 9.1477e-41
1.72 0.24 2.69 9.1477e-41
1.76 0.24 2.69 9.1477e-41
1.81 0.24 2.69 9.1477e-41
1.84 0.24 2.69 9.1477e-41
1.88 0.24 2.68 9.1477e-41
1.93 0.24 2.69 9.1477e-41
1.96 0.24 2.68 9.1477e-41
2 0.24 2.68 9.1477e-41
2.03 0.24 2.68 9.1477e-41
2.07 0.24 2.67 9.1477e-41
2.1 0.24 2.66 9.1477e-41
2.14 0.24 2.66 9.1477e-41
2.18 0.24 2.66 9.1477e-41
2.21 0.24 2.66 9.1477e-41
2.25 0.24 2.67 9.1477e-41
2.28 0.24 2.66 9.1477e-41
2.35 0.24 2.71 9.1477e-41
2.38 0.24 2.7 9.1477e-41
2.39 0.24 2.66 9.1477e-41
2.43 0.24 2.67 9.1477e-41
2.46 0.24 2.66 9.1477e-41
2.5 0.24 2.67 9.1477e-41
2.53 0.24 2.68 9.1477e-41
2.58 0.24 2.7 9.1477e-41
2.62 0.24 2.71 9.1477e-41
2.65 0.24 2.72 9.1477e-41
2.69 0.24 2.73 9.1477e-41
2.72 0.24 2.73 9.1477e-41
2.75 0.24 2.73 9.1477e-41
2.78 0.24 2.72 9.1477e-41
2.81 0.24 2.72 9.1477e-41
2.84 0.24 2.71 9.1477e-41
2.86 0.24 2.68 9.1477e-41
2.87 0.24 2.64 9.1477e-41
2.87 0.24 2.56 9.1477e-41
2.87 0.24 2.47 9.1477e-41
2.89 0.24 2.44 9.1477e-41
2.9 0.24 2.4 9.1477e-41
2.91 0.24 2.34 9.1477e-41
2.92 0.24 2.26 9.1477e-41
2.93 0.24 2.19 9.1477e-41
2.93 0.24 2.08 9.1477e-41
2.91 0.24 1.92 9.1477e-41
2.93 0.24 1.88 9.1477e-41
2.94 0.24 1.79 9.1477e-41
2.95 0.24 1.67 9.1477e-41
2.94 0.24 1.49 9.1477e-41
2.94 0.24 1.35 9.1477e-41
2.89 0.24 1.01 9.1477e-41
2.9 0.24 0.89 9.1477e-41
2.94 0.24 0.85 9.1477e-41
2.95 0.24 0.71 9.1477e-41
2.98 0.24 0.67 9.1477e-41
0.8 0.25 2.71 9.1477e-41
0.87 0.25 2.72 9.1477e-41
0.94 0.25 2.73 9.1477e-41
1 0.25 2.74 9.1477e-41
1.05 0.25 2.74 9.1477e-41
1.09 0.25 2.72 9.1477e-41
1.16 0.25 2.74 9.1477e-41
1.21 0.25 2.74 9.1477e-41
1.26 0.25 2.74 9.1477e-41
1.31 0.25 2.74 9.1477e-41
1.35 0.25 2.73 9.1477e-41
1.4 0.25 2.73 9.1477e-41
1.44 0.25 2.72 9.1477e-41
1.49 0.25 2.73 9.1477e-41
1.52 0.25 2.72 9.1477e-41
1.58 0.25 2.72 9.1477e-41
1.62 0.25 2.73 9.1477e-41
1.66 0.25 2.72 9.1477e-41
1.7 0.25 2.72 9.1477e-41
1.74 0.25 2.72 9.1477e-41
1.79 0.25 2.73 9.1477e-41
1.82 0.25 2.72 9.1477e-41
1.87 0.25 2.72 9.1477e-41
1.9 0.25 2.71 9.1477e-41
1.94 0.25 2.71 9.1477e-41
1.99 0.25 2.72 9.1477e-41
2.01 0.25 2.7 9.1477e-41
2.06 0.25 2.71 9.1477e-41
2.09 0.25 2.71 9.1477e-41
2.12 0.25 2.7 9.1477e-41
2.16 0.25 2.7 9.1477e-41
2.19 0.25 2.69 9.1477e-41
2.23 0.25 2.7 9.1477e-41
2.27 0.25 2.69 9.1477e-41
2.3 0.25 2.68 9.1477e-41
2.35 0.25 2.71 9.1477e-41
2.38 0.25 2.7 9.1477e-41
2.4 0.25 2.68 9.1477e-41
2.42 0.25 2.66 9.1477e-41
2.46 0.25 2.66 9.1477e-41
2.49 0.25 2.66 9.1477e-41
2.53 0.25 2.66 9.1477e-41
2.55 0.25 2.65 9.1477e-41
2.59 0.25 2.66 9.1477e-41
2.62 0.25 2.65 9.1477e-41
2.66 0.25 2.66 9.1477e-41
2.7 0.25 2.68 9.1477e-41
2.73 0.25 2.68 9.1477e-41
2.77 0.25 2.71 9.1477e-41
2.81 0.25 2.72 9.1477e-41
2.84 0.25 2.71 9.1477e-41
2.86 0.25 2.68 9.1477e-41
2.87 0.25 2.64 9.1477e-41
2.87 0.25 2.58 9.1477e-41
2.88 0.25 2.51 9.1477e-41
2.89 0.25 2.45 9.1477e-41
2.9 0.25 2.4 9.1477e-41
2.92 0.25 2.35 9.1477e-41
2.93 0.25 2.3 9.1477e-41
2.93 0.25 2.19 9.1477e-41
2.88 0.25 1.93 9.1477e-41
2.91 0.25 1.91 9.1477e-41
2.93 0.25 1.88 9.1477e-41
2.95 0.25 1.8 9.1477e-41
2.96 0.25 1.71 9.1477e-41
2.94 0.25 1.52 9.1477e-41
2.94 0.25 1.37 9.1477e-41
3.15 0.25 2.03 9.1477e-41
2.9 0.25 0.87 9.1477e-41
2.93 0.25 0.81 9.1477e-41
2.95 0.25 0.73 9.1477e-41
2.99 0.25 0.68 9.1477e-41
0.83 0.26 2.74 9.1477e-41
0.89 0.26 2.74 9.1477e-41
0.94 0.26 2.74 9.1477e-41
1.01 0.26 2.75 9.1477e-41
1.06 0.26 2.74 9.1477e-41
1.11 0.26 2.75 9.1477e-41
1.17 0.26 2.75 9.1477e-41
1.21 0.26 2.74 9.1477e-41
1.26 0.26 2.74 9.1477e-41
1.31 0.26 2.74 9.1477e-41
1.36 0.26 2.74 9.1477e-41
1.41 0.26 2.74 9.1477e-41
1.45 0.26 2.74 9.1477e-41
1.5 0.26 2.74 9.1477e-41
1.54 0.26 2.73 9.1477e-41
1.59 0.26 2.74 9.1477e-41
1.63 0.26 2.73 9.1477e-41
1.68 0.26 2.74 9.1477e-41
1.71 0.26 2.73 9.1477e-41
1.75 0.26 2.73 9.1477e-41
1.8 0.26 2.74 9.1477e-41
1.84 0.26 2.73 9.1477e-41
1.87 0.26 2.72 9.1477e-41
1.91 0.26 2.72 9.1477e-41
1.95 0.26 2.72 9.1477e-41
1.99 0.26 2.73 9.1477e-41
2.03 0.26 2.73 9.1477e-41
2.06 0.26 2.72 9.1477e-41
2.09 0.26 2.71 9.1477e-41
2.14 0.26 2.71 9.1477e-41
2.17 0.26 2.71 9.1477e-41
2.21 0.26 2.71 9.1477e-41
2.24 0.26 2.71 9.1477e-41
2.28 0.26 2.71 9.1477e-41
2.31 0.26 2.71 9.1477e-41
2.35 0.26 2.72 9.1477e-41
2.39 0.26 2.71 9.1477e-41
2.41 0.26 2.7 9.1477e-41
2.45 0.26 2.7 9.1477e-41
2.47 0.26 2.69 9.1477e-41
2.51 0.26 2.69 9.1477e-41
2.54 0.26 2.69 9.1477e-41
2.57 0.26 2.68 9.1477e-41
2.6 0.26 2.69 9.1477e-41
2.63 0.26 2.66 9.1477e-41
2.66 0.26 2.66 9.1477e-41
2.68 0.26 2.65 9.1477e-41
2.71 0.26 2.64 9.1477e-41
2.75 0.26 2.65 9.1477e-41
2.78 0.26 2.66 9.1477e-41
2.83 0.26 2.68 9.1477e-41
2.86 0.26 2.69 9.1477e-41
2.87 0.26 2.64 9.1477e-41
2.87 0.26 2.57 9.1477e-41
2.88 0.26 2.52 9.1477e-41
2.9 0.26 2.48 9.1477e-41
2.91 0.26 2.41 9.1477e-41
2.93 0.26 2.39 9.1477e-41
2.97 0.26 2.4 9.1477e-41
3 0.26 2.4 9.1477e-41
3.02 0.26 2.37 9.1477e-41
3.03 0.26 2.29 9.1477e-41
2.93 0.26 2.29 3.57e-43
2.95 0.26 2.29 3.57e-43
2.96 0.26 1.71 9.1477e-41
2.93 0.26 1.71 3.57e-43
2.94 0.26 1.37 9.1477e-41
3.16 0.26 2.04 9.1477e-41
3.18 0.26 1.99 9.1477e-41
2.9 0.26 0.68 9.1477e-41
2.95 0.26 0.7 9.1477e-41
2.98 0.26 0.66 9.1477e-41
0.85 0.27 2.75 9.1477e-41
0.9 0.27 2.75 9.1477e-41
0.96 0.27 2.75 9.1477e-41
1.01 0.27 2.75 9.1477e-41
1.07 0.27 2.76 9.1477e-41
1.11 0.27 2.75 9.1477e-41
1.17 0.27 2.75 9.1477e-41
1.22 0.27 2.75 9.1477e-41
1.27 0.27 2.75 9.1477e-41
1.32 0.27 2.75 9.1477e-41
1.36 0.27 2.74 9.1477e-41
1.41 0.27 2.75 9.1477e-41
1.46 0.27 2.75 9.1477e-41
1.5 0.27 2.75 9.1477e-41
1.55 0.27 2.75 9.1477e-41
1.59 0.27 2.74 9.1477e-41
1.63 0.27 2.74 9.1477e-41
1.68 0.27 2.74 9.1477e-41
1.72 0.27 2.74 9.1477e-41
1.75 0.27 2.73 9.1477e-41
1.8 0.27 2.74 9.1477e-41
1.84 0.27 2.73 9.1477e-41
1.88 0.27 2.74 9.1477e-41
1.92 0.27 2.73 9.1477e-41
1.96 0.27 2.73 9.1477e-41
2 0.27 2.74 9.1477e-41
2.04 0.27 2.73 9.1477e-41
2.07 0.27 2.73 9.1477e-41
2.11 0.27 2.73 9.1477e-41
2.15 0.27 2.73 9.1477e-41
2.18 0.27 2.73 9.1477e-41
2.21 0.27 2.72 9.1477e-41
2.25 0.27 2.72 9.1477e-41
2.29 0.27 2.73 9.1477e-41
2.32 0.27 2.73 9.1477e-41
2.35 0.27 2.72 9.1477e-41
2.39 0.27 2.71 9.1477e-41
2.42 0.27 2.72 9.1477e-41
2.45 0.27 2.71 9.1477e-41
2.48 0.27 2.7 9.1477e-41
2.51 0.27 2.7 9.1477e-41
2.55 0.27 2.7 9.1477e-41
2.58 0.27 2.7 9.1477e-41
2.61 0.27 2.7 9.1477e-41
2.64 0.27 2.69 9.1477e-41
2.67 0.27 2.69 9.1477e-41
2.7 0.27 2.68 9.1477e-41
2.73 0.27 2.68 9.1477e-41
2.76 0.27 2.67 9.1477e-41
2.78 0.27 2.66 9.1477e-41
2.82 0.27 2.66 9.1477e-41
2.86 0.27 2.68 9.1477e-41
2.88 0.27 2.66 9.1477e-41
2.88 0.27 2.59 9.1477e-41
2.89 0.27 2.54 9.1477e-41
2.9 0.27 2.49 9.1477e-41
2.91 0.27 2.42 9.1477e-41
2.93 0.27 2.39 9.1477e-41
2.98 0.27 2.43 9.1477e-41
3.01 0.27 2.42 9.1477e-41
3.04 0.27 2.43 9.1477e-41
3.07 0.27 2.42 9.1477e-41
2.93 0.27 1.88 9.1477e-41
3.12 0.27 2.4 9.1477e-41
3.15 0.27 2.4 3.57e-43
2.93 0.27 2.4 3.57e-43
2.94 0.27 1.37 9.1477e-41
3.17 0.27 2.08 9.1477e-41
3.17 0.27 1.95 9.1477e-41
2.89 0.27 0.66 9.1477e-41
2.95 0.27 0.71 9.1477e-41
2.98 0.27 0.65 9.1477e-41
0.85 0.28 2.75 9.1477e-41
0.9 0.28 2.75 9.1477e-41
0.95 0.28 2.74 9.1477e-41
1.02 0.28 2.76 9.1477e-41
1.07 0.28 2.76 9.1477e-41
1.13 0.28 2.76 9.1477e-41
1.17 0.28 2.75 9.1477e-41
1.22 0.28 2.75 9.1477e-41
1.27 0.28 2.75 9.1477e-41
1.32 0.28 2.75 9.1477e-41
1.37 0.28 2.75 9.1477e-41
1.41 0.28 2.75 9.1477e-41
1.47 0.28 2.75 9.1477e-41
1.5 0.28 2.75 9.1477e-41
1.55 0.28 2.75 9.1477e-41
1.59 0.28 2.75 9.1477e-41
1.64 0.28 2.75 9.1477e-41
1.68 0.28 2.74 9.1477e-41
1.72 0.28 2.75 9.1477e-41
1.76 0.28 2.74 9.1477e-41
1.8 0.28 2.74 9.1477e-41
1.85 0.28 2.75 9.1477e-41
1.89 0.28 2.74 9.1477e-41
1.92 0.28 2.74 9.1477e-41
1.96 0.28 2.74 9.1477e-41
2 0.28 2.74 9.1477e-41
2.04 0.28 2.73 9.1477e-41
2.07 0.28 2.73 9.1477e-41
2.11 0.28 2.73 9.1477e-41
2.15 0.28 2.73 9.1477e-41
2.18 0.28 2.73 9.1477e-41
2.22 0.28 2.73 9.1477e-41
2.25 0.28 2.72 9.1477e-41
2.29 0.28 2.72 9.1477e-41
2.32 0.28 2.73 9.1477e-41
2.35 0.28 2.72 9.1477e-41
2.4 0.28 2.73 9.1477e-41
2.43 0.28 2.72 9.1477e-41
2.46 0.28 2.72 9.1477e-41
2.49 0.28 2.71 9.1477e-41
2.52 0.28 2.72 9.1477e-41
2.55 0.28 2.71 9.1477e-41
2.59 0.28 2.72 9.1477e-41
2.61 0.28 2.7 9.1477e-41
2.65 0.28 2.71 9.1477e-41
2.68 0.28 2.71 9.1477e-41
2.71 0.28 2.7 9.1477e-41
2.74 0.28 2.7 9.1477e-41
2.76 0.28 2.69 9.1477e-41
2.8 0.28 2.69 9.1477e-41
2.82 0.28 2.67 9.1477e-41
2.85 0.28 2.67 9.1477e-41
2.88 0.28 2.66 9.1477e-41
2.89 0.28 2.6 9.1477e-41
2.91 0.28 2.58 9.1477e-41
2.91 0.28 2.5 9.1477e-41
2.92 0.28 2.43 9.1477e-41
2.93 0.28 2.39 9.1477e-41
2.98 0.28 2.42 9.1477e-41
3 0.28 2.41 9.1477e-41
3.03 0.28 2.39 9.1477e-41
3.03 0.28 2.3 9.1477e-41
2.93 0.28 1.87 9.1477e-41
2.93 0.28 1.74 9.1477e-41
2.94 0.28 1.66 9.1477e-41
3.14 0.28 2.23 9.1477e-41
3.16 0.28 2.18 9.1477e-41
3.16 0.28 2.06 9.1477e-41
3.17 0.28 1.95 9.1477e-41
2.9 0.28 0.7 9.1477e-41
2.95 0.28 0.71 9.1477e-41
2.98 0.28 0.67 9.1477e-41
0.85 0.29 2.75 9.1477e-41
0.9 0.29 2.75 9.1477e-41
0.97 0.29 2.76 9.1477e-41
1.02 0.29 2.76 9.1477e-41
1.07 0.29 2.76 9.1477e-41
1.12 0.29 2.75 9.1477e-41
1.17 0.29 2.75 9.1477e-41
1.23 0.29 2.76 9.1477e-41
1.28 0.29 2.76 9.1477e-41
1.32 0.29 2.75 9.1477e-41
1.37 0.29 2.75 9.1477e-41
1.42 0.29 2.76 9.1477e-41
1.46 0.29 2.75 9.1477e-41
1.51 0.29 2.75 9.1477e-41
1.55 0.29 2.75 9.1477e-41
1.6 0.29 2.76 9.1477e-41
1.64 0.29 2.75 9.1477e-41
1.68 0.29 2.75 9.1477e-41
1.73 0.29 2.75 9.1477e-41
1.77 0.29 2.75 9.1477e-41
1.8 0.29 2.74 9.1477e-41
1.85 0.29 2.75 9.1477e-41
1.89 0.29 2.75 9.1477e-41
1.92 0.29 2.74 9.1477e-41
1.97 0.29 2.75 9.1477e-41
2 0.29 2.74 9.1477e-41
2.04 0.29 2.74 9.1477e-41
2.07 0.29 2.73 9.1477e-41
2.12 0.29 2.74 9.1477e-41
2.15 0.29 2.74 9.1477e-41
2.18 0.29 2.73 9.1477e-41
2.22 0.29 2.73 9.1477e-41
2.26 0.29 2.73 9.1477e-41
2.29 0.29 2.73 9.1477e-41
2.32 0.29 2.73 9.1477e-41
2.36 0.29 2.73 9.1477e-41
2.4 0.29 2.73 9.1477e-41
2.43 0.29 2.72 9.1477e-41
2.46 0.29 2.73 9.1477e-41
2.49 0.29 2.71 9.1477e-41
2.53 0.29 2.73 9.1477e-41
2.56 0.29 2.72 9.1477e-41
2.59 0.29 2.72 9.1477e-41
2.62 0.29 2.71 9.1477e-41
2.64 0.29 2.7 9.1477e-41
2.68 0.29 2.71 9.1477e-41
2.71 0.29 2.71 9.1477e-41
2.74 0.29 2.71 9.1477e-41
2.77 0.29 2.71 9.1477e-41
2.8 0.29 2.7 9.1477e-41
2.83 0.29 2.69 9.1477e-41
2.86 0.29 2.68 9.1477e-41
2.88 0.29 2.67 9.1477e-41
2.89 0.29 2.61 9.1477e-41
2.91 0.29 2.59 9.1477e-41
2.91 0.29 2.5 9.1477e-41
2.92 0.29 2.44 9.1477e-41
2.92 0.29 2.36 9.1477e-41
2.95 0.29 2.34 9.1477e-41
2.83 0.29 1.89 9.1477e-41
2.87 0.29 1.9 9.1477e-41
2.9 0.29 1.9 9.1477e-41
2.93 0.29 1.87 9.1477e-41
2.94 0.29 1.79 9.1477e-41
2.95 0.29 1.68 9.1477e-41
2.92 0.29 1.43 9.1477e-41
2.94 0.29 1.37 9.1477e-41
3.19 0.29 2.18 9.1477e-41
3.18 0.29 2.01 9.1477e-41
2.9 0.29 0.68 9.1477e-41
2.92 0.29 0.6 9.1477e-41
2.98 0.29 0.66 9.1477e-41
0.85 0.3 2.75 9.1477e-41
0.9 0.3 2.75 9.1477e-41
0.96 0.3 2.76 9.1477e-41
1.03 0.3 2.76 9.1477e-41
1.08 0.3 2.76 9.1477e-41
1.13 0.3 2.76 9.1477e-41
1.17 0.3 2.75 9.1477e-41
1.23 0.3 2.76 9.1477e-41
1.28 0.3 2.76 9.1477e-41
1.33 0.3 2.76 9.1477e-41
1.37 0.3 2.76 9.1477e-41
1.42 0.3 2.76 9.1477e-41
1.47 0.3 2.76 9.1477e-41
1.51 0.3 2.75 9.1477e-41
1.56 0.3 2.76 9.1477e-41
1.6 0.3 2.76 9.1477e-41
1.64 0.3 2.75 9.1477e-41
1.68 0.3 2.75 9.1477e-41
1.73 0.3 2.75 9.1477e-41
1.77 0.3 2.76 9.1477e-41
1.81 0.3 2.75 9.1477e-41
1.85 0.3 2.76 9.1477e-41
1.89 0.3 2.75 9.1477e-41
1.93 0.3 2.75 9.1477e-41
1.97 0.3 2.75 9.1477e-41
2 0.3 2.74 9.1477e-41
2.04 0.3 2.74 9.1477e-41
2.08 0.3 2.75 9.1477e-41
2.12 0.3 2.74 9.1477e-41
2.16 0.3 2.75 9.1477e-41
2.19 0.3 2.74 9.1477e-41
2.23 0.3 2.74 9.1477e-41
2.26 0.3 2.73 9.1477e-41
2.29 0.3 2.73 9.1477e-41
2.33 0.3 2.73 9.1477e-41
2.36 0.3 2.73 9.1477e-41
2.4 0.3 2.74 9.1477e-41
2.43 0.3 2.72 9.1477e-41
2.46 0.3 2.73 9.1477e-41
2.5 0.3 2.73 9.1477e-41
2.53 0.3 2.73 9.1477e-41
2.56 0.3 2.73 9.1477e-41
2.59 0.3 2.72 9.1477e-41
2.62 0.3 2.72 9.1477e-41
2.65 0.3 2.72 9.1477e-41
2.68 0.3 2.71 9.1477e-41
2.71 0.3 2.71 9.1477e-41
2.74 0.3 2.71 9.1477e-41
2.77 0.3 2.71 9.1477e-41
2.8 0.3 2.7 9.1477e-41
2.83 0.3 2.69 9.1477e-41
2.86 0.3 2.69 9.1477e-41
2.88 0.3 2.66 9.1477e-41
2.89 0.3 2.62 9.1477e-41
2.91 0.3 2.58 9.1477e-41
2.91 0.3 2.52 9.1477e-41
2.92 0.3 2.44 9.1477e-41
2.78 0.3 1.97 9.1477e-41
2.8 0.3 1.91 9.1477e-41
2.83 0.3 1.89 9.1477e-41
2.87 0.3 1.89 9.1477e-41
2.9 0.3 1.89 9.1477e-41
2.93 0.3 1.88 9.1477e-41
2.94 0.3 1.78 9.1477e-41
2.95 0.3 1.69 9.1477e-41
2.94 0.3 1.49 9.1477e-41
2.94 0.3 1.35 9.1477e-41
3.19 0.3 2.18 9.1477e-41
3.21 0.3 2.13 9.1477e-41
3.21 0.3 1.97 9.1477e-41
2.92 0.3 0.6 9.1477e-41
2.97 0.3 0.6 9.1477e-41
0.85 0.31 2.76 9.1477e-41
0.91 0.31 2.76 9.1477e-41
0.96 0.31 2.76 9.1477e-41
1.03 0.31 2.76 9.1477e-41
1.07 0.31 2.76 9.1477e-41
1.13 0.31 2.76 9.1477e-41
1.18 0.31 2.76 9.1477e-41
1.23 0.31 2.76 9.1477e-41
1.28 0.31 2.76 9.1477e-41
1.33 0.31 2.76 9.1477e-41
1.37 0.31 2.76 9.1477e-41
1.42 0.31 2.76 9.1477e-41
1.47 0.31 2.75 9.1477e-41
1.52 0.31 2.76 9.1477e-41
1.55 0.31 2.75 9.1477e-41
1.6 0.31 2.76 9.1477e-41
1.65 0.31 2.76 9.1477e-41
1.68 0.31 2.75 9.1477e-41
1.73 0.31 2.75 9.1477e-41
1.77 0.31 2.76 9.1477e-41
1.81 0.31 2.75 9.1477e-41
1.85 0.31 2.76 9.1477e-41
1.89 0.31 2.75 9.1477e-41
1.93 0.31 2.75 9.1477e-41
1.97 0.31 2.75 9.1477e-41
2 0.31 2.74 9.1477e-41
2.04 0.31 2.74 9.1477e-41
2.08 0.31 2.75 9.1477e-41
2.12 0.31 2.75 9.1477e-41
2.15 0.31 2.74 9.1477e-41
2.19 0.31 2.74 9.1477e-41
2.22 0.31 2.73 9.1477e-41
2.26 0.31 2.73 9.1477e-41
2.29 0.31 2.73 9.1477e-41
2.33 0.31 2.74 9.1477e-41
2.36 0.31 2.74 9.1477e-41
2.4 0.31 2.73 9.1477e-41
2.43 0.31 2.73 9.1477e-41
2.46 0.31 2.73 9.1477e-41
2.5 0.31 2.73 9.1477e-41
2.53 0.31 2.73 9.1477e-41
2.56 0.31 2.72 9.1477e-41
2.59 0.31 2.73 9.1477e-41
2.62 0.31 2.72 9.1477e-41
2.65 0.31 2.72 9.1477e-41
2.69 0.31 2.72 9.1477e-41
2.71 0.31 2.71 9.1477e-41
2.75 0.31 2.72 9.1477e-41
2.77 0.31 2.71 9.1477e-41
2.8 0.31 2.7 9.1477e-41
2.84 0.31 2.71 9.1477e-41
2.86 0.31 2.69 9.1477e-41
2.88 0.31 2.66 9.1477e-41
2.89 0.31 2.62 9.1477e-41
2.91 0.31 2.58 9.1477e-41
2.91 0.31 2.58 3.57e-43
2.92 0.31 2.44 9.1477e-41
2.76 0.31 1.9 9.1477e-41
2.8 0.31 1.9 9.1477e-41
2.82 0.31 1.87 9.1477e-41
2.87 0.31 1.89 9.1477e-41
2.9 0.31 1.89 9.1477e-41
2.93 0.31 1.87 9.1477e-41
2.94 0.31 1.79 9.1477e-41
2.95 0.31 1.69 9.1477e-41
2.93 0.31 1.48 9.1477e-41
2.95 0.31 1.4 9.1477e-41
2.88 0.31 0.99 9.1477e-41
2.91 0.31 0.93 9.1477e-41
2.94 0.31 0.85 9.1477e-41
2.94 0.31 0.68 9.1477e-41
2.97 0.31 0.62 9.1477e-41
0.85 0.32 2.76 9.1477e-41
0.9 0.32 2.75 9.1477e-41
0.97 0.32 2.76 9.1477e-41
1.02 0.32 2.76 9.1477e-41
1.08 0.32 2.76 9.1477e-41
1.13 0.32 2.76 9.1477e-41
1.18 0.32 2.76 9.1477e-41
1.23 0.32 2.76 9.1477e-41
1.28 0.32 2.76 9.1477e-41
1.33 0.32 2.76 9.1477e-41
1.37 0.32 2.76 9.1477e-41
1.43 0.32 2.76 9.1477e-41
1.47 0.32 2.76 9.1477e-41
1.52 0.32 2.76 9.1477e-41
1.56 0.32 2.76 9.1477e-41
1.6 0.32 2.76 9.1477e-41
1.65 0.32 2.76 9.1477e-41
1.68 0.32 2.75 9.1477e-41
1.73 0.32 2.75 9.1477e-41
1.77 0.32 2.76 9.1477e-41
1.81 0.32 2.75 9.1477e-41
1.85 0.32 2.76 9.1477e-41
1.89 0.32 2.74 9.1477e-41
1.93 0.32 2.75 9.1477e-41
1.97 0.32 2.75 9.1477e-41
2.01 0.32 2.75 9.1477e-41
2.04 0.32 2.74 9.1477e-41
2.08 0.32 2.75 9.1477e-41
2.12 0.32 2.74 9.1477e-41
2.16 0.32 2.75 9.1477e-41
2.19 0.32 2.74 9.1477e-41
2.23 0.32 2.74 9.1477e-41
2.26 0.32 2.74 9.1477e-41
2.29 0.32 2.73 9.1477e-41
2.33 0.32 2.73 9.1477e-41
2.36 0.32 2.73 9.1477e-41
2.4 0.32 2.74 9.1477e-41
2.43 0.32 2.72 9.1477e-41
2.47 0.32 2.74 9.1477e-41
2.5 0.32 2.73 9.1477e-41
2.53 0.32 2.73 9.1477e-41
2.56 0.32 2.73 9.1477e-41
2.59 0.32 2.73 9.1477e-41
2.63 0.32 2.73 9.1477e-41
2.66 0.32 2.73 9.1477e-41
2.69 0.32 2.72 9.1477e-41
2.71 0.32 2.71 9.1477e-41
2.75 0.32 2.72 9.1477e-41
2.78 0.32 2.72 9.1477e-41
2.8 0.32 2.7 9.1477e-41
2.84 0.32 2.71 9.1477e-41
2.86 0.32 2.7 9.1477e-41
2.88 0.32 2.66 9.1477e-41
2.9 0.32 2.63 9.1477e-41
2.91 0.32 2.58 9.1477e-41
2.92 0.32 2.53 9.1477e-41
2.72 0.32 1.89 9.1477e-41
2.75 0.32 1.89 9.1477e-41
2.78 0.32 1.86 9.1477e-41
2.82 0.32 1.87 9.1477e-41
2.87 0.32 1.91 9.1477e-41
2.9 0.32 1.9 9.1477e-41
2.93 0.32 1.88 9.1477e-41
2.94 0.32 1.79 9.1477e-41
2.96 0.32 1.7 9.1477e-41
2.94 0.32 1.49 9.1477e-41
2.95 0.32 1.41 9.1477e-41
2.92 0.32 1.14 9.1477e-41
2.93 0.32 1 9.1477e-41
2.95 0.32 0.89 9.1477e-41
2.93 0.32 0.65 9.1477e-41
2.98 0.32 0.67 9.1477e-41
2.98 0.32 0.41 9.1477e-41
0.85 0.33 2.76 9.1477e-41
0.91 0.33 2.76 9.1477e-41
0.97 0.33 2.76 9.1477e-41
1.03 0.33 2.76 9.1477e-41
1.07 0.33 2.76 9.1477e-41
1.13 0.33 2.76 9.1477e-41
1.18 0.33 2.76 9.1477e-41
1.24 0.33 2.76 9.1477e-41
1.29 0.33 2.77 9.1477e-41
1.33 0.33 2.77 9.1477e-41
1.38 0.33 2.76 9.1477e-41
1.43 0.33 2.76 9.1477e-41
1.48 0.33 2.77 9.1477e-41
1.52 0.33 2.76 9.1477e-41
1.56 0.33 2.76 9.1477e-41
1.6 0.33 2.76 9.1477e-41
1.65 0.33 2.76 9.1477e-41
1.7 0.33 2.77 9.1477e-41
1.73 0.33 2.75 9.1477e-41
1.77 0.33 2.76 9.1477e-41
1.82 0.33 2.76 9.1477e-41
1.85 0.33 2.75 9.1477e-41
1.89 0.33 2.75 9.1477e-41
1.93 0.33 2.75 9.1477e-41
1.97 0.33 2.75 9.1477e-41
2.01 0.33 2.75 9.1477e-41
2.05 0.33 2.75 9.1477e-41
2.08 0.33 2.75 9.1477e-41
2.12 0.33 2.74 9.1477e-41
2.15 0.33 2.74 9.1477e-41
2.19 0.33 2.75 9.1477e-41
2.23 0.33 2.75 9.1477e-41
2.27 0.33 2.75 9.1477e-41
2.3 0.33 2.74 9.1477e-41
2.33 0.33 2.73 9.1477e-41
2.36 0.33 2.74 9.1477e-41
2.4 0.33 2.74 9.1477e-41
2.44 0.33 2.74 9.1477e-41
2.46 0.33 2.73 9.1477e-41
2.5 0.33 2.74 9.1477e-41
2.53 0.33 2.73 9.1477e-41
2.56 0.33 2.73 9.1477e-41
2.59 0.33 2.73 9.1477e-41
2.63 0.33 2.73 9.1477e-41
2.66 0.33 2.73 9.1477e-41
2.69 0.33 2.72 9.1477e-41
2.72 0.33 2.72 9.1477e-41
2.75 0.33 2.72 9.1477e-41
2.78 0.33 2.72 9.1477e-41
2.8 0.33 2.7 9.1477e-41
2.84 0.33 2.71 9.1477e-41
2.86 0.33 2.69 9.1477e-41
2.88 0.33 2.67 9.1477e-41
2.89 0.33 2.62 9.1477e-41
2.91 0.33 2.59 9.1477e-41
2.91 0.33 2.52 9.1477e-41
2.69 0.33 1.82 9.1477e-41
2.74 0.33 1.85 9.1477e-41
2.78 0.33 1.85 9.1477e-41
2.83 0.33 1.88 9.1477e-41
2.87 0.33 1.9 9.1477e-41
2.9 0.33 1.89 9.1477e-41
2.93 0.33 1.87 9.1477e-41
2.94 0.33 1.79 9.1477e-41
2.95 0.33 1.69 9.1477e-41
2.93 0.33 1.48 9.1477e-41
2.95 0.33 1.41 9.1477e-41
2.91 0.33 1.1 9.1477e-41
2.93 0.33 1 9.1477e-41
2.95 0.33 0.91 9.1477e-41
2.95 0.33 0.71 9.1477e-41
2.98 0.33 0.64 9.1477e-41
2.97 0.33 0.4 9.1477e-41
0.75 0.34 2.77 9.1477e-41
0.81 0.34 2.77 9.1477e-41
0.85 0.34 2.76 9.1477e-41
0.92 0.34 2.76 9.1477e-41
0.97 0.34 2.76 9.1477e-41
1.03 0.34 2.76 9.1477e-41
1.08 0.34 2.76 9.1477e-41
1.14 0.34 2.77 9.1477e-41
1.19 0.34 2.77 9.1477e-41
1.24 0.34 2.77 9.1477e-41
1.29 0.34 2.77 9.1477e-41
1.33 0.34 2.77 9.1477e-41
1.38 0.34 2.76 9.1477e-41
1.43 0.34 2.77 9.1477e-41
1.47 0.34 2.75 9.1477e-41
1.52 0.34 2.77 9.1477e-41
1.56 0.34 2.76 9.1477e-41
1.61 0.34 2.76 9.1477e-41
1.65 0.34 2.76 9.1477e-41
1.69 0.34 2.76 9.1477e-41
1.74 0.34 2.76 9.1477e-41
1.77 0.34 2.76 9.1477e-41
1.82 0.34 2.77 9.1477e-41
1.85 0.34 2.76 9.1477e-41
1.89 0.34 2.75 9.1477e-41
1.93 0.34 2.75 9.1477e-41
1.97 0.34 2.75 9.1477e-41
2.01 0.34 2.75 9.1477e-41
2.05 0.34 2.75 9.1477e-41
2.09 0.34 2.76 9.1477e-41
2.12 0.34 2.75 9.1477e-41
2.16 0.34 2.75 9.1477e-41
2.19 0.34 2.75 9.1477e-41
2.23 0.34 2.74 9.1477e-41
2.26 0.34 2.74 9.1477e-41
2.3 0.34 2.74 9.1477e-41
2.33 0.34 2.74 9.1477e-41
2.37 0.34 2.75 9.1477e-41
2.4 0.34 2.74 9.1477e-41
2.43 0.34 2.73 9.1477e-41
2.47 0.34 2.74 9.1477e-41
2.5 0.34 2.73 9.1477e-41
2.53 0.34 2.73 9.1477e-41
2.56 0.34 2.72 9.1477e-41
2.59 0.34 2.73 9.1477e-41
2.63 0.34 2.73 9.1477e-41
2.66 0.34 2.73 9.1477e-41
2.69 0.34 2.72 9.1477e-41
2.72 0.34 2.72 9.1477e-41
2.74 0.34 2.71 9.1477e-41
2.78 0.34 2.72 9.1477e-41
2.8 0.34 2.7 9.1477e-41
2.83 0.34 2.7 9.1477e-41
2.86 0.34 2.7 9.1477e-41
2.88 0.34 2.67 9.1477e-41
2.89 0.34 2.62 9.1477e-41
2.91 0.34 2.59 9.1477e-41
2.47 0.34 1.34 9.1477e-41
2.61 0.34 1.6 9.1477e-41
2.69 0.34 1.71 9.1477e-41
2.76 0.34 1.79 9.1477e-41
2.84 0.34 1.91 9.1477e-41
2.87 0.34 1.91 9.1477e-41
2.9 0.34 1.9 9.1477e-41
2.93 0.34 1.88 9.1477e-41
2.94 0.34 1.79 9.1477e-41
2.95 0.34 1.69 9.1477e-41
2.94 0.34 1.49 9.1477e-41
2.95 0.34 1.4 9.1477e-41
2.91 0.34 1.11 9.1477e-41
2.92 0.34 0.98 9.1477e-41
2.95 0.34 0.89 9.1477e-41
2.95 0.34 0.72 9.1477e-41
2.98 0.34 0.67 9.1477e-41
0.75 0.35 2.77 9.1477e-41
0.81 0.35 2.77 9.1477e-41
0.86 0.35 2.76 9.1477e-41
0.92 0.35 2.76 9.1477e-41
0.98 0.35 2.77 9.1477e-41
1.03 0.35 2.76 9.1477e-41
1.08 0.35 2.76 9.1477e-41
1.14 0.35 2.77 9.1477e-41
1.18 0.35 2.76 9.1477e-41
1.25 0.35 2.78 9.1477e-41
1.29 0.35 2.77 9.1477e-41
1.33 0.35 2.77 9.1477e-41
1.38 0.35 2.76 9.1477e-41
1.43 0.35 2.77 9.1477e-41
1.48 0.35 2.77 9.1477e-41
1.52 0.35 2.76 9.1477e-41
1.57 0.35 2.77 9.1477e-41
1.61 0.35 2.76 9.1477e-41
1.65 0.35 2.76 9.1477e-41
1.69 0.35 2.76 9.1477e-41
1.74 0.35 2.76 9.1477e-41
1.77 0.35 2.76 9.1477e-41
1.82 0.35 2.76 9.1477e-41
1.85 0.35 2.76 9.1477e-41
1.9 0.35 2.76 9.1477e-41
1.94 0.35 2.77 9.1477e-41
1.97 0.35 2.75 9.1477e-41
2.01 0.35 2.75 9.1477e-41
2.05 0.35 2.75 9.1477e-41
2.08 0.35 2.75 9.1477e-41
2.13 0.35 2.76 9.1477e-41
2.16 0.35 2.75 9.1477e-41
2.19 0.35 2.75 9.1477e-41
2.23 0.35 2.75 9.1477e-41
2.27 0.35 2.75 9.1477e-41
2.3 0.35 2.74 9.1477e-41
2.33 0.35 2.74 9.1477e-41
2.37 0.35 2.75 9.1477e-41
2.41 0.35 2.75 9.1477e-41
2.44 0.35 2.74 9.1477e-41
2.47 0.35 2.74 9.1477e-41
2.5 0.35 2.73 9.1477e-41
2.53 0.35 2.73 9.1477e-41
2.56 0.35 2.73 9.1477e-41
2.6 0.35 2.73 9.1477e-41
2.62 0.35 2.72 9.1477e-41
2.66 0.35 2.73 9.1477e-41
2.69 0.35 2.72 9.1477e-41
2.72 0.35 2.72 9.1477e-41
2.75 0.35 2.73 9.1477e-41
2.78 0.35 2.72 9.1477e-41
2.81 0.35 2.71 9.1477e-41
2.84 0.35 2.71 9.1477e-41
2.86 0.35 2.69 9.1477e-41
2.88 0.35 2.67 9.1477e-41
2.89 0.35 2.62 9.1477e-41
2.91 0.35 2.59 9.1477e-41
2.48 0.35 1.36 9.1477e-41
2.59 0.35 1.53 9.1477e-41
2.63 0.35 1.54 9.1477e-41
2.78 0.35 1.86 9.1477e-41
2.84 0.35 1.91 9.1477e-41
2.87 0.35 1.92 9.1477e-41
2.9 0.35 1.89 9.1477e-41
2.93 0.35 1.87 9.1477e-41
2.94 0.35 1.79 9.1477e-41
2.95 0.35 1.69 9.1477e-41
2.94 0.35 1.49 9.1477e-41
2.95 0.35 1.4 9.1477e-41
2.92 0.35 1.12 9.1477e-41
2.93 0.35 1.01 9.1477e-41
2.95 0.35 0.91 9.1477e-41
2.95 0.35 0.73 9.1477e-41
2.98 0.35 0.66 9.1477e-41
0.81 0.36 2.77 9.1477e-41
0.86 0.36 2.76 9.1477e-41
0.91 0.36 2.76 9.1477e-41
0.98 0.36 2.77 9.1477e-41
1.03 0.36 2.76 9.1477e-41
1.08 0.36 2.76 9.1477e-41
1.14 0.36 2.77 9.1477e-41
1.18 0.36 2.76 9.1477e-41
1.25 0.36 2.78 9.1477e-41
1.29 0.36 2.77 9.1477e-41
1.34 0.36 2.77 9.1477e-41
1.38 0.36 2.76 9.1477e-41
1.43 0.36 2.76 9.1477e-41
1.48 0.36 2.77 9.1477e-41
1.51 0.36 2.75 9.1477e-41
1.56 0.36 2.76 9.1477e-41
1.61 0.36 2.76 9.1477e-41
1.66 0.36 2.77 9.1477e-41
1.7 0.36 2.77 9.1477e-41
1.74 0.36 2.77 9.1477e-41
1.78 0.36 2.76 9.1477e-41
1.82 0.36 2.76 9.1477e-41
1.86 0.36 2.76 9.1477e-41
1.9 0.36 2.76 9.1477e-41
1.93 0.36 2.75 9.1477e-41
1.98 0.36 2.76 9.1477e-41
2.01 0.36 2.75 9.1477e-41
2.05 0.36 2.75 9.1477e-41
2.09 0.36 2.76 9.1477e-41
2.13 0.36 2.76 9.1477e-41
2.16 0.36 2.75 9.1477e-41
2.19 0.36 2.75 9.1477e-41
2.23 0.36 2.74 9.1477e-41
2.27 0.36 2.75 9.1477e-41
2.29 0.36 2.73 9.1477e-41
2.34 0.36 2.75 9.1477e-41
2.36 0.36 2.74 9.1477e-41
2.41 0.36 2.75 9.1477e-41
2.43 0.36 2.73 9.1477e-41
2.47 0.36 2.74 9.1477e-41
2.5 0.36 2.74 9.1477e-41
2.53 0.36 2.73 9.1477e-41
2.57 0.36 2.74 9.1477e-41
2.6 0.36 2.73 9.1477e-41
2.63 0.36 2.73 9.1477e-41
2.66 0.36 2.74 9.1477e-41
2.69 0.36 2.72 9.1477e-41
2.72 0.36 2.72 9.1477e-41
2.75 0.36 2.72 9.1477e-41
2.78 0.36 2.72 9.1477e-41
2.81 0.36 2.71 9.1477e-41
2.83 0.36 2.7 9.1477e-41
2.86 0.36 2.7 9.1477e-41
2.89 0.36 2.68 9.1477e-41
2.9 0.36 2.64 9.1477e-41
2.93 0.36 2.64 9.1477e-41
2.48 0.36 1.36 9.1477e-41
2.57 0.36 1.48 9.1477e-41
2.63 0.36 1.54 9.1477e-41
2.79 0.36 1.89 9.1477e-41
2.84 0.36 1.92 9.1477e-41
2.87 0.36 1.91 9.1477e-41
2.9 0.36 1.89 9.1477e-41
2.93 0.36 1.87 9.1477e-41
2.94 0.36 1.78 9.1477e-41
2.95 0.36 1.69 9.1477e-41
2.94 0.36 1.49 9.1477e-41
2.95 0.36 1.4 9.1477e-41
2.91 0.36 1.1 9.1477e-41
2.93 0.36 0.99 9.1477e-41
2.95 0.36 0.9 9.1477e-41
2.95 0.36 0.71 9.1477e-41
2.98 0.36 0.63 9.1477e-41
0.85 0.37 2.76 9.1477e-41
0.92 0.37 2.76 9.1477e-41
0.98 0.37 2.77 9.1477e-41
1.03 0.37 2.77 9.1477e-41
1.09 0.37 2.77 9.1477e-41
1.14 0.37 2.77 9.1477e-41
1.19 0.37 2.77 9.1477e-41
1.25 0.37 2.78 9.1477e-41
1.3 0.37 2.78 9.1477e-41
1.34 0.37 2.77 9.1477e-41
1.37 0.37 2.76 9.1477e-41
1.43 0.37 2.77 9.1477e-41
1.48 0.37 2.77 9.1477e-41
1.52 0.37 2.77 9.1477e-41
1.56 0.37 2.76 9.1477e-41
1.61 0.37 2.77 9.1477e-41
1.65 0.37 2.76 9.1477e-41
1.7 0.37 2.77 9.1477e-41
1.74 0.37 2.76 9.1477e-41
1.78 0.37 2.76 9.1477e-41
1.82 0.37 2.77 9.1477e-41
1.86 0.37 2.76 9.1477e-41
1.9 0.37 2.76 9.1477e-41
1.94 0.37 2.77 9.1477e-41
1.98 0.37 2.76 9.1477e-41
2.01 0.37 2.75 9.1477e-41
2.06 0.37 2.77 9.1477e-41
2.09 0.37 2.76 9.1477e-41
2.13 0.37 2.76 9.1477e-41
2.16 0.37 2.75 9.1477e-41
2.19 0.37 2.74 9.1477e-41
2.23 0.37 2.75 9.1477e-41
2.26 0.37 2.74 9.1477e-41
2.3 0.37 2.75 9.1477e-41
2.34 0.37 2.75 9.1477e-41
2.37 0.37 2.75 9.1477e-41
2.41 0.37 2.76 9.1477e-41
2.44 0.37 2.74 9.1477e-41
2.47 0.37 2.74 9.1477e-41
2.5 0.37 2.74 9.1477e-41
2.53 0.37 2.73 9.1477e-41
2.57 0.37 2.74 9.1477e-41
2.6 0.37 2.73 9.1477e-41
2.63 0.37 2.73 9.1477e-41
2.66 0.37 2.73 9.1477e-41
2.69 0.37 2.72 9.1477e-41
2.72 0.37 2.73 9.1477e-41
2.75 0.37 2.73 9.1477e-41
2.78 0.37 2.72 9.1477e-41
2.81 0.37 2.71 9.1477e-41
2.84 0.37 2.71 9.1477e-41
2.87 0.37 2.71 9.1477e-41
2.9 0.37 2.71 9.1477e-41
2.93 0.37 2.71 9.1477e-41
2.96 0.37 2.71 9.1477e-41
2.98 0.37 2.71 9.1477e-41
2.58 0.37 1.5 9.1477e-41
2.63 0.37 1.55 9.1477e-41
2.79 0.37 1.89 9.1477e-41
2.84 0.37 1.92 9.1477e-41
2.87 0.37 1.91 9.1477e-41
2.9 0.37 1.89 9.1477e-41
2.93 0.37 1.88 9.1477e-41
2.94 0.37 1.79 9.1477e-41
2.95 0.37 1.68 9.1477e-41
2.94 0.37 1.49 9.1477e-41
2.95 0.37 1.4 9.1477e-41
2.91 0.37 1.11 9.1477e-41
2.92 0.37 0.98 9.1477e-41
2.93 0.37 0.83 9.1477e-41
2.95 0.37 0.71 9.1477e-41
2.98 0.37 0.65 9.1477e-41
0.87 0.38 2.77 9.1477e-41
0.92 0.38 2.77 9.1477e-41
0.97 0.38 2.76 9.1477e-41
1.03 0.38 2.77 9.1477e-41
1.09 0.38 2.77 9.1477e-41
1.14 0.38 2.77 9.1477e-41
1.19 0.38 2.77 9.1477e-41
1.24 0.38 2.77 9.1477e-41
1.3 0.38 2.78 9.1477e-41
1.34 0.38 2.77 9.1477e-41
1.39 0.38 2.77 9.1477e-41
1.43 0.38 2.76 9.1477e-41
1.48 0.38 2.77 9.1477e-41
1.52 0.38 2.77 9.1477e-41
1.56 0.38 2.76 9.1477e-41
1.61 0.38 2.77 9.1477e-41
1.65 0.38 2.76 9.1477e-41
1.69 0.38 2.76 9.1477e-41
1.74 0.38 2.76 9.1477e-41
1.78 0.38 2.76 9.1477e-41
1.83 0.38 2.78 9.1477e-41
1.86 0.38 2.76 9.1477e-41
1.9 0.38 2.76 9.1477e-41
1.94 0.38 2.77 9.1477e-41
1.98 0.38 2.76 9.1477e-41
2.01 0.38 2.75 9.1477e-41
2.05 0.38 2.76 9.1477e-41
2.09 0.38 2.76 9.1477e-41
2.12 0.38 2.75 9.1477e-41
2.16 0.38 2.75 9.1477e-41
2.19 0.38 2.75 9.1477e-41
2.23 0.38 2.75 9.1477e-41
2.26 0.38 2.74 9.1477e-41
2.3 0.38 2.75 9.1477e-41
2.34 0.38 2.76 9.1477e-41
2.37 0.38 2.75 9.1477e-41
2.41 0.38 2.76 9.1477e-41
2.44 0.38 2.74 9.1477e-41
2.47 0.38 2.74 9.1477e-41
2.5 0.38 2.74 9.1477e-41
2.53 0.38 2.73 9.1477e-41
2.57 0.38 2.74 9.1477e-41
2.6 0.38 2.73 9.1477e-41
2.63 0.38 2.73 9.1477e-41
2.66 0.38 2.73 9.1477e-41
2.69 0.38 2.72 9.1477e-41
2.72 0.38 2.72 9.1477e-41
2.75 0.38 2.73 9.1477e-41
2.78 0.38 2.72 9.1477e-41
2.81 0.38 2.71 9.1477e-41
2.84 0.38 2.71 9.1477e-41
2.87 0.38 2.72 9.1477e-41
2.9 0.38 2.72 9.1477e-41
2.93 0.38 2.72 9.1477e-41
2.96 0.38 2.72 9.1477e-41
2.98 0.38 2.71 9.1477e-41
2.57 0.38 1.49 9.1477e-41
2.63 0.38 1.54 9.1477e-41
2.79 0.38 1.89 9.1477e-41
2.84 0.38 1.92 9.1477e-41
2.87 0.38 1.92 9.1477e-41
2.9 0.38 1.89 9.1477e-41
2.93 0.38 1.88 9.1477e-41
2.94 0.38 1.79 9.1477e-41
2.95 0.38 1.69 9.1477e-41
2.94 0.38 1.49 9.1477e-41
2.95 0.38 1.4 9.1477e-41
2.92 0.38 1.12 9.1477e-41
2.93 0.38 1 9.1477e-41
2.93 0.38 0.83 9.1477e-41
2.95 0.38 0.73 9.1477e-41
2.98 0.38 0.66 9.1477e-41
0.86 0.39 2.76 9.1477e-41
0.92 0.39 2.77 9.1477e-41
0.98 0.39 2.77 9.1477e-41
1.04 0.39 2.78 9.1477e-41
1.09 0.39 2.77 9.1477e-41
1.14 0.39 2.77 9.1477e-41
1.19 0.39 2.77 9.1477e-41
1.26 0.39 2.79 9.1477e-41
1.3 0.39 2.78 9.1477e-41
1.34 0.39 2.77 9.1477e-41
1.39 0.39 2.77 9.1477e-41
1.43 0.39 2.77 9.1477e-41
1.49 0.39 2.78 9.1477e-41
1.52 0.39 2.77 9.1477e-41
1.56 0.39 2.76 9.1477e-41
1.61 0.39 2.76 9.1477e-41
1.65 0.39 2.76 9.1477e-41
1.7 0.39 2.77 9.1477e-41
1.74 0.39 2.76 9.1477e-41
1.79 0.39 2.77 9.1477e-41
1.82 0.39 2.77 9.1477e-41
1.86 0.39 2.76 9.1477e-41
1.89 0.39 2.75 9.1477e-41
1.94 0.39 2.77 9.1477e-41
1.98 0.39 2.76 9.1477e-41
2.02 0.39 2.76 9.1477e-41
2.05 0.39 2.76 9.1477e-41
2.09 0.39 2.76 9.1477e-41
2.13 0.39 2.76 9.1477e-41
2.16 0.39 2.76 9.1477e-41
2.2 0.39 2.76 9.1477e-41
2.24 0.39 2.76 9.1477e-41
2.27 0.39 2.75 9.1477e-41
2.3 0.39 2.75 9.1477e-41
2.34 0.39 2.75 9.1477e-41
2.38 0.39 2.76 9.1477e-41
2.41 0.39 2.75 9.1477e-41
2.44 0.39 2.75 9.1477e-41
2.47 0.39 2.75 9.1477e-41
2.5 0.39 2.74 9.1477e-41
2.53 0.39 2.73 9.1477e-41
2.57 0.39 2.74 9.1477e-41
2.6 0.39 2.74 9.1477e-41
2.63 0.39 2.73 9.1477e-41
2.66 0.39 2.74 9.1477e-41
2.69 0.39 2.72 9.1477e-41
2.72 0.39 2.73 9.1477e-41
2.75 0.39 2.73 9.1477e-41
2.78 0.39 2.72 9.1477e-41
2.81 0.39 2.71 9.1477e-41
2.84 0.39 2.71 9.1477e-41
2.87 0.39 2.71 9.1477e-41
2.9 0.39 2.71 9.1477e-41
2.92 0.39 2.69 9.1477e-41
2.94 0.39 2.67 9.1477e-41
2.98 0.39 2.71 9.1477e-41
2.59 0.39 1.53 9.1477e-41
2.64 0.39 1.56 9.1477e-41
2.79 0.39 1.89 9.1477e-41
2.84 0.39 1.92 9.1477e-41
2.87 0.39 1.91 9.1477e-41
2.9 0.39 1.9 9.1477e-41
2.94 0.39 1.89 9.1477e-41
2.95 0.39 1.8 9.1477e-41
2.95 0.39 1.68 9.1477e-41
2.94 0.39 1.49 9.1477e-41
2.95 0.39 1.4 9.1477e-41
2.92 0.39 1.12 9.1477e-41
2.92 0.39 0.97 9.1477e-41
2.93 0.39 0.82 9.1477e-41
2.95 0.39 0.71 9.1477e-41
2.98 0.39 0.64 9.1477e-41
0.88 0.4 2.78 9.1477e-41
0.94 0.4 2.78 9.1477e-41
0.99 0.4 2.78 9.1477e-41
1.05 0.4 2.78 9.1477e-41
1.1 0.4 2.79 9.1477e-41
1.15 0.4 2.78 9.1477e-41
1.2 0.4 2.78 9.1477e-41
1.26 0.4 2.79 9.1477e-41
1.31 0.4 2.79 9.1477e-41
1.35 0.4 2.78 9.1477e-41
1.39 0.4 2.77 9.1477e-41
1.43 0.4 2.76 9.1477e-41
1.49 0.4 2.78 9.1477e-41
1.53 0.4 2.78 9.1477e-41
1.57 0.4 2.77 9.1477e-41
1.61 0.4 2.76 9.1477e-41
1.65 0.4 2.76 9.1477e-41
1.7 0.4 2.77 9.1477e-41
1.74 0.4 2.77 9.1477e-41
1.78 0.4 2.76 9.1477e-41
1.82 0.4 2.77 9.1477e-41
1.86 0.4 2.76 9.1477e-41
1.9 0.4 2.76 9.1477e-41
1.94 0.4 2.77 9.1477e-41
1.97 0.4 2.75 9.1477e-41
2.02 0.4 2.76 9.1477e-41
2.05 0.4 2.76 9.1477e-41
2.09 0.4 2.76 9.1477e-41
2.13 0.4 2.76 9.1477e-41
2.16 0.4 2.75 9.1477e-41
2.19 0.4 2.75 9.1477e-41
2.23 0.4 2.75 9.1477e-41
