# .PCD v.7 - Point Cloud Data file format
VERSION .7
FIELDS x y z rgb
SIZE 4 4 4 4
TYPE F F F F
WIDTH 1871
HEIGHT 1
POINTS 1871
DATA ascii
1.92 2.04 2.79 9.1477e-41
1.97 2.04 2.8 9.1477e-41
2 2.04 2.79 9.1477e-41
2.05 2.04 2.8 9.1477e-41
2.08 2.04 2.8 9.1477e-41
2.11 2.04 2.79 9.1477e-41
2.16 2.04 2.81 9.1477e-41
2.19 2.04 2.8 9.1477e-41
2.23 2.04 2.81 9.1477e-41
2.26 2.04 2.8 9.1477e-41
2.3 2.04 2.8 9.1477e-41
2.33 2.04 2.79 9.1477e-41
2.37 2.04 2.8 9.1477e-41
2.4 2.04 2.81 9.1477e-41
2.44 2.04 2.8 9.1477e-41
2.47 2.04 2.8 9.1477e-41
2.5 2.04 2.81 9.1477e-41
2.53 2.04 2.79 9.1477e-41
2.56 2.04 2.8 9.1477e-41
2.59 2.04 2.79 9.1477e-41
2.63 2.04 2.8 9.1477e-41
2.66 2.04 2.79 9.1477e-41
2.69 2.04 2.79 9.1477e-41
2.72 2.04 2.8 9.1477e-41
2.75 2.04 2.79 9.1477e-41
2.78 2.04 2.79 9.1477e-41
2.81 2.04 2.79 9.1477e-41
2.84 2.04 2.8 9.1477e-41
2.87 2.04 2.79 9.1477e-41
2.9 2.04 2.78 9.1477e-41
2.93 2.04 2.79 9.1477e-41
2.96 2.04 2.79 9.1477e-41
2.98 2.04 2.78 9.1477e-41
3.02 2.04 2.79 9.1477e-41
3.04 2.04 2.78 9.1477e-41
3.07 2.04 2.78 9.1477e-41
3.1 2.04 2.78 9.1477e-41
3.13 2.04 2.78 9.1477e-41
3.15 2.04 2.77 9.1477e-41
3.18 2.04 2.78 9.1477e-41
3.21 2.04 2.77 9.1477e-41
3.23 2.04 2.76 9.1477e-41
3.26 2.04 2.75 9.1477e-41
3.28 2.04 2.74 9.1477e-41
3.29 2.04 2.68 9.1477e-41
3.31 2.04 2.64 9.1477e-41
3.33 2.04 2.6 9.1477e-41
3.33 2.04 2.49 9.1477e-41
3.34 2.04 2.39 9.1477e-41
3.34 2.04 2.28 9.1477e-41
3.35 2.04 2.17 9.1477e-41
3.36 2.04 2.04 9.1477e-41
3.36 2.04 1.91 9.1477e-41
3.36 2.04 1.7 9.1477e-41
3.35 2.04 1.44 9.1477e-41
3.33 2.04 1.44 3.57e-43
1.29 2.07 2.67 9.1477e-41
1.35 2.07 2.68 9.1477e-41
1.4 2.07 2.68 9.1477e-41
1.44 2.07 2.68 9.1477e-41
1.49 2.07 2.68 9.1477e-41
1.53 2.07 2.67 9.1477e-41
1.58 2.07 2.67 9.1477e-41
1.63 2.07 2.68 9.1477e-41
1.67 2.07 2.68 9.1477e-41
1.7 2.07 2.67 9.1477e-41
1.75 2.07 2.67 9.1477e-41
1.79 2.07 2.67 9.1477e-41
1.83 2.07 2.67 9.1477e-41
1.87 2.07 2.67 9.1477e-41
1.91 2.07 2.67 9.1477e-41
1.95 2.07 2.67 9.1477e-41
1.99 2.07 2.67 9.1477e-41
2.03 2.07 2.68 9.1477e-41
2.07 2.07 2.67 9.1477e-41
2.11 2.07 2.67 9.1477e-41
2.15 2.07 2.67 9.1477e-41
2.18 2.07 2.67 9.1477e-41
2.22 2.07 2.68 9.1477e-41
2.26 2.07 2.68 9.1477e-41
2.3 2.07 2.68 9.1477e-41
2.34 2.07 2.69 9.1477e-41
2.37 2.07 2.69 9.1477e-41
2.42 2.07 2.71 9.1477e-41
2.45 2.07 2.71 9.1477e-41
2.49 2.07 2.71 9.1477e-41
2.53 2.07 2.73 9.1477e-41
2.56 2.07 2.73 9.1477e-41
2.6 2.07 2.74 9.1477e-41
2.64 2.07 2.75 9.1477e-41
2.67 2.07 2.76 9.1477e-41
2.7 2.07 2.76 9.1477e-41
2.73 2.07 2.76 9.1477e-41
2.77 2.07 2.76 9.1477e-41
2.8 2.07 2.77 9.1477e-41
2.83 2.07 2.78 9.1477e-41
2.86 2.07 2.77 9.1477e-41
2.89 2.07 2.77 9.1477e-41
2.92 2.07 2.77 9.1477e-41
2.96 2.07 2.78 9.1477e-41
2.98 2.07 2.76 9.1477e-41
3.01 2.07 2.77 9.1477e-41
3.04 2.07 2.77 9.1477e-41
3.07 2.07 2.77 9.1477e-41
3.1 2.07 2.77 9.1477e-41
3.12 2.07 2.76 9.1477e-41
3.15 2.07 2.76 9.1477e-41
3.17 2.07 2.76 9.1477e-41
3.2 2.07 2.75 9.1477e-41
3.23 2.07 2.75 9.1477e-41
3.25 2.07 2.73 9.1477e-41
3.27 2.07 2.71 9.1477e-41
3.29 2.07 2.66 9.1477e-41
3.31 2.07 2.64 9.1477e-41
3.32 2.07 2.58 9.1477e-41
3.32 2.07 2.45 9.1477e-41
3.33 2.07 2.37 9.1477e-41
3.34 2.07 2.27 9.1477e-41
3.35 2.07 2.16 9.1477e-41
3.36 2.07 2.04 9.1477e-41
3.36 2.07 1.9 9.1477e-41
3.36 2.07 1.7 9.1477e-41
3.35 2.07 1.44 9.1477e-41
3.33 2.07 1.44 3.57e-43
1.18 2.1 2.6 9.1477e-41
1.22 2.1 2.59 9.1477e-41
1.26 2.1 2.59 9.1477e-41
1.31 2.1 2.58 9.1477e-41
1.36 2.1 2.58 9.1477e-41
1.41 2.1 2.58 9.1477e-41
1.45 2.1 2.58 9.1477e-41
1.49 2.1 2.57 9.1477e-41
1.51 2.1 2.54 9.1477e-41
1.6 2.1 2.54 3.57e-43
1.77 2.1 2.64 9.1477e-41
1.8 2.1 2.62 9.1477e-41
1.82 2.1 2.6 9.1477e-41
1.9 2.1 2.65 9.1477e-41
1.95 2.1 2.66 9.1477e-41
1.98 2.1 2.66 9.1477e-41
2.02 2.1 2.66 9.1477e-41
2.06 2.1 2.66 9.1477e-41
2.1 2.1 2.66 9.1477e-41
2.13 2.1 2.66 9.1477e-41
2.18 2.1 2.66 9.1477e-41
2.21 2.1 2.66 9.1477e-41
2.25 2.1 2.66 9.1477e-41
2.27 2.1 2.64 9.1477e-41
2.32 2.1 2.66 9.1477e-41
2.35 2.1 2.64 9.1477e-41
2.39 2.1 2.65 9.1477e-41
2.42 2.1 2.66 9.1477e-41
2.45 2.1 2.65 9.1477e-41
2.48 2.1 2.65 9.1477e-41
2.52 2.1 2.65 9.1477e-41
2.56 2.1 2.65 9.1477e-41
2.59 2.1 2.65 9.1477e-41
2.62 2.1 2.65 9.1477e-41
2.65 2.1 2.64 9.1477e-41
2.68 2.1 2.65 9.1477e-41
2.72 2.1 2.65 9.1477e-41
2.75 2.1 2.65 9.1477e-41
2.78 2.1 2.66 9.1477e-41
2.81 2.1 2.65 9.1477e-41
2.84 2.1 2.65 9.1477e-41
2.87 2.1 2.64 9.1477e-41
2.9 2.1 2.65 9.1477e-41
2.93 2.1 2.65 9.1477e-41
2.97 2.1 2.66 9.1477e-41
3 2.1 2.66 9.1477e-41
3.03 2.1 2.66 9.1477e-41
3.06 2.1 2.66 9.1477e-41
3.09 2.1 2.67 9.1477e-41
3.12 2.1 2.67 9.1477e-41
3.14 2.1 2.66 9.1477e-41
3.17 2.1 2.65 9.1477e-41
3.2 2.1 2.65 9.1477e-41
3.23 2.1 2.66 9.1477e-41
3.26 2.1 2.65 9.1477e-41
3.28 2.1 2.63 9.1477e-41
3.3 2.1 2.61 9.1477e-41
3.3 2.1 2.48 9.1477e-41
3.31 2.1 2.41 9.1477e-41
3.32 2.1 2.32 9.1477e-41
3.33 2.1 2.21 9.1477e-41
3.34 2.1 2.1 9.1477e-41
3.35 2.1 2 9.1477e-41
3.35 2.1 1.87 9.1477e-41
3.34 2.1 1.58 9.1477e-41
3.34 2.1 1.42 9.1477e-41
3.31 2.1 1.42 3.57e-43
1.18 2.13 2.6 9.1477e-41
1.22 2.13 2.59 9.1477e-41
1.26 2.13 2.59 9.1477e-41
1.31 2.13 2.58 9.1477e-41
1.37 2.13 2.59 9.1477e-41
1.41 2.13 2.59 9.1477e-41
1.45 2.13 2.58 9.1477e-41
1.49 2.13 2.56 9.1477e-41
1.5 2.13 2.53 9.1477e-41
1.5 2.13 2.47 9.1477e-41
1.51 2.13 2.42 9.1477e-41
1.51 2.13 2.37 9.1477e-41
1.5 2.13 2.3 9.1477e-41
1.5 2.13 2.22 9.1477e-41
1.49 2.13 2.15 9.1477e-41
1.49 2.13 2.08 9.1477e-41
1.48 2.13 2.01 9.1477e-41
1.48 2.13 1.94 9.1477e-41
1.48 2.13 1.87 9.1477e-41
1.5 2.13 1.83 9.1477e-41
1.52 2.13 1.79 9.1477e-41
1.48 2.13 1.79 3.57e-43
2.18 2.13 2.66 9.1477e-41
1.46 2.13 1.45 9.1477e-41
1.48 2.13 1.4 9.1477e-41
1.49 2.13 1.35 9.1477e-41
1.49 2.13 1.25 9.1477e-41
1.48 2.13 1.14 9.1477e-41
1.48 2.13 1.05 9.1477e-41
1.51 2.13 1.01 9.1477e-41
1.55 2.13 0.98 9.1477e-41
1.71 2.13 1.2 9.1477e-41
1.78 2.13 1.23 9.1477e-41
1.81 2.13 1.18 9.1477e-41
1.81 2.13 1.08 9.1477e-41
1.82 2.13 1 9.1477e-41
1.77 2.13 0.81 9.1477e-41
1.83 2.13 0.82 9.1477e-41
1.93 2.13 0.93 9.1477e-41
1.99 2.13 0.95 9.1477e-41
2.05 2.13 0.96 9.1477e-41
2.11 2.13 1 9.1477e-41
2.15 2.13 0.99 9.1477e-41
2.2 2.13 0.98 9.1477e-41
2.24 2.13 0.97 9.1477e-41
2.29 2.13 0.96 9.1477e-41
2.32 2.13 0.94 9.1477e-41
2.34 2.13 0.84 9.1477e-41
2.31 2.13 0.64 9.1477e-41
3.08 2.13 2.64 9.1477e-41
3.07 2.13 2.52 9.1477e-41
3.13 2.13 2.6 9.1477e-41
3.14 2.13 2.57 9.1477e-41
3.16 2.13 2.52 9.1477e-41
3.2 2.13 2.54 9.1477e-41
3.18 2.13 2.38 9.1477e-41
3.22 2.13 2.41 9.1477e-41
3.23 2.13 2.34 9.1477e-41
3.26 2.13 2.31 9.1477e-41
3.27 2.13 2.24 9.1477e-41
3.28 2.13 2.14 9.1477e-41
3.29 2.13 2.02 9.1477e-41
3.3 2.13 1.92 9.1477e-41
3.31 2.13 1.8 9.1477e-41
3.3 2.13 1.56 9.1477e-41
3.3 2.13 1.4 9.1477e-41
3.28 2.13 1.05 9.1477e-41
3.31 2.13 1.05 3.57e-43
1.18 2.16 2.6 9.1477e-41
1.22 2.16 2.6 9.1477e-41
1.27 2.16 2.59 9.1477e-41
1.32 2.16 2.6 9.1477e-41
1.37 2.16 2.59 9.1477e-41
1.41 2.16 2.59 9.1477e-41
1.46 2.16 2.59 9.1477e-41
1.49 2.16 2.56 9.1477e-41
1.51 2.16 2.53 9.1477e-41
1.5 2.16 2.47 9.1477e-41
1.51 2.16 2.42 9.1477e-41
1.5 2.16 2.35 9.1477e-41
1.5 2.16 2.29 9.1477e-41
1.5 2.16 2.23 9.1477e-41
1.5 2.16 2.16 9.1477e-41
1.49 2.16 2.09 9.1477e-41
1.49 2.16 2.02 9.1477e-41
1.49 2.16 1.95 9.1477e-41
1.48 2.16 1.88 9.1477e-41
1.49 2.16 1.81 9.1477e-41
1.49 2.16 1.74 9.1477e-41
1.48 2.16 1.64 9.1477e-41
1.48 2.16 1.57 9.1477e-41
1.48 2.16 1.49 9.1477e-41
1.48 2.16 1.4 9.1477e-41
1.49 2.16 1.35 9.1477e-41
1.49 2.16 1.25 9.1477e-41
1.49 2.16 1.15 9.1477e-41
1.44 2.16 0.98 9.1477e-41
1.5 2.16 0.99 9.1477e-41
1.54 2.16 0.97 9.1477e-41
1.74 2.16 1.24 9.1477e-41
1.8 2.16 1.26 9.1477e-41
1.81 2.16 1.18 9.1477e-41
1.81 2.16 1.08 9.1477e-41
1.82 2.16 1 9.1477e-41
1.78 2.16 0.82 9.1477e-41
1.83 2.16 0.83 9.1477e-41
1.93 2.16 0.93 9.1477e-41
2.01 2.16 0.99 9.1477e-41
2.07 2.16 1.03 9.1477e-41
2.13 2.16 1.04 9.1477e-41
2.17 2.16 1.04 9.1477e-41
2.22 2.16 1.03 9.1477e-41
2.26 2.16 1.02 9.1477e-41
2.31 2.16 1.03 9.1477e-41
2.34 2.16 0.98 9.1477e-41
2.35 2.16 0.89 9.1477e-41
2.34 2.16 0.71 9.1477e-41
2.6 2.16 1.2 9.1477e-41
2.64 2.16 1.2 9.1477e-41
2.64 2.16 1.07 9.1477e-41
2.64 2.16 0.91 9.1477e-41
2.67 2.16 0.86 9.1477e-41
2.74 2.16 0.95 9.1477e-41
2.81 2.16 1.04 9.1477e-41
2.85 2.16 1.02 9.1477e-41
2.89 2.16 1.03 9.1477e-41
2.94 2.16 1.03 9.1477e-41
2.98 2.16 1.03 9.1477e-41
3.02 2.16 1.03 9.1477e-41
3.06 2.16 1.02 9.1477e-41
3.1 2.16 1.01 9.1477e-41
3.15 2.16 1.03 9.1477e-41
3.19 2.16 1.03 9.1477e-41
3.23 2.16 1.01 9.1477e-41
3.27 2.16 1 9.1477e-41
3.31 2.16 1 3.57e-43
1.17 2.19 2.59 9.1477e-41
1.22 2.19 2.6 9.1477e-41
1.27 2.19 2.59 9.1477e-41
1.31 2.19 2.58 9.1477e-41
1.37 2.19 2.59 9.1477e-41
1.41 2.19 2.59 9.1477e-41
1.45 2.19 2.58 9.1477e-41
1.48 2.19 2.56 9.1477e-41
1.5 2.19 2.53 9.1477e-41
1.5 2.19 2.47 9.1477e-41
1.5 2.19 2.41 9.1477e-41
1.5 2.19 2.35 9.1477e-41
1.5 2.19 2.29 9.1477e-41
1.48 2.19 2.2 9.1477e-41
1.46 2.19 2.11 9.1477e-41
1.44 2.19 2.03 9.1477e-41
1.38 2.19 1.87 9.1477e-41
1.44 2.19 1.74 9.1477e-41
1.4 2.19 1.61 9.1477e-41
1.41 2.19 1.54 9.1477e-41
1.41 2.19 1.46 9.1477e-41
1.44 2.19 1.43 9.1477e-41
1.46 2.19 1.38 9.1477e-41
1.48 2.19 1.33 9.1477e-41
1.48 2.19 1.23 9.1477e-41
1.49 2.19 1.15 9.1477e-41
1.46 2.19 1.01 9.1477e-41
1.5 2.19 1 9.1477e-41
1.59 2.19 1.07 9.1477e-41
1.74 2.19 1.25 9.1477e-41
1.8 2.19 1.26 9.1477e-41
1.81 2.19 1.18 9.1477e-41
1.81 2.19 1.08 9.1477e-41
1.82 2.19 1 9.1477e-41
1.78 2.19 0.82 9.1477e-41
1.83 2.19 0.83 9.1477e-41
1.96 2.19 0.98 9.1477e-41
2.02 2.19 1.02 9.1477e-41
2.07 2.19 1.03 9.1477e-41
2.12 2.19 1.03 9.1477e-41
2.17 2.19 1.02 9.1477e-41
2.21 2.19 1.02 9.1477e-41
2.26 2.19 1.02 9.1477e-41
2.31 2.19 1.02 9.1477e-41
2.34 2.19 0.98 9.1477e-41
2.36 2.19 0.9 9.1477e-41
2.37 2.19 0.79 9.1477e-41
2.52 2.19 1.1 9.1477e-41
2.61 2.19 1.25 9.1477e-41
2.65 2.19 1.23 9.1477e-41
2.65 2.19 1.09 9.1477e-41
2.64 2.19 0.91 9.1477e-41
2.67 2.19 0.86 9.1477e-41
2.74 2.19 0.96 9.1477e-41
2.79 2.19 0.98 9.1477e-41
2.89 2.19 1 9.1477e-41
2.93 2.19 1.01 9.1477e-41
2.97 2.19 1.01 9.1477e-41
3.02 2.19 1.02 9.1477e-41
3.06 2.19 1.02 9.1477e-41
3.11 2.19 1.02 9.1477e-41
3.15 2.19 1.01 9.1477e-41
3.19 2.19 1.01 9.1477e-41
3.23 2.19 1.01 9.1477e-41
3.27 2.19 1.02 9.1477e-41
3.31 2.19 1.02 3.57e-43
1.17 2.22 2.69 9.1477e-41
1.18 2.22 2.65 9.1477e-41
1.26 2.22 2.64 9.1477e-41
1.3 2.22 2.63 9.1477e-41
1.34 2.22 2.62 9.1477e-41
1.38 2.22 2.61 9.1477e-41
1.44 2.22 2.62 9.1477e-41
1.49 2.22 2.63 9.1477e-41
1.06 2.22 2.06 9.1477e-41
1.6 2.22 2.64 9.1477e-41
1.63 2.22 2.64 9.1477e-41
1.67 2.22 2.63 9.1477e-41
1.72 2.22 2.64 9.1477e-41
1.75 2.22 2.62 9.1477e-41
0.95 2.22 1.51 9.1477e-41
0.95 2.22 1.43 9.1477e-41
1.75 2.22 1.93 9.1477e-41
1.77 2.22 1.88 9.1477e-41
1.79 2.22 1.84 9.1477e-41
1.8 2.22 1.78 9.1477e-41
1.45 2.22 1.09 9.1477e-41
1.81 2.22 1.63 9.1477e-41
1.79 2.22 1.51 9.1477e-41
1.76 2.22 1.37 9.1477e-41
1.77 2.22 1.3 9.1477e-41
1.8 2.22 1.27 9.1477e-41
1.8 2.22 1.18 9.1477e-41
1.8 2.22 1.08 9.1477e-41
1.81 2.22 0.99 9.1477e-41
1.78 2.22 0.83 9.1477e-41
1.83 2.22 0.81 9.1477e-41
2.07 2.22 1.03 9.1477e-41
2.12 2.22 1.03 9.1477e-41
2.17 2.22 1.02 9.1477e-41
2.21 2.22 1.02 9.1477e-41
2.26 2.22 1.02 9.1477e-41
2.31 2.22 1.02 9.1477e-41
2.34 2.22 0.98 9.1477e-41
2.37 2.22 0.94 9.1477e-41
2.4 2.22 0.88 9.1477e-41
2.54 2.22 1.15 9.1477e-41
2.62 2.22 1.26 9.1477e-41
2.65 2.22 1.23 9.1477e-41
2.65 2.22 1.08 9.1477e-41
2.66 2.22 0.97 9.1477e-41
2.69 2.22 0.94 9.1477e-41
2.76 2.22 1.01 9.1477e-41
2.8 2.22 1.02 9.1477e-41
2.85 2.22 1.02 9.1477e-41
2.89 2.22 1.01 9.1477e-41
2.93 2.22 1.01 9.1477e-41
2.97 2.22 1 9.1477e-41
3.01 2.22 0.99 9.1477e-41
3.05 2.22 0.96 9.1477e-41
3.09 2.22 0.95 9.1477e-41
3.13 2.22 0.93 9.1477e-41
3.17 2.22 0.91 9.1477e-41
3.21 2.22 0.91 9.1477e-41
3.25 2.22 0.9 9.1477e-41
3.29 2.22 0.85 9.1477e-41
3.32 2.22 0.81 9.1477e-41
1.1 2.25 3.25 9.1477e-41
1.11 2.25 3.21 9.1477e-41
1.12 2.25 3.17 9.1477e-41
1.11 2.25 3.12 9.1477e-41
1.11 2.25 3.08 9.1477e-41
1.12 2.25 3.04 9.1477e-41
1.13 2.25 3.01 9.1477e-41
1.12 2.25 2.95 9.1477e-41
1.14 2.25 2.92 9.1477e-41
1.14 2.25 2.87 9.1477e-41
1.13 2.25 2.81 9.1477e-41
1.13 2.25 2.76 9.1477e-41
1.18 2.25 2.76 9.1477e-41
1.1 2.25 2.62 9.1477e-41
1.07 2.25 2.55 9.1477e-41
1.04 2.25 2.45 9.1477e-41
1.05 2.25 2.41 9.1477e-41
1.78 2.25 3.15 9.1477e-41
1.79 2.25 3.11 9.1477e-41
1.79 2.25 3.07 9.1477e-41
1.8 2.25 3.03 9.1477e-41
1.82 2.25 3.01 9.1477e-41
1.86 2.25 3.01 9.1477e-41
1.86 2.25 2.97 9.1477e-41
1.86 2.25 2.92 9.1477e-41
1.86 2.25 2.87 9.1477e-41
1.86 2.25 2.81 9.1477e-41
1.85 2.25 2.76 9.1477e-41
1.86 2.25 2.71 9.1477e-41
1.87 2.25 2.67 9.1477e-41
1.88 2.25 2.63 9.1477e-41
1.91 2.25 2.61 9.1477e-41
1.93 2.25 2.58 9.1477e-41
1.95 2.25 2.56 9.1477e-41
1.99 2.25 2.56 9.1477e-41
2.05 2.25 2.58 9.1477e-41
2.1 2.25 2.61 9.1477e-41
2.14 2.25 2.61 9.1477e-41
1.83 2.25 2.05 9.1477e-41
1.85 2.25 2.01 9.1477e-41
1.84 2.25 1.93 9.1477e-41
1.84 2.25 1.84 9.1477e-41
1.82 2.25 1.73 9.1477e-41
1.82 2.25 1.66 9.1477e-41
1.81 2.25 1.56 9.1477e-41
1.81 2.25 1.47 9.1477e-41
1.8 2.25 1.37 9.1477e-41
1.79 2.25 1.25 9.1477e-41
1.78 2.25 1.13 9.1477e-41
1.78 2.25 1.03 9.1477e-41
1.76 2.25 0.88 9.1477e-41
1.77 2.25 0.8 9.1477e-41
1.84 2.25 0.84 9.1477e-41
1.96 2.25 0.88 9.1477e-41
2.04 2.25 0.95 9.1477e-41
2.09 2.25 0.96 9.1477e-41
2.14 2.25 0.96 9.1477e-41
2.19 2.25 0.96 9.1477e-41
2.24 2.25 0.96 9.1477e-41
2.28 2.25 0.94 9.1477e-41
2.33 2.25 0.96 9.1477e-41
2.9 2.25 2.4 9.1477e-41
2.92 2.25 2.35 9.1477e-41
2.62 2.25 1.26 9.1477e-41
2.65 2.25 1.23 9.1477e-41
2.64 2.25 1.06 9.1477e-41
2.66 2.25 0.98 9.1477e-41
2.67 2.25 0.87 9.1477e-41
2.74 2.25 0.96 9.1477e-41
2.8 2.25 1.02 9.1477e-41
2.85 2.25 1.04 9.1477e-41
2.89 2.25 1.02 9.1477e-41
2.94 2.25 1.03 9.1477e-41
2.98 2.25 1.03 9.1477e-41
3.02 2.25 1.02 9.1477e-41
3.06 2.25 1.03 9.1477e-41
3.11 2.25 1.02 9.1477e-41
3.15 2.25 1.02 9.1477e-41
3.19 2.25 1.02 9.1477e-41
3.23 2.25 1.02 9.1477e-41
3.27 2.25 1.02 9.1477e-41
3.31 2.25 1.01 9.1477e-41
3.33 2.25 0.86 9.1477e-41
1.05 2.28 3.38 9.1477e-41
1.09 2.28 3.37 9.1477e-41
1.14 2.28 3.37 9.1477e-41
1.19 2.28 3.37 9.1477e-41
1.24 2.28 3.37 9.1477e-41
1.31 2.28 3.38 9.1477e-41
1.36 2.28 3.38 9.1477e-41
1.4 2.28 3.38 9.1477e-41
1.45 2.28 3.38 9.1477e-41
1.5 2.28 3.38 9.1477e-41
1.55 2.28 3.38 9.1477e-41
1.58 2.28 3.37 9.1477e-41
1.62 2.28 3.37 9.1477e-41
1.66 2.28 3.37 9.1477e-41
1.71 2.28 3.37 9.1477e-41
1.74 2.28 3.36 9.1477e-41
1.76 2.28 3.34 9.1477e-41
1.83 2.28 3.37 9.1477e-41
1.87 2.28 3.37 9.1477e-41
1.89 2.28 3.35 9.1477e-41
1.9 2.28 3.32 9.1477e-41
1.93 2.28 3.31 9.1477e-41
1.94 2.28 3.28 9.1477e-41
1.97 2.28 3.27 9.1477e-41
1.97 2.28 3.23 9.1477e-41
1.97 2.28 3.19 9.1477e-41
1.94 2.28 3.19 3.57e-43
1.86 2.28 2.97 9.1477e-41
1.9 2.28 2.96 9.1477e-41
1.87 2.28 2.87 9.1477e-41
1.85 2.28 2.81 9.1477e-41
1.85 2.28 2.76 9.1477e-41
1.86 2.28 2.7 9.1477e-41
1.85 2.28 2.64 9.1477e-41
1.86 2.28 2.6 9.1477e-41
1.88 2.28 2.57 9.1477e-41
1.87 2.28 2.5 9.1477e-41
1.86 2.28 2.42 9.1477e-41
1.85 2.28 2.34 9.1477e-41
1.84 2.28 2.34 3.57e-43
2.1 2.28 2.61 9.1477e-41
2.6 2.28 3.33 9.1477e-41
2.61 2.28 3.29 9.1477e-41
2.65 2.28 3.31 9.1477e-41
2.65 2.28 3.27 9.1477e-41
2.65 2.28 3.22 9.1477e-41
2.65 2.28 3.17 9.1477e-41
2.65 2.28 3.12 9.1477e-41
2.65 2.28 3.07 9.1477e-41
2.65 2.28 3.01 9.1477e-41
2.65 2.28 2.96 9.1477e-41
2.65 2.28 2.91 9.1477e-41
2.65 2.28 2.84 9.1477e-41
2.65 2.28 2.78 9.1477e-41
2.65 2.28 2.71 9.1477e-41
2.65 2.28 2.64 9.1477e-41
2.65 2.28 2.58 9.1477e-41
2.66 2.28 2.54 9.1477e-41
2.68 2.28 2.5 9.1477e-41
2.71 2.28 2.48 9.1477e-41
2.74 2.28 2.49 9.1477e-41
2.79 2.28 2.53 9.1477e-41
2.85 2.28 2.6 9.1477e-41
2.89 2.28 2.62 9.1477e-41
2.91 2.28 2.58 9.1477e-41
2.94 2.28 2.59 9.1477e-41
2.97 2.28 2.59 9.1477e-41
3 2.28 2.57 9.1477e-41
3.02 2.28 2.55 9.1477e-41
3.04 2.28 2.52 9.1477e-41
3.11 2.28 2.64 9.1477e-41
3.14 2.28 2.65 9.1477e-41
3.17 2.28 2.64 9.1477e-41
3.2 2.28 2.65 9.1477e-41
3.22 2.28 2.64 9.1477e-41
3.25 2.28 2.64 9.1477e-41
3.28 2.28 2.64 9.1477e-41
3.32 2.28 2.67 9.1477e-41
2.92 2.28 0.96 9.1477e-41
2.96 2.28 0.96 3.57e-43
3.02 2.28 0.96 3.57e-43
3.06 2.28 0.96 3.57e-43
3.11 2.28 1.02 9.1477e-41
3.15 2.28 1.01 9.1477e-41
3.19 2.28 1.01 9.1477e-41
3.22 2.28 0.98 9.1477e-41
3.37 2.28 1.59 9.1477e-41
3.39 2.28 1.44 9.1477e-41
3.34 2.28 0.88 9.1477e-41
1 2.31 3.35 9.1477e-41
1.01 2.31 3.31 9.1477e-41
1 2.31 3.26 9.1477e-41
1.01 2.31 3.22 9.1477e-41
1.03 2.31 3.19 9.1477e-41
1.04 2.31 3.16 9.1477e-41
1.04 2.31 3.11 9.1477e-41
1.05 2.31 3.07 9.1477e-41
0.99 2.31 2.98 9.1477e-41
0.97 2.31 2.91 9.1477e-41
0.95 2.31 2.84 9.1477e-41
0.95 2.31 2.79 9.1477e-41
0.97 2.31 2.76 9.1477e-41
0.93 2.31 2.67 9.1477e-41
0.94 2.31 2.63 9.1477e-41
0.96 2.31 2.6 9.1477e-41
1 2.31 2.58 9.1477e-41
0.98 2.31 2.51 9.1477e-41
0.96 2.31 2.43 9.1477e-41
0.96 2.31 2.37 9.1477e-41
0.94 2.31 2.3 9.1477e-41
0.94 2.31 2.23 9.1477e-41
0.94 2.31 2.17 9.1477e-41
0.95 2.31 2.12 9.1477e-41
0.95 2.31 2.06 9.1477e-41
0.95 2.31 1.99 9.1477e-41
0.95 2.31 1.92 9.1477e-41
0.95 2.31 1.86 9.1477e-41
2.23 2.31 3.37 9.1477e-41
2.26 2.31 3.37 9.1477e-41
2.3 2.31 3.37 9.1477e-41
2.32 2.31 3.37 9.1477e-41
2.36 2.31 3.37 9.1477e-41
2.39 2.31 3.38 9.1477e-41
2.42 2.31 3.37 9.1477e-41
2.45 2.31 3.36 9.1477e-41
2.48 2.31 3.36 9.1477e-41
2.51 2.31 3.37 9.1477e-41
2.54 2.31 3.37 9.1477e-41
2.57 2.31 3.37 9.1477e-41
2.6 2.31 3.37 9.1477e-41
2.62 2.31 3.36 9.1477e-41
2.65 2.31 3.36 9.1477e-41
2.67 2.31 3.36 9.1477e-41
2.7 2.31 3.35 9.1477e-41
2.73 2.31 3.36 9.1477e-41
2.75 2.31 3.35 9.1477e-41
2.78 2.31 3.34 9.1477e-41
2.8 2.31 3.34 9.1477e-41
2.82 2.31 3.33 9.1477e-41
2.84 2.31 3.32 9.1477e-41
2.87 2.31 3.32 9.1477e-41
2.89 2.31 3.3 9.1477e-41
2.91 2.31 3.3 9.1477e-41
2.93 2.31 3.29 9.1477e-41
2.95 2.31 3.27 9.1477e-41
2.97 2.31 3.26 9.1477e-41
3 2.31 3.26 9.1477e-41
3.01 2.31 3.24 9.1477e-41
3.03 2.31 3.22 9.1477e-41
3.04 2.31 3.18 9.1477e-41
3.03 2.31 3.12 9.1477e-41
3.02 2.31 3 9.1477e-41
3 2.31 2.89 9.1477e-41
3 2.31 2.82 9.1477e-41
2.97 2.31 2.68 9.1477e-41
2.98 2.31 2.68 3.57e-43
3 2.31 2.57 9.1477e-41
3.13 2.31 2.89 9.1477e-41
3.16 2.31 2.87 9.1477e-41
3.17 2.31 2.82 9.1477e-41
3.17 2.31 2.73 9.1477e-41
3.17 2.31 2.63 9.1477e-41
3.4 2.31 3.33 9.1477e-41
3.42 2.31 3.31 9.1477e-41
3.41 2.31 3.21 9.1477e-41
3.41 2.31 3.12 9.1477e-41
3.4 2.31 2.98 9.1477e-41
3.4 2.31 2.88 9.1477e-41
3.41 2.31 2.81 9.1477e-41
3.41 2.31 2.69 9.1477e-41
3.41 2.31 2.57 9.1477e-41
3.41 2.31 2.45 9.1477e-41
3.42 2.31 2.33 9.1477e-41
3.42 2.31 2.2 9.1477e-41
3.43 2.31 2.07 9.1477e-41
3.43 2.31 1.9 9.1477e-41
3.43 2.31 1.73 9.1477e-41
3.43 2.31 1.5 9.1477e-41
1.01 2.34 3.35 9.1477e-41
1 2.34 3.3 9.1477e-41
1.01 2.34 3.27 9.1477e-41
1 2.34 3.22 9.1477e-41
1.02 2.34 3.18 9.1477e-41
1.02 2.34 3.14 9.1477e-41
1.03 2.34 3.1 9.1477e-41
1.02 2.34 3.05 9.1477e-41
1 2.34 2.99 9.1477e-41
1 2.34 2.94 9.1477e-41
1.01 2.34 2.9 9.1477e-41
1 2.34 2.84 9.1477e-41
1.02 2.34 2.8 9.1477e-41
1 2.34 2.74 9.1477e-41
1 2.34 2.69 9.1477e-41
1.01 2.34 2.65 9.1477e-41
1.03 2.34 2.61 9.1477e-41
1.02 2.34 2.54 9.1477e-41
1.01 2.34 2.48 9.1477e-41
1.01 2.34 2.43 9.1477e-41
1 2.34 2.35 9.1477e-41
0.99 2.34 2.28 9.1477e-41
0.99 2.34 2.23 9.1477e-41
0.98 2.34 2.15 9.1477e-41
0.99 2.34 2.11 9.1477e-41
0.98 2.34 2.03 9.1477e-41
0.98 2.34 1.97 9.1477e-41
0.99 2.34 1.91 9.1477e-41
1 2.34 1.85 9.1477e-41
1 2.34 1.79 9.1477e-41
1 2.34 1.72 9.1477e-41
1 2.34 1.64 9.1477e-41
1 2.34 1.56 9.1477e-41
0.99 2.34 1.48 9.1477e-41
1 2.34 1.41 9.1477e-41
1.04 2.34 1.39 9.1477e-41
1.1 2.34 1.39 9.1477e-41
1.14 2.34 1.38 9.1477e-41
1.2 2.34 1.38 9.1477e-41
1.25 2.34 1.38 9.1477e-41
1.3 2.34 1.37 9.1477e-41
1.34 2.34 1.36 9.1477e-41
1.39 2.34 1.34 9.1477e-41
1.44 2.34 1.34 9.1477e-41
1.49 2.34 1.34 9.1477e-41
1.54 2.34 1.33 9.1477e-41
1.59 2.34 1.33 9.1477e-41
1.64 2.34 1.33 9.1477e-41
1.68 2.34 1.32 9.1477e-41
1.73 2.34 1.32 9.1477e-41
1.79 2.34 1.33 9.1477e-41
1.83 2.34 1.32 9.1477e-41
1.87 2.34 1.32 9.1477e-41
1.92 2.34 1.32 9.1477e-41
1.97 2.34 1.32 9.1477e-41
2.01 2.34 1.31 9.1477e-41
2.06 2.34 1.31 9.1477e-41
2.1 2.34 1.31 9.1477e-41
2.15 2.34 1.31 9.1477e-41
2.2 2.34 1.31 9.1477e-41
2.24 2.34 1.31 9.1477e-41
2.28 2.34 1.31 9.1477e-41
2.34 2.34 1.33 9.1477e-41
2.37 2.34 1.3 9.1477e-41
3.21 2.34 3.36 9.1477e-41
3.23 2.34 3.35 9.1477e-41
3.25 2.34 3.35 9.1477e-41
3.28 2.34 3.37 9.1477e-41
3.3 2.34 3.36 9.1477e-41
3.32 2.34 3.36 9.1477e-41
3.34 2.34 3.35 9.1477e-41
3.36 2.34 3.36 9.1477e-41
3.39 2.34 3.36 9.1477e-41
3.41 2.34 3.35 9.1477e-41
3.43 2.34 3.36 9.1477e-41
3.45 2.34 3.33 9.1477e-41
3.47 2.34 3.34 9.1477e-41
3.47 2.34 3.26 9.1477e-41
3.47 2.34 3.17 9.1477e-41
3.47 2.34 3.07 9.1477e-41
3.47 2.34 2.96 9.1477e-41
3.47 2.34 2.85 9.1477e-41
3.46 2.34 2.7 9.1477e-41
3.46 2.34 2.56 9.1477e-41
3.46 2.34 2.39 9.1477e-41
3.45 2.34 2.21 9.1477e-41
3.45 2.34 2.01 9.1477e-41
3.45 2.34 1.81 9.1477e-41
3.44 2.34 1.55 9.1477e-41
1.04 2.37 3.37 9.1477e-41
1.02 2.37 3.32 9.1477e-41
1.04 2.37 3.29 9.1477e-41
1.02 2.37 3.14 9.1477e-41
1.02 2.37 3.1 9.1477e-41
1.02 2.37 3.04 9.1477e-41
1.02 2.37 2.76 9.1477e-41
1.01 2.37 2.69 9.1477e-41
1.01 2.37 2.65 9.1477e-41
1 2.37 2.18 9.1477e-41
1 2.37 2.12 9.1477e-41
1 2.37 2.06 9.1477e-41
1 2.37 1.99 9.1477e-41
1 2.37 1.92 9.1477e-41
0.99 2.37 1.84 9.1477e-41
1 2.37 1.79 9.1477e-41
0.99 2.37 1.7 9.1477e-41
1 2.37 1.64 9.1477e-41
0.99 2.37 1.55 9.1477e-41
0.99 2.37 1.48 9.1477e-41
0.99 2.37 1.4 9.1477e-41
1.03 2.37 1.38 9.1477e-41
1.09 2.37 1.38 9.1477e-41
1.15 2.37 1.39 9.1477e-41
1.2 2.37 1.38 9.1477e-41
1.26 2.37 1.39 9.1477e-41
1.31 2.37 1.38 9.1477e-41
1.37 2.37 1.39 9.1477e-41
1.41 2.37 1.38 9.1477e-41
1.47 2.37 1.39 9.1477e-41
1.51 2.37 1.38 9.1477e-41
1.56 2.37 1.38 9.1477e-41
1.62 2.37 1.38 9.1477e-41
1.67 2.37 1.38 9.1477e-41
1.71 2.37 1.38 9.1477e-41
1.76 2.37 1.38 9.1477e-41
1.81 2.37 1.38 9.1477e-41
1.86 2.37 1.38 9.1477e-41
1.91 2.37 1.39 9.1477e-41
1.95 2.37 1.37 9.1477e-41
2 2.37 1.38 9.1477e-41
2.04 2.37 1.36 9.1477e-41
2.09 2.37 1.38 9.1477e-41
2.13 2.37 1.36 9.1477e-41
2.18 2.37 1.37 9.1477e-41
2.22 2.37 1.37 9.1477e-41
2.27 2.37 1.38 9.1477e-41
2.31 2.37 1.37 9.1477e-41
2.35 2.37 1.36 9.1477e-41
2.4 2.37 1.37 9.1477e-41
2.44 2.37 1.36 9.1477e-41
2.48 2.37 1.37 9.1477e-41
2.53 2.37 1.36 9.1477e-41
2.57 2.37 1.37 9.1477e-41
2.61 2.37 1.37 9.1477e-41
2.65 2.37 1.37 9.1477e-41
2.7 2.37 1.37 9.1477e-41
2.74 2.37 1.36 9.1477e-41
2.78 2.37 1.36 9.1477e-41
2.81 2.37 1.35 9.1477e-41
2.86 2.37 1.37 9.1477e-41
2.88 2.37 1.3 9.1477e-41
2.92 2.37 1.28 9.1477e-41
3.47 2.37 3.25 9.1477e-41
3.47 2.37 3.16 9.1477e-41
3.47 2.37 3.07 9.1477e-41
3.47 2.37 2.96 9.1477e-41
3.46 2.37 2.82 9.1477e-41
3.46 2.37 2.69 9.1477e-41
3.46 2.37 2.55 9.1477e-41
3.46 2.37 2.39 9.1477e-41
3.45 2.37 2.19 9.1477e-41
3.45 2.37 2 9.1477e-41
3.44 2.37 1.79 9.1477e-41
3.44 2.37 1.52 9.1477e-41
1 2.4 2.18 9.1477e-41
1 2.4 2.11 9.1477e-41
1 2.4 2.05 9.1477e-41
1 2.4 1.98 9.1477e-41
0.99 2.4 1.91 9.1477e-41
0.99 2.4 1.84 9.1477e-41
0.99 2.4 1.78 9.1477e-41
0.99 2.4 1.7 9.1477e-41
0.99 2.4 1.63 9.1477e-41
0.98 2.4 1.55 9.1477e-41
0.98 2.4 1.47 9.1477e-41
0.99 2.4 1.4 9.1477e-41
1.04 2.4 1.39 9.1477e-41
1.1 2.4 1.39 9.1477e-41
1.15 2.4 1.39 9.1477e-41
1.2 2.4 1.38 9.1477e-41
1.26 2.4 1.39 9.1477e-41
1.31 2.4 1.39 9.1477e-41
1.35 2.4 1.37 9.1477e-41
1.42 2.4 1.39 9.1477e-41
1.47 2.4 1.39 9.1477e-41
1.52 2.4 1.39 9.1477e-41
1.56 2.4 1.38 9.1477e-41
1.62 2.4 1.38 9.1477e-41
1.66 2.4 1.38 9.1477e-41
1.71 2.4 1.38 9.1477e-41
1.76 2.4 1.38 9.1477e-41
1.81 2.4 1.38 9.1477e-41
1.86 2.4 1.38 9.1477e-41
1.9 2.4 1.37 9.1477e-41
1.95 2.4 1.37 9.1477e-41
2 2.4 1.37 9.1477e-41
2.05 2.4 1.38 9.1477e-41
2.09 2.4 1.37 9.1477e-41
2.13 2.4 1.37 9.1477e-41
2.18 2.4 1.37 9.1477e-41
2.22 2.4 1.36 9.1477e-41
2.27 2.4 1.37 9.1477e-41
2.31 2.4 1.37 9.1477e-41
2.35 2.4 1.36 9.1477e-41
2.39 2.4 1.36 9.1477e-41
2.44 2.4 1.37 9.1477e-41
2.48 2.4 1.37 9.1477e-41
2.53 2.4 1.36 9.1477e-41
2.57 2.4 1.37 9.1477e-41
2.61 2.4 1.36 9.1477e-41
2.65 2.4 1.36 9.1477e-41
2.7 2.4 1.37 9.1477e-41
2.74 2.4 1.36 9.1477e-41
2.78 2.4 1.37 9.1477e-41
2.82 2.4 1.37 9.1477e-41
2.85 2.4 1.35 9.1477e-41
2.88 2.4 1.3 9.1477e-41
3.47 2.4 3.34 9.1477e-41
3.47 2.4 3.25 9.1477e-41
3.47 2.4 3.16 9.1477e-41
3.47 2.4 3.07 9.1477e-41
3.46 2.4 2.94 9.1477e-41
3.46 2.4 2.82 9.1477e-41
3.46 2.4 2.68 9.1477e-41
3.46 2.4 2.55 9.1477e-41
3.45 2.4 2.38 9.1477e-41
3.45 2.4 2.2 9.1477e-41
3.45 2.4 1.99 9.1477e-41
3.44 2.4 1.78 9.1477e-41
3.44 2.4 1.54 9.1477e-41
1 2.43 2.18 9.1477e-41
1 2.43 2.11 9.1477e-41
1 2.43 2.05 9.1477e-41
1 2.43 1.98 9.1477e-41
0.99 2.43 1.91 9.1477e-41
0.99 2.43 1.84 9.1477e-41
0.99 2.43 1.77 9.1477e-41
0.99 2.43 1.7 9.1477e-41
0.98 2.43 1.62 9.1477e-41
0.98 2.43 1.55 9.1477e-41
0.98 2.43 1.47 9.1477e-41
0.99 2.43 1.4 9.1477e-41
1.03 2.43 1.38 9.1477e-41
1.1 2.43 1.39 9.1477e-41
1.15 2.43 1.39 9.1477e-41
1.2 2.43 1.39 9.1477e-41
1.26 2.43 1.39 9.1477e-41
1.31 2.43 1.38 9.1477e-41
1.36 2.43 1.38 9.1477e-41
1.41 2.43 1.38 9.1477e-41
1.47 2.43 1.39 9.1477e-41
1.51 2.43 1.38 9.1477e-41
1.57 2.43 1.38 9.1477e-41
1.62 2.43 1.38 9.1477e-41
1.66 2.43 1.38 9.1477e-41
1.72 2.43 1.39 9.1477e-41
1.76 2.43 1.38 9.1477e-41
1.81 2.43 1.38 9.1477e-41
1.86 2.43 1.38 9.1477e-41
1.91 2.43 1.38 9.1477e-41
1.95 2.43 1.37 9.1477e-41
2 2.43 1.38 9.1477e-41
2.04 2.43 1.37 9.1477e-41
2.09 2.43 1.37 9.1477e-41
2.13 2.43 1.37 9.1477e-41
2.18 2.43 1.37 9.1477e-41
2.22 2.43 1.37 9.1477e-41
2.27 2.43 1.37 9.1477e-41
2.31 2.43 1.36 9.1477e-41
2.36 2.43 1.37 9.1477e-41
2.39 2.43 1.36 9.1477e-41
2.44 2.43 1.37 9.1477e-41
2.48 2.43 1.37 9.1477e-41
2.53 2.43 1.37 9.1477e-41
2.57 2.43 1.38 9.1477e-41
2.61 2.43 1.36 9.1477e-41
2.65 2.43 1.36 9.1477e-41
2.7 2.43 1.37 9.1477e-41
2.74 2.43 1.37 9.1477e-41
2.77 2.43 1.35 9.1477e-41
2.82 2.43 1.36 9.1477e-41
2.84 2.43 1.3 9.1477e-41
3.45 2.43 3.35 9.1477e-41
3.47 2.43 3.34 9.1477e-41
3.47 2.43 3.24 9.1477e-41
3.47 2.43 3.15 9.1477e-41
3.46 2.43 3.04 9.1477e-41
3.46 2.43 2.94 9.1477e-41
3.45 2.43 2.78 9.1477e-41
3.46 2.43 2.67 9.1477e-41
3.45 2.43 2.52 9.1477e-41
3.44 2.43 2.29 9.1477e-41
3.44 2.43 2.16 9.1477e-41
3.45 2.43 2 9.1477e-41
3.44 2.43 1.76 9.1477e-41
3.45 2.43 1.59 9.1477e-41
0.99 2.46 2.17 9.1477e-41
1 2.46 2.11 9.1477e-41
1 2.46 2.05 9.1477e-41
1 2.46 1.98 9.1477e-41
0.99 2.46 1.91 9.1477e-41
0.99 2.46 1.84 9.1477e-41
0.99 2.46 1.77 9.1477e-41
0.99 2.46 1.7 9.1477e-41
0.98 2.46 1.61 9.1477e-41
0.98 2.46 1.55 9.1477e-41
0.98 2.46 1.47 9.1477e-41
0.99 2.46 1.4 9.1477e-41
1.05 2.46 1.4 9.1477e-41
1.1 2.46 1.39 9.1477e-41
1.15 2.46 1.39 9.1477e-41
1.2 2.46 1.39 9.1477e-41
1.25 2.46 1.38 9.1477e-41
1.31 2.46 1.38 9.1477e-41
1.36 2.46 1.38 9.1477e-41
1.42 2.46 1.39 9.1477e-41
1.46 2.46 1.38 9.1477e-41
1.51 2.46 1.38 9.1477e-41
1.57 2.46 1.38 9.1477e-41
1.61 2.46 1.37 9.1477e-41
1.66 2.46 1.38 9.1477e-41
1.71 2.46 1.37 9.1477e-41
1.76 2.46 1.38 9.1477e-41
1.81 2.46 1.38 9.1477e-41
1.86 2.46 1.37 9.1477e-41
1.91 2.46 1.38 9.1477e-41
1.95 2.46 1.37 9.1477e-41
2 2.46 1.38 9.1477e-41
2.05 2.46 1.38 9.1477e-41
2.09 2.46 1.38 9.1477e-41
2.14 2.46 1.38 9.1477e-41
2.18 2.46 1.37 9.1477e-41
2.22 2.46 1.37 9.1477e-41
2.27 2.46 1.37 9.1477e-41
2.31 2.46 1.37 9.1477e-41
2.35 2.46 1.36 9.1477e-41
2.4 2.46 1.37 9.1477e-41
2.44 2.46 1.36 9.1477e-41
2.48 2.46 1.36 9.1477e-41
2.53 2.46 1.37 9.1477e-41
2.57 2.46 1.37 9.1477e-41
2.61 2.46 1.36 9.1477e-41
2.65 2.46 1.36 9.1477e-41
2.7 2.46 1.37 9.1477e-41
2.74 2.46 1.36 9.1477e-41
2.78 2.46 1.36 9.1477e-41
2.82 2.46 1.37 9.1477e-41
2.84 2.46 1.31 9.1477e-41
2.88 2.46 1.31 9.1477e-41
2.92 2.46 1.3 9.1477e-41
2.97 2.46 1.31 9.1477e-41
3 2.46 1.29 9.1477e-41
3.04 2.46 1.3 9.1477e-41
3.08 2.46 1.3 9.1477e-41
3.13 2.46 1.3 9.1477e-41
3.16 2.46 1.29 9.1477e-41
3.21 2.46 1.3 9.1477e-41
3.39 2.46 2.03 9.1477e-41
3.44 2.46 2.14 9.1477e-41
3.44 2.46 1.96 9.1477e-41
3.44 2.46 1.76 9.1477e-41
3.44 2.46 1.54 9.1477e-41
1 2.49 2.18 9.1477e-41
1 2.49 2.11 9.1477e-41
1 2.49 2.06 9.1477e-41
1 2.49 1.98 9.1477e-41
1 2.49 1.92 9.1477e-41
0.99 2.49 1.84 9.1477e-41
0.99 2.49 1.77 9.1477e-41
0.99 2.49 1.7 9.1477e-41
0.98 2.49 1.62 9.1477e-41
0.98 2.49 1.55 9.1477e-41
0.98 2.49 1.47 9.1477e-41
0.99 2.49 1.4 9.1477e-41
1.04 2.49 1.39 9.1477e-41
1.09 2.49 1.38 9.1477e-41
1.14 2.49 1.38 9.1477e-41
1.2 2.49 1.39 9.1477e-41
1.26 2.49 1.39 9.1477e-41
1.31 2.49 1.39 9.1477e-41
1.36 2.49 1.38 9.1477e-41
1.41 2.49 1.38 9.1477e-41
1.46 2.49 1.38 9.1477e-41
1.51 2.49 1.38 9.1477e-41
1.56 2.49 1.38 9.1477e-41
1.62 2.49 1.38 9.1477e-41
1.67 2.49 1.38 9.1477e-41
1.71 2.49 1.37 9.1477e-41
1.76 2.49 1.38 9.1477e-41
1.81 2.49 1.38 9.1477e-41
1.86 2.49 1.37 9.1477e-41
1.91 2.49 1.38 9.1477e-41
1.95 2.49 1.38 9.1477e-41
2 2.49 1.38 9.1477e-41
2.04 2.49 1.36 9.1477e-41
2.09 2.49 1.37 9.1477e-41
2.13 2.49 1.37 9.1477e-41
2.18 2.49 1.37 9.1477e-41
2.22 2.49 1.37 9.1477e-41
2.27 2.49 1.37 9.1477e-41
2.32 2.49 1.38 9.1477e-41
2.35 2.49 1.36 9.1477e-41
2.4 2.49 1.37 9.1477e-41
2.44 2.49 1.36 9.1477e-41
2.48 2.49 1.37 9.1477e-41
2.53 2.49 1.37 9.1477e-41
2.57 2.49 1.37 9.1477e-41
2.61 2.49 1.37 9.1477e-41
2.65 2.49 1.36 9.1477e-41
2.7 2.49 1.37 9.1477e-41
2.73 2.49 1.35 9.1477e-41
2.78 2.49 1.37 9.1477e-41
2.82 2.49 1.36 9.1477e-41
2.86 2.49 1.37 9.1477e-41
2.9 2.49 1.37 9.1477e-41
2.94 2.49 1.36 9.1477e-41
2.98 2.49 1.37 9.1477e-41
3.02 2.49 1.36 9.1477e-41
3.06 2.49 1.37 9.1477e-41
3.1 2.49 1.35 9.1477e-41
3.14 2.49 1.35 9.1477e-41
3.18 2.49 1.35 9.1477e-41
3.22 2.49 1.35 9.1477e-41
3.39 2.49 2.05 9.1477e-41
3.44 2.49 2.14 9.1477e-41
3.44 2.49 1.97 9.1477e-41
3.42 2.49 1.63 9.1477e-41
3.44 2.49 1.56 9.1477e-41
1 2.52 2.18 9.1477e-41
1 2.52 2.11 9.1477e-41
1 2.52 2.05 9.1477e-41
1 2.52 1.98 9.1477e-41
0.99 2.52 1.91 9.1477e-41
0.99 2.52 1.84 9.1477e-41
0.99 2.52 1.77 9.1477e-41
0.99 2.52 1.7 9.1477e-41
0.98 2.52 1.62 9.1477e-41
0.98 2.52 1.54 9.1477e-41
0.98 2.52 1.47 9.1477e-41
0.99 2.52 1.4 9.1477e-41
1.04 2.52 1.39 9.1477e-41
1.1 2.52 1.4 9.1477e-41
1.15 2.52 1.39 9.1477e-41
1.2 2.52 1.39 9.1477e-41
1.25 2.52 1.38 9.1477e-41
1.31 2.52 1.38 9.1477e-41
1.37 2.52 1.39 9.1477e-41
1.41 2.52 1.38 9.1477e-41
1.47 2.52 1.39 9.1477e-41
1.51 2.52 1.37 9.1477e-41
1.57 2.52 1.38 9.1477e-41
1.62 2.52 1.38 9.1477e-41
1.67 2.52 1.38 9.1477e-41
1.71 2.52 1.37 9.1477e-41
1.76 2.52 1.38 9.1477e-41
1.81 2.52 1.38 9.1477e-41
1.86 2.52 1.37 9.1477e-41
1.9 2.52 1.37 9.1477e-41
1.95 2.52 1.37 9.1477e-41
2 2.52 1.37 9.1477e-41
2.04 2.52 1.37 9.1477e-41
2.09 2.52 1.37 9.1477e-41
2.13 2.52 1.37 9.1477e-41
2.18 2.52 1.37 9.1477e-41
2.22 2.52 1.36 9.1477e-41
2.27 2.52 1.38 9.1477e-41
2.31 2.52 1.37 9.1477e-41
2.36 2.52 1.37 9.1477e-41
2.4 2.52 1.37 9.1477e-41
2.44 2.52 1.37 9.1477e-41
2.48 2.52 1.37 9.1477e-41
2.53 2.52 1.37 9.1477e-41
2.57 2.52 1.36 9.1477e-41
2.61 2.52 1.36 9.1477e-41
2.65 2.52 1.37 9.1477e-41
2.7 2.52 1.37 9.1477e-41
2.74 2.52 1.36 9.1477e-41
2.78 2.52 1.36 9.1477e-41
2.82 2.52 1.36 9.1477e-41
2.86 2.52 1.37 9.1477e-41
2.9 2.52 1.36 9.1477e-41
2.94 2.52 1.36 9.1477e-41
2.98 2.52 1.37 9.1477e-41
3.02 2.52 1.36 9.1477e-41
3.06 2.52 1.36 9.1477e-41
3.1 2.52 1.37 9.1477e-41
3.14 2.52 1.35 9.1477e-41
3.18 2.52 1.36 9.1477e-41
3.22 2.52 1.35 9.1477e-41
3.39 2.52 2.07 9.1477e-41
3.44 2.52 2.14 9.1477e-41
3.44 2.52 1.95 9.1477e-41
3.42 2.52 1.62 9.1477e-41
3.44 2.52 1.54 9.1477e-41
0.99 2.55 2.17 9.1477e-41
1 2.55 2.11 9.1477e-41
1 2.55 2.05 9.1477e-41
1 2.55 1.98 9.1477e-41
0.98 2.55 1.9 9.1477e-41
0.99 2.55 1.84 9.1477e-41
0.99 2.55 1.77 9.1477e-41
0.99 2.55 1.7 9.1477e-41
0.98 2.55 1.62 9.1477e-41
0.98 2.55 1.54 9.1477e-41
0.98 2.55 1.47 9.1477e-41
0.99 2.55 1.4 9.1477e-41
1.04 2.55 1.39 9.1477e-41
1.1 2.55 1.39 9.1477e-41
1.15 2.55 1.39 9.1477e-41
1.2 2.55 1.38 9.1477e-41
1.26 2.55 1.39 9.1477e-41
1.31 2.55 1.38 9.1477e-41
1.36 2.55 1.38 9.1477e-41
1.41 2.55 1.38 9.1477e-41
1.46 2.55 1.38 9.1477e-41
1.51 2.55 1.38 9.1477e-41
1.57 2.55 1.38 9.1477e-41
1.62 2.55 1.38 9.1477e-41
1.67 2.55 1.38 9.1477e-41
1.7 2.55 1.36 9.1477e-41
1.76 2.55 1.38 9.1477e-41
1.81 2.55 1.38 9.1477e-41
1.86 2.55 1.38 9.1477e-41
1.9 2.55 1.37 9.1477e-41
1.95 2.55 1.38 9.1477e-41
2 2.55 1.38 9.1477e-41
2.04 2.55 1.37 9.1477e-41
2.09 2.55 1.37 9.1477e-41
2.13 2.55 1.37 9.1477e-41
2.18 2.55 1.37 9.1477e-41
2.22 2.55 1.37 9.1477e-41
2.27 2.55 1.38 9.1477e-41
2.31 2.55 1.37 9.1477e-41
2.35 2.55 1.36 9.1477e-41
2.4 2.55 1.38 9.1477e-41
2.44 2.55 1.37 9.1477e-41
2.48 2.55 1.37 9.1477e-41
2.53 2.55 1.36 9.1477e-41
2.57 2.55 1.38 9.1477e-41
2.61 2.55 1.36 9.1477e-41
2.65 2.55 1.36 9.1477e-41
2.7 2.55 1.37 9.1477e-41
2.74 2.55 1.36 9.1477e-41
2.78 2.55 1.36 9.1477e-41
2.82 2.55 1.36 9.1477e-41
2.86 2.55 1.36 9.1477e-41
2.9 2.55 1.36 9.1477e-41
2.94 2.55 1.37 9.1477e-41
2.98 2.55 1.36 9.1477e-41
3.02 2.55 1.36 9.1477e-41
3.06 2.55 1.36 9.1477e-41
3.1 2.55 1.35 9.1477e-41
3.14 2.55 1.36 9.1477e-41
3.18 2.55 1.36 9.1477e-41
3.22 2.55 1.36 9.1477e-41
3.39 2.55 2.07 9.1477e-41
3.44 2.55 2.15 9.1477e-41
3.44 2.55 1.94 9.1477e-41
3.42 2.55 1.61 9.1477e-41
3.44 2.55 1.55 9.1477e-41
1 2.58 2.18 9.1477e-41
0.99 2.58 2.11 9.1477e-41
0.99 2.58 2.04 9.1477e-41
0.99 2.58 1.98 9.1477e-41
0.99 2.58 1.91 9.1477e-41
0.99 2.58 1.84 9.1477e-41
0.99 2.58 1.77 9.1477e-41
0.99 2.58 1.7 9.1477e-41
0.98 2.58 1.62 9.1477e-41
0.98 2.58 1.54 9.1477e-41
0.98 2.58 1.46 9.1477e-41
0.99 2.58 1.4 9.1477e-41
1.04 2.58 1.39 9.1477e-41
1.1 2.58 1.39 9.1477e-41
1.16 2.58 1.4 9.1477e-41
1.2 2.58 1.38 9.1477e-41
1.26 2.58 1.39 9.1477e-41
1.31 2.58 1.39 9.1477e-41
1.37 2.58 1.39 9.1477e-41
1.41 2.58 1.38 9.1477e-41
1.47 2.58 1.39 9.1477e-41
1.51 2.58 1.38 9.1477e-41
1.57 2.58 1.38 9.1477e-41
1.62 2.58 1.39 9.1477e-41
1.66 2.58 1.38 9.1477e-41
1.71 2.58 1.38 9.1477e-41
1.76 2.58 1.38 9.1477e-41
1.81 2.58 1.38 9.1477e-41
1.86 2.58 1.37 9.1477e-41
1.91 2.58 1.38 9.1477e-41
1.95 2.58 1.38 9.1477e-41
2 2.58 1.37 9.1477e-41
2.05 2.58 1.38 9.1477e-41
2.09 2.58 1.38 9.1477e-41
2.13 2.58 1.37 9.1477e-41
2.18 2.58 1.37 9.1477e-41
2.22 2.58 1.37 9.1477e-41
2.27 2.58 1.37 9.1477e-41
2.31 2.58 1.37 9.1477e-41
2.36 2.58 1.37 9.1477e-41
2.4 2.58 1.38 9.1477e-41
2.44 2.58 1.37 9.1477e-41
2.48 2.58 1.37 9.1477e-41
2.53 2.58 1.37 9.1477e-41
2.57 2.58 1.36 9.1477e-41
2.61 2.58 1.36 9.1477e-41
2.65 2.58 1.36 9.1477e-41
2.7 2.58 1.37 9.1477e-41
2.74 2.58 1.36 9.1477e-41
2.78 2.58 1.37 9.1477e-41
2.82 2.58 1.36 9.1477e-41
2.86 2.58 1.36 9.1477e-41
2.9 2.58 1.37 9.1477e-41
2.94 2.58 1.36 9.1477e-41
2.98 2.58 1.36 9.1477e-41
3.02 2.58 1.37 9.1477e-41
3.06 2.58 1.37 9.1477e-41
3.1 2.58 1.36 9.1477e-41
3.14 2.58 1.36 9.1477e-41
3.18 2.58 1.36 9.1477e-41
3.22 2.58 1.36 9.1477e-41
3.39 2.58 2.07 9.1477e-41
3.44 2.58 2.15 9.1477e-41
3.44 2.58 1.93 9.1477e-41
3.41 2.58 1.6 9.1477e-41
3.44 2.58 1.53 9.1477e-41
1 2.61 2.18 9.1477e-41
1 2.61 2.11 9.1477e-41
0.99 2.61 2.04 9.1477e-41
0.99 2.61 1.98 9.1477e-41
0.99 2.61 1.91 9.1477e-41
0.99 2.61 1.84 9.1477e-41
0.99 2.61 1.77 9.1477e-41
0.99 2.61 1.7 9.1477e-41
0.98 2.61 1.62 9.1477e-41
0.98 2.61 1.54 9.1477e-41
0.98 2.61 1.47 9.1477e-41
0.99 2.61 1.4 9.1477e-41
1.04 2.61 1.39 9.1477e-41
1.1 2.61 1.4 9.1477e-41
1.15 2.61 1.39 9.1477e-41
1.2 2.61 1.39 9.1477e-41
1.26 2.61 1.39 9.1477e-41
1.31 2.61 1.39 9.1477e-41
1.37 2.61 1.39 9.1477e-41
1.41 2.61 1.38 9.1477e-41
1.47 2.61 1.39 9.1477e-41
1.51 2.61 1.38 9.1477e-41
1.57 2.61 1.38 9.1477e-41
1.61 2.61 1.37 9.1477e-41
1.67 2.61 1.38 9.1477e-41
1.71 2.61 1.38 9.1477e-41
1.76 2.61 1.38 9.1477e-41
1.81 2.61 1.38 9.1477e-41
1.86 2.61 1.38 9.1477e-41
1.9 2.61 1.37 9.1477e-41
1.95 2.61 1.37 9.1477e-41
2 2.61 1.38 9.1477e-41
2.04 2.61 1.37 9.1477e-41
2.09 2.61 1.38 9.1477e-41
2.13 2.61 1.37 9.1477e-41
2.18 2.61 1.37 9.1477e-41
2.22 2.61 1.37 9.1477e-41
2.27 2.61 1.37 9.1477e-41
2.31 2.61 1.37 9.1477e-41
2.35 2.61 1.36 9.1477e-41
2.4 2.61 1.37 9.1477e-41
2.44 2.61 1.37 9.1477e-41
2.48 2.61 1.37 9.1477e-41
2.53 2.61 1.37 9.1477e-41
2.57 2.61 1.36 9.1477e-41
2.61 2.61 1.37 9.1477e-41
2.65 2.61 1.36 9.1477e-41
2.7 2.61 1.37 9.1477e-41
2.74 2.61 1.36 9.1477e-41
2.78 2.61 1.37 9.1477e-41
2.82 2.61 1.36 9.1477e-41
2.86 2.61 1.36 9.1477e-41
2.9 2.61 1.37 9.1477e-41
2.94 2.61 1.37 9.1477e-41
2.98 2.61 1.36 9.1477e-41
3.02 2.61 1.37 9.1477e-41
3.06 2.61 1.36 9.1477e-41
3.1 2.61 1.36 9.1477e-41
3.14 2.61 1.36 9.1477e-41
3.18 2.61 1.36 9.1477e-41
3.22 2.61 1.35 9.1477e-41
3.4 2.61 2.08 9.1477e-41
3.44 2.61 2.15 9.1477e-41
3.44 2.61 1.94 9.1477e-41
3.42 2.61 1.61 9.1477e-41
3.44 2.61 1.54 9.1477e-41
0.99 2.64 2.17 9.1477e-41
0.99 2.64 2.11 9.1477e-41
0.99 2.64 2.04 9.1477e-41
0.99 2.64 1.98 9.1477e-41
0.99 2.64 1.91 9.1477e-41
0.99 2.64 1.84 9.1477e-41
0.99 2.64 1.77 9.1477e-41
0.99 2.64 1.7 9.1477e-41
0.98 2.64 1.62 9.1477e-41
0.98 2.64 1.55 9.1477e-41
0.98 2.64 1.46 9.1477e-41
0.99 2.64 1.4 9.1477e-41
1.04 2.64 1.39 9.1477e-41
1.1 2.64 1.39 9.1477e-41
1.15 2.64 1.39 9.1477e-41
1.2 2.64 1.39 9.1477e-41
1.26 2.64 1.39 9.1477e-41
1.31 2.64 1.38 9.1477e-41
1.37 2.64 1.39 9.1477e-41
1.41 2.64 1.38 9.1477e-41
1.46 2.64 1.38 9.1477e-41
1.52 2.64 1.39 9.1477e-41
1.57 2.64 1.38 9.1477e-41
1.62 2.64 1.38 9.1477e-41
1.66 2.64 1.38 9.1477e-41
1.71 2.64 1.38 9.1477e-41
1.76 2.64 1.37 9.1477e-41
1.81 2.64 1.38 9.1477e-41
1.86 2.64 1.37 9.1477e-41
1.9 2.64 1.37 9.1477e-41
1.95 2.64 1.38 9.1477e-41
2 2.64 1.38 9.1477e-41
2.05 2.64 1.38 9.1477e-41
2.09 2.64 1.37 9.1477e-41
2.13 2.64 1.37 9.1477e-41
2.18 2.64 1.37 9.1477e-41
2.22 2.64 1.37 9.1477e-41
2.27 2.64 1.38 9.1477e-41
2.31 2.64 1.37 9.1477e-41
2.35 2.64 1.36 9.1477e-41
2.4 2.64 1.37 9.1477e-41
2.44 2.64 1.37 9.1477e-41
2.48 2.64 1.36 9.1477e-41
2.53 2.64 1.37 9.1477e-41
2.57 2.64 1.37 9.1477e-41
2.61 2.64 1.37 9.1477e-41
2.65 2.64 1.37 9.1477e-41
2.7 2.64 1.37 9.1477e-41
2.74 2.64 1.36 9.1477e-41
2.78 2.64 1.36 9.1477e-41
2.82 2.64 1.36 9.1477e-41
2.86 2.64 1.36 9.1477e-41
2.9 2.64 1.36 9.1477e-41
2.94 2.64 1.37 9.1477e-41
2.98 2.64 1.36 9.1477e-41
3.02 2.64 1.37 9.1477e-41
3.06 2.64 1.36 9.1477e-41
3.1 2.64 1.36 9.1477e-41
3.14 2.64 1.37 9.1477e-41
3.18 2.64 1.35 9.1477e-41
3.22 2.64 1.36 9.1477e-41
3.39 2.64 2.07 9.1477e-41
3.44 2.64 2.15 9.1477e-41
3.44 2.64 1.94 9.1477e-41
3.42 2.64 1.61 9.1477e-41
3.44 2.64 1.55 9.1477e-41
0.99 2.67 2.17 9.1477e-41
0.99 2.67 2.11 9.1477e-41
0.99 2.67 2.04 9.1477e-41
1 2.67 1.98 9.1477e-41
0.99 2.67 1.91 9.1477e-41
0.99 2.67 1.84 9.1477e-41
0.99 2.67 1.77 9.1477e-41
0.98 2.67 1.69 9.1477e-41
0.98 2.67 1.61 9.1477e-41
0.97 2.67 1.53 9.1477e-41
0.98 2.67 1.46 9.1477e-41
0.99 2.67 1.4 9.1477e-41
1.03 2.67 1.38 9.1477e-41
1.1 2.67 1.4 9.1477e-41
1.15 2.67 1.39 9.1477e-41
1.2 2.67 1.38 9.1477e-41
1.26 2.67 1.39 9.1477e-41
1.31 2.67 1.39 9.1477e-41
1.36 2.67 1.38 9.1477e-41
1.42 2.67 1.39 9.1477e-41
1.47 2.67 1.39 9.1477e-41
1.51 2.67 1.38 9.1477e-41
1.57 2.67 1.39 9.1477e-41
1.62 2.67 1.38 9.1477e-41
1.67 2.67 1.38 9.1477e-41
1.71 2.67 1.38 9.1477e-41
1.76 2.67 1.38 9.1477e-41
1.81 2.67 1.38 9.1477e-41
1.86 2.67 1.38 9.1477e-41
1.91 2.67 1.38 9.1477e-41
1.95 2.67 1.38 9.1477e-41
2 2.67 1.38 9.1477e-41
2.05 2.67 1.38 9.1477e-41
2.09 2.67 1.38 9.1477e-41
2.13 2.67 1.37 9.1477e-41
2.18 2.67 1.38 9.1477e-41
2.22 2.67 1.37 9.1477e-41
2.27 2.67 1.37 9.1477e-41
2.31 2.67 1.37 9.1477e-41
2.36 2.67 1.37 9.1477e-41
2.4 2.67 1.37 9.1477e-41
2.44 2.67 1.37 9.1477e-41
2.49 2.67 1.38 9.1477e-41
2.53 2.67 1.36 9.1477e-41
2.57 2.67 1.37 9.1477e-41
2.61 2.67 1.36 9.1477e-41
2.65 2.67 1.36 9.1477e-41
2.7 2.67 1.37 9.1477e-41
2.74 2.67 1.36 9.1477e-41
2.78 2.67 1.36 9.1477e-41
2.82 2.67 1.36 9.1477e-41
2.86 2.67 1.37 9.1477e-41
2.9 2.67 1.36 9.1477e-41
2.94 2.67 1.37 9.1477e-41
2.98 2.67 1.36 9.1477e-41
3.02 2.67 1.37 9.1477e-41
3.06 2.67 1.36 9.1477e-41
3.1 2.67 1.36 9.1477e-41
3.14 2.67 1.37 9.1477e-41
3.18 2.67 1.35 9.1477e-41
3.22 2.67 1.36 9.1477e-41
3.4 2.67 2.08 9.1477e-41
3.44 2.67 2.15 9.1477e-41
3.44 2.67 1.93 9.1477e-41
3.41 2.67 1.6 9.1477e-41
3.44 2.67 1.54 9.1477e-41
1 2.7 2.18 9.1477e-41
0.99 2.7 2.11 9.1477e-41
0.99 2.7 2.04 9.1477e-41
1 2.7 1.98 9.1477e-41
0.98 2.7 1.9 9.1477e-41
0.99 2.7 1.84 9.1477e-41
0.98 2.7 1.76 9.1477e-41
0.98 2.7 1.69 9.1477e-41
0.98 2.7 1.61 9.1477e-41
0.98 2.7 1.54 9.1477e-41
0.98 2.7 1.46 9.1477e-41
0.99 2.7 1.4 9.1477e-41
1.04 2.7 1.39 9.1477e-41
1.1 2.7 1.39 9.1477e-41
1.15 2.7 1.39 9.1477e-41
1.2 2.7 1.39 9.1477e-41
1.26 2.7 1.39 9.1477e-41
1.31 2.7 1.39 9.1477e-41
1.37 2.7 1.39 9.1477e-41
1.41 2.7 1.38 9.1477e-41
1.47 2.7 1.39 9.1477e-41
1.52 2.7 1.39 9.1477e-41
1.57 2.7 1.38 9.1477e-41
1.62 2.7 1.38 9.1477e-41
1.67 2.7 1.38 9.1477e-41
1.71 2.7 1.38 9.1477e-41
1.77 2.7 1.39 9.1477e-41
1.81 2.7 1.38 9.1477e-41
1.86 2.7 1.37 9.1477e-41
1.91 2.7 1.38 9.1477e-41
1.95 2.7 1.37 9.1477e-41
2 2.7 1.38 9.1477e-41
2.04 2.7 1.37 9.1477e-41
2.09 2.7 1.37 9.1477e-41
2.13 2.7 1.37 9.1477e-41
2.18 2.7 1.38 9.1477e-41
2.22 2.7 1.37 9.1477e-41
2.27 2.7 1.37 9.1477e-41
2.31 2.7 1.37 9.1477e-41
2.35 2.7 1.36 9.1477e-41
2.4 2.7 1.37 9.1477e-41
2.44 2.7 1.37 9.1477e-41
2.48 2.7 1.37 9.1477e-41
2.53 2.7 1.36 9.1477e-41
2.57 2.7 1.37 9.1477e-41
2.61 2.7 1.36 9.1477e-41
2.65 2.7 1.37 9.1477e-41
2.69 2.7 1.36 9.1477e-41
2.74 2.7 1.37 9.1477e-41
2.78 2.7 1.36 9.1477e-41
2.82 2.7 1.36 9.1477e-41
2.86 2.7 1.36 9.1477e-41
2.9 2.7 1.36 9.1477e-41
2.94 2.7 1.37 9.1477e-41
2.98 2.7 1.36 9.1477e-41
3.02 2.7 1.38 9.1477e-41
3.06 2.7 1.36 9.1477e-41
3.1 2.7 1.36 9.1477e-41
3.14 2.7 1.37 9.1477e-41
3.18 2.7 1.36 9.1477e-41
3.22 2.7 1.35 9.1477e-41
3.4 2.7 2.08 9.1477e-41
3.44 2.7 2.15 9.1477e-41
3.43 2.7 1.92 9.1477e-41
3.41 2.7 1.6 9.1477e-41
3.44 2.7 1.55 9.1477e-41
0.99 2.73 2.17 9.1477e-41
0.99 2.73 2.11 9.1477e-41
0.99 2.73 2.04 9.1477e-41
0.99 2.73 1.98 9.1477e-41
0.99 2.73 1.91 9.1477e-41
0.98 2.73 1.83 9.1477e-41
0.98 2.73 1.75 9.1477e-41
0.98 2.73 1.69 9.1477e-41
0.98 2.73 1.61 9.1477e-41
0.98 2.73 1.54 9.1477e-41
0.97 2.73 1.45 9.1477e-41
0.99 2.73 1.4 9.1477e-41
1.05 2.73 1.4 9.1477e-41
1.1 2.73 1.39 9.1477e-41
1.14 2.73 1.38 9.1477e-41
1.21 2.73 1.4 9.1477e-41
1.26 2.73 1.39 9.1477e-41
1.31 2.73 1.39 9.1477e-41
1.36 2.73 1.38 9.1477e-41
1.41 2.73 1.38 9.1477e-41
1.47 2.73 1.39 9.1477e-41
1.51 2.73 1.38 9.1477e-41
1.56 2.73 1.38 9.1477e-41
1.62 2.73 1.38 9.1477e-41
1.67 2.73 1.38 9.1477e-41
1.71 2.73 1.38 9.1477e-41
1.77 2.73 1.39 9.1477e-41
1.81 2.73 1.38 9.1477e-41
1.86 2.73 1.37 9.1477e-41
1.91 2.73 1.38 9.1477e-41
1.95 2.73 1.38 9.1477e-41
2 2.73 1.38 9.1477e-41
2.05 2.73 1.38 9.1477e-41
2.1 2.73 1.39 9.1477e-41
2.13 2.73 1.37 9.1477e-41
2.18 2.73 1.37 9.1477e-41
2.22 2.73 1.37 9.1477e-41
2.27 2.73 1.38 9.1477e-41
2.32 2.73 1.38 9.1477e-41
2.36 2.73 1.37 9.1477e-41
2.4 2.73 1.37 9.1477e-41
2.44 2.73 1.37 9.1477e-41
2.48 2.73 1.37 9.1477e-41
2.53 2.73 1.37 9.1477e-41
2.57 2.73 1.37 9.1477e-41
2.61 2.73 1.37 9.1477e-41
2.65 2.73 1.37 9.1477e-41
2.7 2.73 1.38 9.1477e-41
2.74 2.73 1.36 9.1477e-41
2.78 2.73 1.37 9.1477e-41
2.82 2.73 1.37 9.1477e-41
2.86 2.73 1.36 9.1477e-41
2.9 2.73 1.37 9.1477e-41
2.94 2.73 1.37 9.1477e-41
2.98 2.73 1.37 9.1477e-41
3.02 2.73 1.36 9.1477e-41
3.06 2.73 1.37 9.1477e-41
3.1 2.73 1.36 9.1477e-41
3.14 2.73 1.36 9.1477e-41
3.18 2.73 1.37 9.1477e-41
3.22 2.73 1.36 9.1477e-41
3.4 2.73 2.08 9.1477e-41
3.44 2.73 2.15 9.1477e-41
3.43 2.73 1.92 9.1477e-41
3.41 2.73 1.59 9.1477e-41
3.44 2.73 1.56 9.1477e-41
0.99 2.76 2.17 9.1477e-41
0.99 2.76 2.11 9.1477e-41
0.99 2.76 2.04 9.1477e-41
0.98 2.76 1.97 9.1477e-41
0.98 2.76 1.9 9.1477e-41
0.98 2.76 1.83 9.1477e-41
0.99 2.76 1.77 9.1477e-41
0.98 2.76 1.69 9.1477e-41
0.98 2.76 1.61 9.1477e-41
0.98 2.76 1.54 9.1477e-41
0.98 2.76 1.46 9.1477e-41
0.99 2.76 1.4 9.1477e-41
1.04 2.76 1.39 9.1477e-41
1.09 2.76 1.38 9.1477e-41
1.15 2.76 1.39 9.1477e-41
1.2 2.76 1.38 9.1477e-41
1.26 2.76 1.39 9.1477e-41
1.32 2.76 1.4 9.1477e-41
1.36 2.76 1.38 9.1477e-41
1.42 2.76 1.39 9.1477e-41
1.47 2.76 1.39 9.1477e-41
1.52 2.76 1.39 9.1477e-41
1.57 2.76 1.38 9.1477e-41
1.62 2.76 1.39 9.1477e-41
1.67 2.76 1.38 9.1477e-41
1.71 2.76 1.38 9.1477e-41
1.76 2.76 1.38 9.1477e-41
1.81 2.76 1.38 9.1477e-41
1.86 2.76 1.38 9.1477e-41
1.91 2.76 1.38 9.1477e-41
1.95 2.76 1.38 9.1477e-41
2 2.76 1.38 9.1477e-41
2.04 2.76 1.37 9.1477e-41
2.09 2.76 1.37 9.1477e-41
2.13 2.76 1.37 9.1477e-41
2.18 2.76 1.37 9.1477e-41
2.22 2.76 1.37 9.1477e-41
2.27 2.76 1.38 9.1477e-41
2.31 2.76 1.37 9.1477e-41
2.36 2.76 1.38 9.1477e-41
2.4 2.76 1.37 9.1477e-41
2.44 2.76 1.36 9.1477e-41
2.49 2.76 1.38 9.1477e-41
2.53 2.76 1.37 9.1477e-41
2.57 2.76 1.38 9.1477e-41
2.61 2.76 1.37 9.1477e-41
2.65 2.76 1.37 9.1477e-41
2.7 2.76 1.37 9.1477e-41
2.74 2.76 1.36 9.1477e-41
2.78 2.76 1.36 9.1477e-41
2.82 2.76 1.37 9.1477e-41
2.86 2.76 1.37 9.1477e-41
2.9 2.76 1.36 9.1477e-41
2.94 2.76 1.37 9.1477e-41
2.98 2.76 1.37 9.1477e-41
3.02 2.76 1.37 9.1477e-41
3.06 2.76 1.37 9.1477e-41
3.1 2.76 1.37 9.1477e-41
3.14 2.76 1.36 9.1477e-41
3.18 2.76 1.36 9.1477e-41
3.22 2.76 1.36 9.1477e-41
3.4 2.76 2.08 9.1477e-41
3.44 2.76 2.15 9.1477e-41
3.43 2.76 1.92 9.1477e-41
3.41 2.76 1.6 9.1477e-41
3.44 2.76 1.56 9.1477e-41
0.99 2.79 2.17 9.1477e-41
0.99 2.79 2.1 9.1477e-41
0.98 2.79 2.03 9.1477e-41
0.99 2.79 1.98 9.1477e-41
0.98 2.79 1.9 9.1477e-41
0.99 2.79 1.84 9.1477e-41
0.98 2.79 1.76 9.1477e-41
0.98 2.79 1.69 9.1477e-41
0.97 2.79 1.61 9.1477e-41
0.97 2.79 1.53 9.1477e-41
0.98 2.79 1.46 9.1477e-41
0.99 2.79 1.4 9.1477e-41
1.04 2.79 1.39 9.1477e-41
1.1 2.79 1.4 9.1477e-41
1.15 2.79 1.39 9.1477e-41
1.2 2.79 1.39 9.1477e-41
1.26 2.79 1.39 9.1477e-41
1.31 2.79 1.39 9.1477e-41
1.36 2.79 1.38 9.1477e-41
1.42 2.79 1.39 9.1477e-41
1.47 2.79 1.39 9.1477e-41
1.51 2.79 1.38 9.1477e-41
1.57 2.79 1.38 9.1477e-41
1.62 2.79 1.39 9.1477e-41
1.66 2.79 1.38 9.1477e-41
1.71 2.79 1.38 9.1477e-41
1.76 2.79 1.38 9.1477e-41
1.81 2.79 1.38 9.1477e-41
1.86 2.79 1.37 9.1477e-41
1.91 2.79 1.38 9.1477e-41
1.95 2.79 1.38 9.1477e-41
2 2.79 1.38 9.1477e-41
2.05 2.79 1.38 9.1477e-41
2.09 2.79 1.37 9.1477e-41
2.13 2.79 1.37 9.1477e-41
2.18 2.79 1.38 9.1477e-41
2.22 2.79 1.37 9.1477e-41
2.27 2.79 1.38 9.1477e-41
2.31 2.79 1.37 9.1477e-41
2.36 2.79 1.37 9.1477e-41
2.4 2.79 1.37 9.1477e-41
2.44 2.79 1.37 9.1477e-41
2.49 2.79 1.38 9.1477e-41
2.53 2.79 1.37 9.1477e-41
2.57 2.79 1.38 9.1477e-41
2.61 2.79 1.37 9.1477e-41
2.65 2.79 1.37 9.1477e-41
2.7 2.79 1.38 9.1477e-41
2.73 2.79 1.35 9.1477e-41
2.78 2.79 1.37 9.1477e-41
2.82 2.79 1.36 9.1477e-41
2.86 2.79 1.36 9.1477e-41
2.9 2.79 1.37 9.1477e-41
2.94 2.79 1.37 9.1477e-41
2.98 2.79 1.37 9.1477e-41
3.02 2.79 1.37 9.1477e-41
3.06 2.79 1.36 9.1477e-41
3.1 2.79 1.36 9.1477e-41
3.14 2.79 1.37 9.1477e-41
3.18 2.79 1.36 9.1477e-41
3.22 2.79 1.36 9.1477e-41
3.4 2.79 2.08 9.1477e-41
3.44 2.79 2.15 9.1477e-41
3.43 2.79 1.92 9.1477e-41
3.41 2.79 1.59 9.1477e-41
3.44 2.79 1.55 9.1477e-41
0.99 2.82 2.17 9.1477e-41
0.99 2.82 2.11 9.1477e-41
0.99 2.82 2.04 9.1477e-41
0.99 2.82 1.98 9.1477e-41
0.98 2.82 1.89 9.1477e-41
0.99 2.82 1.84 9.1477e-41
0.98 2.82 1.76 9.1477e-41
0.97 2.82 1.68 9.1477e-41
0.98 2.82 1.61 9.1477e-41
0.97 2.82 1.53 9.1477e-41
0.97 2.82 1.45 9.1477e-41
0.99 2.82 1.4 9.1477e-41
1.04 2.82 1.39 9.1477e-41
1.1 2.82 1.39 9.1477e-41
1.16 2.82 1.4 9.1477e-41
1.2 2.82 1.39 9.1477e-41
1.26 2.82 1.39 9.1477e-41
1.31 2.82 1.39 9.1477e-41
1.37 2.82 1.39 9.1477e-41
1.41 2.82 1.38 9.1477e-41
1.47 2.82 1.39 9.1477e-41
1.52 2.82 1.39 9.1477e-41
1.56 2.82 1.38 9.1477e-41
1.62 2.82 1.39 9.1477e-41
1.66 2.82 1.38 9.1477e-41
1.71 2.82 1.38 9.1477e-41
1.76 2.82 1.38 9.1477e-41
1.81 2.82 1.38 9.1477e-41
1.86 2.82 1.38 9.1477e-41
1.91 2.82 1.38 9.1477e-41
1.95 2.82 1.38 9.1477e-41
2 2.82 1.38 9.1477e-41
2.05 2.82 1.39 9.1477e-41
2.09 2.82 1.38 9.1477e-41
2.14 2.82 1.38 9.1477e-41
2.18 2.82 1.37 9.1477e-41
2.22 2.82 1.37 9.1477e-41
2.27 2.82 1.38 9.1477e-41
2.32 2.82 1.38 9.1477e-41
2.36 2.82 1.37 9.1477e-41
2.4 2.82 1.37 9.1477e-41
2.44 2.82 1.37 9.1477e-41
2.49 2.82 1.38 9.1477e-41
2.53 2.82 1.38 9.1477e-41
2.57 2.82 1.37 9.1477e-41
2.61 2.82 1.37 9.1477e-41
2.65 2.82 1.36 9.1477e-41
2.7 2.82 1.38 9.1477e-41
2.74 2.82 1.36 9.1477e-41
2.78 2.82 1.37 9.1477e-41
2.82 2.82 1.37 9.1477e-41
2.86 2.82 1.37 9.1477e-41
2.9 2.82 1.36 9.1477e-41
2.94 2.82 1.36 9.1477e-41
2.98 2.82 1.38 9.1477e-41
3.02 2.82 1.36 9.1477e-41
3.06 2.82 1.36 9.1477e-41
3.1 2.82 1.37 9.1477e-41
3.14 2.82 1.37 9.1477e-41
3.18 2.82 1.36 9.1477e-41
3.22 2.82 1.36 9.1477e-41
3.4 2.82 2.09 9.1477e-41
3.44 2.82 2.15 9.1477e-41
3.43 2.82 1.92 9.1477e-41
3.41 2.82 1.59 9.1477e-41
3.44 2.82 1.56 9.1477e-41
0.99 2.85 2.16 9.1477e-41
0.99 2.85 2.1 9.1477e-41
