# .PCD v.7 - Point Cloud Data file format
VERSION .7
FIELDS x y z rgb
SIZE 4 4 4 4
TYPE F F F F
WIDTH 1892
HEIGHT 1
POINTS 1892
DATA ascii
1.13 5.94 2.21 9.1477e-41
1.13 5.94 2.14 9.1477e-41
1.13 5.94 2.08 9.1477e-41
1.13 5.94 2.01 9.1477e-41
1.13 5.94 1.95 9.1477e-41
1.13 5.94 1.88 9.1477e-41
1.12 5.94 1.8 9.1477e-41
1.12 5.94 1.73 9.1477e-41
1.11 5.94 1.65 9.1477e-41
1.12 5.94 1.58 9.1477e-41
1.11 5.94 1.49 9.1477e-41
1.12 5.94 1.42 9.1477e-41
1.16 5.94 1.41 9.1477e-41
1.22 5.94 1.41 9.1477e-41
1.27 5.94 1.41 9.1477e-41
1.32 5.94 1.41 9.1477e-41
1.38 5.94 1.41 9.1477e-41
1.42 5.94 1.4 9.1477e-41
1.48 5.94 1.41 9.1477e-41
1.53 5.94 1.41 9.1477e-41
1.58 5.94 1.4 9.1477e-41
1.63 5.94 1.41 9.1477e-41
1.68 5.94 1.4 9.1477e-41
1.72 5.94 1.4 9.1477e-41
1.78 5.94 1.4 9.1477e-41
1.82 5.94 1.4 9.1477e-41
1.87 5.94 1.4 9.1477e-41
1.92 5.94 1.4 9.1477e-41
1.96 5.94 1.4 9.1477e-41
2.01 5.94 1.4 9.1477e-41
2.05 5.94 1.4 9.1477e-41
2.1 5.94 1.4 9.1477e-41
2.15 5.94 1.4 9.1477e-41
2.19 5.94 1.4 9.1477e-41
2.24 5.94 1.4 9.1477e-41
2.28 5.94 1.39 9.1477e-41
2.32 5.94 1.4 9.1477e-41
2.37 5.94 1.4 9.1477e-41
2.41 5.94 1.4 9.1477e-41
2.45 5.94 1.39 9.1477e-41
2.49 5.94 1.39 9.1477e-41
2.54 5.94 1.4 9.1477e-41
2.58 5.94 1.4 9.1477e-41
2.62 5.94 1.38 9.1477e-41
2.66 5.94 1.39 9.1477e-41
2.7 5.94 1.4 9.1477e-41
2.74 5.94 1.39 9.1477e-41
2.79 5.94 1.39 9.1477e-41
2.83 5.94 1.39 9.1477e-41
2.87 5.94 1.4 9.1477e-41
2.91 5.94 1.39 9.1477e-41
2.95 5.94 1.39 9.1477e-41
2.99 5.94 1.4 9.1477e-41
3.02 5.94 1.38 9.1477e-41
3.07 5.94 1.39 9.1477e-41
3.11 5.94 1.39 9.1477e-41
3.14 5.94 1.39 9.1477e-41
3.19 5.94 1.4 9.1477e-41
3.22 5.94 1.39 9.1477e-41
3.26 5.94 1.4 9.1477e-41
3.3 5.94 1.39 9.1477e-41
3.34 5.94 1.39 9.1477e-41
3.38 5.94 1.37 9.1477e-41
3.41 5.94 1.35 9.1477e-41
3.57 5.94 2.13 9.1477e-41
3.6 5.94 2.16 9.1477e-41
3.57 5.94 1.65 9.1477e-41
3.59 5.94 1.58 9.1477e-41
3.54 5.94 0.8 9.1477e-41
3.57 5.94 0.64 9.1477e-41
1.13 6 2.2 9.1477e-41
1.13 6 2.14 9.1477e-41
1.13 6 2.08 9.1477e-41
1.13 6 2.01 9.1477e-41
1.13 6 1.95 9.1477e-41
1.13 6 1.88 9.1477e-41
1.12 6 1.8 9.1477e-41
1.13 6 1.74 9.1477e-41
1.11 6 1.65 9.1477e-41
1.11 6 1.57 9.1477e-41
1.12 6 1.51 9.1477e-41
1.12 6 1.42 9.1477e-41
1.17 6 1.41 9.1477e-41
1.22 6 1.41 9.1477e-41
1.27 6 1.41 9.1477e-41
1.32 6 1.41 9.1477e-41
1.37 6 1.4 9.1477e-41
1.43 6 1.41 9.1477e-41
1.48 6 1.4 9.1477e-41
1.53 6 1.41 9.1477e-41
1.58 6 1.4 9.1477e-41
1.63 6 1.4 9.1477e-41
1.68 6 1.41 9.1477e-41
1.73 6 1.41 9.1477e-41
1.77 6 1.4 9.1477e-41
1.82 6 1.4 9.1477e-41
1.87 6 1.41 9.1477e-41
1.92 6 1.41 9.1477e-41
1.96 6 1.39 9.1477e-41
2.01 6 1.4 9.1477e-41
2.06 6 1.41 9.1477e-41
2.1 6 1.4 9.1477e-41
2.15 6 1.4 9.1477e-41
2.19 6 1.39 9.1477e-41
2.23 6 1.39 9.1477e-41
2.28 6 1.39 9.1477e-41
2.32 6 1.4 9.1477e-41
2.36 6 1.39 9.1477e-41
2.41 6 1.4 9.1477e-41
2.45 6 1.39 9.1477e-41
2.5 6 1.4 9.1477e-41
2.54 6 1.4 9.1477e-41
2.58 6 1.4 9.1477e-41
2.62 6 1.38 9.1477e-41
2.66 6 1.39 9.1477e-41
2.7 6 1.39 9.1477e-41
2.74 6 1.39 9.1477e-41
2.79 6 1.39 9.1477e-41
2.83 6 1.39 9.1477e-41
2.87 6 1.4 9.1477e-41
2.91 6 1.4 9.1477e-41
2.95 6 1.39 9.1477e-41
2.99 6 1.39 9.1477e-41
3.02 6 1.38 9.1477e-41
3.07 6 1.4 9.1477e-41
3.11 6 1.39 9.1477e-41
3.14 6 1.39 9.1477e-41
3.18 6 1.39 9.1477e-41
3.22 6 1.39 9.1477e-41
3.26 6 1.4 9.1477e-41
3.3 6 1.39 9.1477e-41
3.34 6 1.39 9.1477e-41
3.38 6 1.38 9.1477e-41
3.41 6 1.34 9.1477e-41
3.57 6 2.13 9.1477e-41
3.6 6 2.15 9.1477e-41
3.56 6 1.64 9.1477e-41
3.59 6 1.59 9.1477e-41
3.55 6 0.87 9.1477e-41
3.58 6 0.75 9.1477e-41
1.13 6.06 2.2 9.1477e-41
1.13 6.06 2.14 9.1477e-41
1.14 6.06 2.09 9.1477e-41
1.12 6.06 2.01 9.1477e-41
1.13 6.06 1.95 9.1477e-41
1.13 6.06 1.88 9.1477e-41
1.12 6.06 1.8 9.1477e-41
1.12 6.06 1.73 9.1477e-41
1.11 6.06 1.65 9.1477e-41
1.11 6.06 1.57 9.1477e-41
1.12 6.06 1.5 9.1477e-41
1.12 6.06 1.42 9.1477e-41
1.17 6.06 1.41 9.1477e-41
1.22 6.06 1.41 9.1477e-41
1.27 6.06 1.41 9.1477e-41
1.32 6.06 1.4 9.1477e-41
1.38 6.06 1.41 9.1477e-41
1.42 6.06 1.4 9.1477e-41
1.48 6.06 1.4 9.1477e-41
1.52 6.06 1.4 9.1477e-41
1.58 6.06 1.41 9.1477e-41
1.63 6.06 1.4 9.1477e-41
1.68 6.06 1.4 9.1477e-41
1.73 6.06 1.41 9.1477e-41
1.78 6.06 1.4 9.1477e-41
1.82 6.06 1.4 9.1477e-41
1.86 6.06 1.39 9.1477e-41
1.92 6.06 1.4 9.1477e-41
1.96 6.06 1.4 9.1477e-41
2.01 6.06 1.4 9.1477e-41
2.05 6.06 1.4 9.1477e-41
2.1 6.06 1.4 9.1477e-41
2.15 6.06 1.4 9.1477e-41
2.19 6.06 1.39 9.1477e-41
2.23 6.06 1.39 9.1477e-41
2.28 6.06 1.39 9.1477e-41
2.32 6.06 1.4 9.1477e-41
2.37 6.06 1.4 9.1477e-41
2.41 6.06 1.39 9.1477e-41
2.45 6.06 1.39 9.1477e-41
2.49 6.06 1.39 9.1477e-41
2.54 6.06 1.39 9.1477e-41
2.58 6.06 1.39 9.1477e-41
2.62 6.06 1.39 9.1477e-41
2.66 6.06 1.4 9.1477e-41
2.7 6.06 1.39 9.1477e-41
2.74 6.06 1.38 9.1477e-41
2.79 6.06 1.39 9.1477e-41
2.83 6.06 1.39 9.1477e-41
2.87 6.06 1.39 9.1477e-41
2.91 6.06 1.39 9.1477e-41
2.95 6.06 1.4 9.1477e-41
2.99 6.06 1.39 9.1477e-41
3.03 6.06 1.4 9.1477e-41
3.07 6.06 1.39 9.1477e-41
3.11 6.06 1.39 9.1477e-41
3.15 6.06 1.4 9.1477e-41
3.18 6.06 1.38 9.1477e-41
3.22 6.06 1.39 9.1477e-41
3.26 6.06 1.39 9.1477e-41
3.3 6.06 1.39 9.1477e-41
3.34 6.06 1.39 9.1477e-41
3.38 6.06 1.38 9.1477e-41
3.41 6.06 1.35 9.1477e-41
3.56 6.06 2.12 9.1477e-41
3.6 6.06 2.14 9.1477e-41
3.56 6.06 1.64 9.1477e-41
3.59 6.06 1.57 9.1477e-41
3.56 6.06 0.94 9.1477e-41
3.58 6.06 0.79 9.1477e-41
1.13 6.12 2.14 9.1477e-41
1.13 6.12 2.08 9.1477e-41
1.13 6.12 2.01 9.1477e-41
1.13 6.12 1.95 9.1477e-41
1.13 6.12 1.88 9.1477e-41
1.13 6.12 1.81 9.1477e-41
1.13 6.12 1.74 9.1477e-41
1.12 6.12 1.66 9.1477e-41
1.13 6.12 1.59 9.1477e-41
1.12 6.12 1.5 9.1477e-41
1.12 6.12 1.42 9.1477e-41
1.17 6.12 1.41 9.1477e-41
1.22 6.12 1.41 9.1477e-41
1.27 6.12 1.41 9.1477e-41
1.32 6.12 1.41 9.1477e-41
1.37 6.12 1.4 9.1477e-41
1.42 6.12 1.4 9.1477e-41
1.48 6.12 1.4 9.1477e-41
1.53 6.12 1.41 9.1477e-41
1.57 6.12 1.39 9.1477e-41
1.63 6.12 1.4 9.1477e-41
1.67 6.12 1.39 9.1477e-41
1.72 6.12 1.4 9.1477e-41
1.78 6.12 1.4 9.1477e-41
1.82 6.12 1.4 9.1477e-41
1.86 6.12 1.39 9.1477e-41
1.92 6.12 1.41 9.1477e-41
1.96 6.12 1.4 9.1477e-41
2 6.12 1.39 9.1477e-41
2.05 6.12 1.4 9.1477e-41
2.1 6.12 1.4 9.1477e-41
2.14 6.12 1.39 9.1477e-41
2.19 6.12 1.39 9.1477e-41
2.23 6.12 1.39 9.1477e-41
2.28 6.12 1.39 9.1477e-41
2.32 6.12 1.4 9.1477e-41
2.36 6.12 1.39 9.1477e-41
2.41 6.12 1.39 9.1477e-41
2.45 6.12 1.39 9.1477e-41
2.49 6.12 1.39 9.1477e-41
2.54 6.12 1.39 9.1477e-41
2.58 6.12 1.39 9.1477e-41
2.62 6.12 1.38 9.1477e-41
2.66 6.12 1.39 9.1477e-41
2.7 6.12 1.39 9.1477e-41
2.74 6.12 1.39 9.1477e-41
2.78 6.12 1.38 9.1477e-41
2.83 6.12 1.39 9.1477e-41
2.87 6.12 1.39 9.1477e-41
2.91 6.12 1.39 9.1477e-41
2.95 6.12 1.39 9.1477e-41
2.99 6.12 1.39 9.1477e-41
3.03 6.12 1.39 9.1477e-41
3.07 6.12 1.39 9.1477e-41
3.1 6.12 1.38 9.1477e-41
3.15 6.12 1.4 9.1477e-41
3.18 6.12 1.39 9.1477e-41
3.22 6.12 1.38 9.1477e-41
3.26 6.12 1.4 9.1477e-41
3.3 6.12 1.39 9.1477e-41
3.34 6.12 1.38 9.1477e-41
3.38 6.12 1.38 9.1477e-41
3.41 6.12 1.34 9.1477e-41
3.57 6.12 2.13 9.1477e-41
3.6 6.12 2.16 9.1477e-41
3.57 6.12 1.65 9.1477e-41
3.59 6.12 1.58 9.1477e-41
3.56 6.12 0.99 9.1477e-41
3.58 6.12 0.81 9.1477e-41
1.13 6.18 2.2 9.1477e-41
1.13 6.18 2.14 9.1477e-41
1.13 6.18 2.08 9.1477e-41
1.13 6.18 2.01 9.1477e-41
1.13 6.18 1.95 9.1477e-41
1.13 6.18 1.88 9.1477e-41
1.12 6.18 1.8 9.1477e-41
1.12 6.18 1.73 9.1477e-41
1.11 6.18 1.65 9.1477e-41
1.11 6.18 1.57 9.1477e-41
1.12 6.18 1.5 9.1477e-41
1.12 6.18 1.42 9.1477e-41
1.16 6.18 1.41 9.1477e-41
1.22 6.18 1.41 9.1477e-41
1.27 6.18 1.41 9.1477e-41
1.32 6.18 1.41 9.1477e-41
1.38 6.18 1.41 9.1477e-41
1.43 6.18 1.41 9.1477e-41
1.48 6.18 1.4 9.1477e-41
1.53 6.18 1.41 9.1477e-41
1.58 6.18 1.4 9.1477e-41
1.63 6.18 1.41 9.1477e-41
1.68 6.18 1.4 9.1477e-41
1.73 6.18 1.41 9.1477e-41
1.77 6.18 1.4 9.1477e-41
1.82 6.18 1.4 9.1477e-41
1.87 6.18 1.4 9.1477e-41
1.92 6.18 1.4 9.1477e-41
1.96 6.18 1.4 9.1477e-41
2.01 6.18 1.4 9.1477e-41
2.06 6.18 1.41 9.1477e-41
2.1 6.18 1.39 9.1477e-41
2.15 6.18 1.4 9.1477e-41
2.19 6.18 1.4 9.1477e-41
2.23 6.18 1.39 9.1477e-41
2.28 6.18 1.39 9.1477e-41
2.32 6.18 1.39 9.1477e-41
2.36 6.18 1.39 9.1477e-41
2.41 6.18 1.39 9.1477e-41
2.45 6.18 1.39 9.1477e-41
2.49 6.18 1.39 9.1477e-41
2.53 6.18 1.38 9.1477e-41
2.58 6.18 1.39 9.1477e-41
2.62 6.18 1.39 9.1477e-41
2.66 6.18 1.39 9.1477e-41
2.7 6.18 1.39 9.1477e-41
2.74 6.18 1.39 9.1477e-41
2.79 6.18 1.39 9.1477e-41
2.83 6.18 1.39 9.1477e-41
2.86 6.18 1.38 9.1477e-41
2.91 6.18 1.39 9.1477e-41
2.95 6.18 1.39 9.1477e-41
2.99 6.18 1.39 9.1477e-41
3.03 6.18 1.39 9.1477e-41
3.07 6.18 1.39 9.1477e-41
3.11 6.18 1.39 9.1477e-41
3.14 6.18 1.39 9.1477e-41
3.18 6.18 1.39 9.1477e-41
3.22 6.18 1.39 9.1477e-41
3.26 6.18 1.4 9.1477e-41
3.3 6.18 1.39 9.1477e-41
3.34 6.18 1.38 9.1477e-41
3.38 6.18 1.39 9.1477e-41
3.41 6.18 1.34 9.1477e-41
3.57 6.18 2.13 9.1477e-41
3.6 6.18 2.13 9.1477e-41
3.56 6.18 1.64 9.1477e-41
3.59 6.18 1.57 9.1477e-41
3.56 6.18 1 9.1477e-41
3.58 6.18 0.79 9.1477e-41
1.13 6.24 2.2 9.1477e-41
1.13 6.24 2.14 9.1477e-41
1.13 6.24 2.08 9.1477e-41
1.14 6.24 2.02 9.1477e-41
1.13 6.24 1.94 9.1477e-41
1.12 6.24 1.87 9.1477e-41
1.12 6.24 1.8 9.1477e-41
1.13 6.24 1.74 9.1477e-41
1.12 6.24 1.66 9.1477e-41
1.12 6.24 1.58 9.1477e-41
1.12 6.24 1.51 9.1477e-41
1.12 6.24 1.42 9.1477e-41
1.16 6.24 1.41 9.1477e-41
1.22 6.24 1.41 9.1477e-41
1.27 6.24 1.41 9.1477e-41
1.33 6.24 1.41 9.1477e-41
1.38 6.24 1.41 9.1477e-41
1.42 6.24 1.4 9.1477e-41
1.48 6.24 1.41 9.1477e-41
1.54 6.24 1.41 9.1477e-41
1.58 6.24 1.41 9.1477e-41
1.63 6.24 1.41 9.1477e-41
1.68 6.24 1.4 9.1477e-41
1.72 6.24 1.4 9.1477e-41
1.77 6.24 1.4 9.1477e-41
1.81 6.24 1.38 9.1477e-41
1.87 6.24 1.4 9.1477e-41
1.92 6.24 1.4 9.1477e-41
1.96 6.24 1.4 9.1477e-41
2 6.24 1.39 9.1477e-41
2.05 6.24 1.4 9.1477e-41
2.1 6.24 1.41 9.1477e-41
2.15 6.24 1.4 9.1477e-41
2.2 6.24 1.41 9.1477e-41
2.23 6.24 1.39 9.1477e-41
2.27 6.24 1.39 9.1477e-41
2.32 6.24 1.4 9.1477e-41
2.36 6.24 1.39 9.1477e-41
2.41 6.24 1.4 9.1477e-41
2.45 6.24 1.4 9.1477e-41
2.5 6.24 1.4 9.1477e-41
2.54 6.24 1.39 9.1477e-41
2.58 6.24 1.4 9.1477e-41
2.62 6.24 1.38 9.1477e-41
2.66 6.24 1.39 9.1477e-41
2.7 6.24 1.39 9.1477e-41
2.74 6.24 1.39 9.1477e-41
2.79 6.24 1.4 9.1477e-41
2.83 6.24 1.39 9.1477e-41
2.87 6.24 1.39 9.1477e-41
2.91 6.24 1.39 9.1477e-41
2.95 6.24 1.39 9.1477e-41
2.99 6.24 1.39 9.1477e-41
3.03 6.24 1.4 9.1477e-41
3.07 6.24 1.4 9.1477e-41
3.11 6.24 1.39 9.1477e-41
3.14 6.24 1.39 9.1477e-41
3.18 6.24 1.39 9.1477e-41
3.22 6.24 1.39 9.1477e-41
3.26 6.24 1.4 9.1477e-41
3.3 6.24 1.39 9.1477e-41
3.34 6.24 1.39 9.1477e-41
3.38 6.24 1.38 9.1477e-41
3.41 6.24 1.35 9.1477e-41
3.57 6.24 2.14 9.1477e-41
3.6 6.24 2.13 9.1477e-41
3.56 6.24 1.63 9.1477e-41
3.59 6.24 1.57 9.1477e-41
3.56 6.24 1.01 9.1477e-41
1.13 6.3 2.2 9.1477e-41
1.13 6.3 2.14 9.1477e-41
1.13 6.3 2.08 9.1477e-41
1.13 6.3 2.01 9.1477e-41
1.13 6.3 1.95 9.1477e-41
1.13 6.3 1.88 9.1477e-41
1.12 6.3 1.8 9.1477e-41
1.13 6.3 1.74 9.1477e-41
1.12 6.3 1.66 9.1477e-41
1.12 6.3 1.58 9.1477e-41
1.12 6.3 1.5 9.1477e-41
1.12 6.3 1.42 9.1477e-41
1.17 6.3 1.41 9.1477e-41
1.22 6.3 1.41 9.1477e-41
1.27 6.3 1.41 9.1477e-41
1.33 6.3 1.41 9.1477e-41
1.38 6.3 1.41 9.1477e-41
1.42 6.3 1.4 9.1477e-41
1.48 6.3 1.4 9.1477e-41
1.53 6.3 1.41 9.1477e-41
1.58 6.3 1.4 9.1477e-41
1.63 6.3 1.4 9.1477e-41
1.68 6.3 1.4 9.1477e-41
1.73 6.3 1.41 9.1477e-41
1.78 6.3 1.4 9.1477e-41
1.82 6.3 1.39 9.1477e-41
1.87 6.3 1.4 9.1477e-41
1.92 6.3 1.4 9.1477e-41
1.96 6.3 1.39 9.1477e-41
2.01 6.3 1.4 9.1477e-41
2.05 6.3 1.39 9.1477e-41
2.1 6.3 1.41 9.1477e-41
2.15 6.3 1.4 9.1477e-41
2.19 6.3 1.39 9.1477e-41
2.23 6.3 1.39 9.1477e-41
2.28 6.3 1.39 9.1477e-41
2.32 6.3 1.39 9.1477e-41
2.36 6.3 1.38 9.1477e-41
2.41 6.3 1.4 9.1477e-41
2.45 6.3 1.4 9.1477e-41
2.49 6.3 1.39 9.1477e-41
2.54 6.3 1.39 9.1477e-41
2.58 6.3 1.39 9.1477e-41
2.62 6.3 1.39 9.1477e-41
2.66 6.3 1.39 9.1477e-41
2.7 6.3 1.4 9.1477e-41
2.74 6.3 1.39 9.1477e-41
2.79 6.3 1.39 9.1477e-41
2.83 6.3 1.39 9.1477e-41
2.87 6.3 1.39 9.1477e-41
2.91 6.3 1.39 9.1477e-41
2.95 6.3 1.4 9.1477e-41
2.99 6.3 1.39 9.1477e-41
3.03 6.3 1.4 9.1477e-41
3.07 6.3 1.4 9.1477e-41
3.11 6.3 1.39 9.1477e-41
3.15 6.3 1.4 9.1477e-41
3.18 6.3 1.39 9.1477e-41
3.22 6.3 1.39 9.1477e-41
3.26 6.3 1.39 9.1477e-41
3.3 6.3 1.4 9.1477e-41
3.34 6.3 1.39 9.1477e-41
3.38 6.3 1.38 9.1477e-41
3.41 6.3 1.34 9.1477e-41
3.57 6.3 2.14 9.1477e-41
3.59 6.3 2.09 9.1477e-41
3.56 6.3 1.64 9.1477e-41
3.59 6.3 1.58 9.1477e-41
3.56 6.3 1.02 9.1477e-41
1.13 6.36 2.2 9.1477e-41
1.14 6.36 2.15 9.1477e-41
1.13 6.36 2.08 9.1477e-41
1.13 6.36 2.01 9.1477e-41
1.13 6.36 1.94 9.1477e-41
1.13 6.36 1.88 9.1477e-41
1.12 6.36 1.8 9.1477e-41
1.12 6.36 1.73 9.1477e-41
1.13 6.36 1.66 9.1477e-41
1.12 6.36 1.58 9.1477e-41
1.12 6.36 1.5 9.1477e-41
1.12 6.36 1.42 9.1477e-41
1.17 6.36 1.41 9.1477e-41
1.22 6.36 1.41 9.1477e-41
1.27 6.36 1.41 9.1477e-41
1.32 6.36 1.41 9.1477e-41
1.38 6.36 1.42 9.1477e-41
1.43 6.36 1.41 9.1477e-41
1.48 6.36 1.41 9.1477e-41
1.53 6.36 1.41 9.1477e-41
1.58 6.36 1.4 9.1477e-41
1.63 6.36 1.41 9.1477e-41
1.68 6.36 1.4 9.1477e-41
1.72 6.36 1.4 9.1477e-41
1.77 6.36 1.4 9.1477e-41
1.82 6.36 1.4 9.1477e-41
1.87 6.36 1.4 9.1477e-41
1.92 6.36 1.4 9.1477e-41
1.96 6.36 1.4 9.1477e-41
2 6.36 1.39 9.1477e-41
2.05 6.36 1.4 9.1477e-41
2.1 6.36 1.39 9.1477e-41
2.14 6.36 1.39 9.1477e-41
2.19 6.36 1.4 9.1477e-41
2.23 6.36 1.39 9.1477e-41
2.28 6.36 1.39 9.1477e-41
2.32 6.36 1.39 9.1477e-41
2.36 6.36 1.39 9.1477e-41
2.41 6.36 1.4 9.1477e-41
2.45 6.36 1.39 9.1477e-41
2.49 6.36 1.39 9.1477e-41
2.53 6.36 1.38 9.1477e-41
2.57 6.36 1.38 9.1477e-41
2.62 6.36 1.39 9.1477e-41
2.66 6.36 1.39 9.1477e-41
2.7 6.36 1.4 9.1477e-41
2.74 6.36 1.38 9.1477e-41
2.79 6.36 1.39 9.1477e-41
2.83 6.36 1.39 9.1477e-41
2.86 6.36 1.38 9.1477e-41
2.91 6.36 1.39 9.1477e-41
2.94 6.36 1.38 9.1477e-41
2.99 6.36 1.39 9.1477e-41
3.03 6.36 1.39 9.1477e-41
3.07 6.36 1.39 9.1477e-41
3.11 6.36 1.4 9.1477e-41
3.14 6.36 1.39 9.1477e-41
3.18 6.36 1.39 9.1477e-41
3.22 6.36 1.39 9.1477e-41
3.26 6.36 1.4 9.1477e-41
3.3 6.36 1.39 9.1477e-41
3.34 6.36 1.39 9.1477e-41
3.38 6.36 1.38 9.1477e-41
3.52 6.36 2.04 9.1477e-41
3.57 6.36 2.16 9.1477e-41
3.59 6.36 2.06 9.1477e-41
3.56 6.36 1.63 9.1477e-41
3.59 6.36 1.56 9.1477e-41
3.57 6.36 1.06 9.1477e-41
1.12 6.42 2.19 9.1477e-41
1.13 6.42 2.14 9.1477e-41
1.14 6.42 2.09 9.1477e-41
1.14 6.42 2.02 9.1477e-41
1.13 6.42 1.95 9.1477e-41
1.13 6.42 1.88 9.1477e-41
1.13 6.42 1.81 9.1477e-41
1.13 6.42 1.74 9.1477e-41
1.13 6.42 1.66 9.1477e-41
1.11 6.42 1.57 9.1477e-41
1.12 6.42 1.5 9.1477e-41
1.12 6.42 1.42 9.1477e-41
1.17 6.42 1.42 9.1477e-41
1.22 6.42 1.41 9.1477e-41
1.27 6.42 1.41 9.1477e-41
1.33 6.42 1.41 9.1477e-41
1.38 6.42 1.41 9.1477e-41
1.43 6.42 1.41 9.1477e-41
1.48 6.42 1.4 9.1477e-41
1.53 6.42 1.41 9.1477e-41
1.58 6.42 1.41 9.1477e-41
1.63 6.42 1.41 9.1477e-41
1.67 6.42 1.39 9.1477e-41
1.72 6.42 1.4 9.1477e-41
1.78 6.42 1.4 9.1477e-41
1.82 6.42 1.4 9.1477e-41
1.87 6.42 1.4 9.1477e-41
1.91 6.42 1.39 9.1477e-41
1.96 6.42 1.4 9.1477e-41
2.01 6.42 1.4 9.1477e-41
2.05 6.42 1.39 9.1477e-41
2.1 6.42 1.4 9.1477e-41
2.15 6.42 1.4 9.1477e-41
2.19 6.42 1.4 9.1477e-41
2.23 6.42 1.39 9.1477e-41
2.28 6.42 1.39 9.1477e-41
2.32 6.42 1.4 9.1477e-41
2.36 6.42 1.39 9.1477e-41
2.41 6.42 1.4 9.1477e-41
2.45 6.42 1.38 9.1477e-41
2.49 6.42 1.39 9.1477e-41
2.54 6.42 1.39 9.1477e-41
2.58 6.42 1.4 9.1477e-41
2.62 6.42 1.39 9.1477e-41
2.66 6.42 1.39 9.1477e-41
2.7 6.42 1.4 9.1477e-41
2.74 6.42 1.39 9.1477e-41
2.79 6.42 1.39 9.1477e-41
2.83 6.42 1.39 9.1477e-41
2.87 6.42 1.39 9.1477e-41
2.91 6.42 1.39 9.1477e-41
2.95 6.42 1.39 9.1477e-41
2.99 6.42 1.4 9.1477e-41
3.03 6.42 1.4 9.1477e-41
3.07 6.42 1.39 9.1477e-41
3.11 6.42 1.39 9.1477e-41
3.14 6.42 1.39 9.1477e-41
3.19 6.42 1.4 9.1477e-41
3.22 6.42 1.39 9.1477e-41
3.26 6.42 1.4 9.1477e-41
3.3 6.42 1.4 9.1477e-41
3.34 6.42 1.39 9.1477e-41
3.38 6.42 1.39 9.1477e-41
3.52 6.42 2.05 9.1477e-41
3.57 6.42 2.15 9.1477e-41
3.59 6.42 2.06 9.1477e-41
3.56 6.42 1.62 9.1477e-41
3.59 6.42 1.57 9.1477e-41
3.57 6.42 1.04 9.1477e-41
1.12 6.48 2.19 9.1477e-41
1.13 6.48 2.14 9.1477e-41
1.12 6.48 2.06 9.1477e-41
1.12 6.48 2.01 9.1477e-41
1.12 6.48 1.93 9.1477e-41
1.12 6.48 1.86 9.1477e-41
1.12 6.48 1.8 9.1477e-41
1.12 6.48 1.73 9.1477e-41
1.13 6.48 1.66 9.1477e-41
1.13 6.48 1.59 9.1477e-41
1.13 6.48 1.51 9.1477e-41
1.12 6.48 1.42 9.1477e-41
1.17 6.48 1.41 9.1477e-41
1.22 6.48 1.41 9.1477e-41
1.27 6.48 1.41 9.1477e-41
1.32 6.48 1.41 9.1477e-41
1.38 6.48 1.41 9.1477e-41
1.43 6.48 1.41 9.1477e-41
1.48 6.48 1.4 9.1477e-41
1.53 6.48 1.41 9.1477e-41
1.58 6.48 1.4 9.1477e-41
1.63 6.48 1.41 9.1477e-41
1.68 6.48 1.4 9.1477e-41
1.72 6.48 1.4 9.1477e-41
1.78 6.48 1.4 9.1477e-41
1.82 6.48 1.39 9.1477e-41
1.86 6.48 1.39 9.1477e-41
1.92 6.48 1.4 9.1477e-41
1.96 6.48 1.4 9.1477e-41
2.01 6.48 1.4 9.1477e-41
2.05 6.48 1.39 9.1477e-41
2.1 6.48 1.4 9.1477e-41
2.15 6.48 1.4 9.1477e-41
2.19 6.48 1.39 9.1477e-41
2.23 6.48 1.39 9.1477e-41
2.27 6.48 1.39 9.1477e-41
2.32 6.48 1.4 9.1477e-41
2.36 6.48 1.39 9.1477e-41
2.41 6.48 1.4 9.1477e-41
2.45 6.48 1.4 9.1477e-41
2.49 6.48 1.39 9.1477e-41
2.53 6.48 1.38 9.1477e-41
2.58 6.48 1.39 9.1477e-41
2.62 6.48 1.39 9.1477e-41
2.66 6.48 1.4 9.1477e-41
2.71 6.48 1.4 9.1477e-41
2.74 6.48 1.38 9.1477e-41
2.79 6.48 1.4 9.1477e-41
2.83 6.48 1.39 9.1477e-41
2.87 6.48 1.39 9.1477e-41
2.91 6.48 1.39 9.1477e-41
2.95 6.48 1.39 9.1477e-41
2.99 6.48 1.4 9.1477e-41
3.03 6.48 1.39 9.1477e-41
3.07 6.48 1.4 9.1477e-41
3.11 6.48 1.39 9.1477e-41
3.14 6.48 1.39 9.1477e-41
3.19 6.48 1.4 9.1477e-41
3.22 6.48 1.38 9.1477e-41
3.26 6.48 1.4 9.1477e-41
3.3 6.48 1.4 9.1477e-41
3.34 6.48 1.4 9.1477e-41
3.38 6.48 1.39 9.1477e-41
3.52 6.48 2.06 9.1477e-41
3.57 6.48 2.16 9.1477e-41
3.59 6.48 2.06 9.1477e-41
3.56 6.48 1.64 9.1477e-41
3.59 6.48 1.57 9.1477e-41
3.56 6.48 1.02 9.1477e-41
1.11 6.54 2.18 9.1477e-41
1.11 6.54 2.12 9.1477e-41
1.11 6.54 2.05 9.1477e-41
1.11 6.54 1.98 9.1477e-41
1.11 6.54 1.92 9.1477e-41
1.1 6.54 1.85 9.1477e-41
1.12 6.54 1.8 9.1477e-41
1.13 6.54 1.74 9.1477e-41
1.13 6.54 1.66 9.1477e-41
1.11 6.54 1.57 9.1477e-41
1.12 6.54 1.51 9.1477e-41
1.12 6.54 1.43 9.1477e-41
1.17 6.54 1.41 9.1477e-41
1.22 6.54 1.41 9.1477e-41
1.27 6.54 1.41 9.1477e-41
1.32 6.54 1.41 9.1477e-41
1.38 6.54 1.41 9.1477e-41
1.43 6.54 1.41 9.1477e-41
1.48 6.54 1.41 9.1477e-41
1.53 6.54 1.41 9.1477e-41
1.58 6.54 1.4 9.1477e-41
1.63 6.54 1.41 9.1477e-41
1.67 6.54 1.39 9.1477e-41
1.72 6.54 1.4 9.1477e-41
1.77 6.54 1.4 9.1477e-41
1.82 6.54 1.4 9.1477e-41
1.87 6.54 1.4 9.1477e-41
1.92 6.54 1.4 9.1477e-41
1.97 6.54 1.41 9.1477e-41
2.01 6.54 1.4 9.1477e-41
2.05 6.54 1.4 9.1477e-41
2.1 6.54 1.4 9.1477e-41
2.15 6.54 1.4 9.1477e-41
2.19 6.54 1.4 9.1477e-41
2.24 6.54 1.4 9.1477e-41
2.28 6.54 1.39 9.1477e-41
2.32 6.54 1.39 9.1477e-41
2.37 6.54 1.4 9.1477e-41
2.41 6.54 1.4 9.1477e-41
2.45 6.54 1.39 9.1477e-41
2.49 6.54 1.39 9.1477e-41
2.54 6.54 1.39 9.1477e-41
2.58 6.54 1.4 9.1477e-41
2.62 6.54 1.38 9.1477e-41
2.66 6.54 1.39 9.1477e-41
2.7 6.54 1.39 9.1477e-41
2.74 6.54 1.39 9.1477e-41
2.79 6.54 1.39 9.1477e-41
2.83 6.54 1.39 9.1477e-41
2.87 6.54 1.39 9.1477e-41
2.91 6.54 1.39 9.1477e-41
2.95 6.54 1.4 9.1477e-41
2.99 6.54 1.39 9.1477e-41
3.03 6.54 1.41 9.1477e-41
3.07 6.54 1.39 9.1477e-41
3.11 6.54 1.39 9.1477e-41
3.15 6.54 1.4 9.1477e-41
3.18 6.54 1.39 9.1477e-41
3.22 6.54 1.39 9.1477e-41
3.26 6.54 1.4 9.1477e-41
3.3 6.54 1.39 9.1477e-41
3.34 6.54 1.39 9.1477e-41
3.38 6.54 1.39 9.1477e-41
3.52 6.54 2.07 9.1477e-41
3.57 6.54 2.17 9.1477e-41
3.58 6.54 2.04 9.1477e-41
3.58 6.54 1.76 9.1477e-41
3.59 6.54 1.54 9.1477e-41
3.57 6.54 1.03 9.1477e-41
1.13 6.6 2.2 9.1477e-41
1.12 6.6 2.13 9.1477e-41
1.12 6.6 2.07 9.1477e-41
1.12 6.6 2 9.1477e-41
1.12 6.6 1.93 9.1477e-41
1.12 6.6 1.87 9.1477e-41
1.12 6.6 1.8 9.1477e-41
1.12 6.6 1.73 9.1477e-41
1.12 6.6 1.66 9.1477e-41
1.12 6.6 1.58 9.1477e-41
1.12 6.6 1.5 9.1477e-41
1.12 6.6 1.42 9.1477e-41
1.17 6.6 1.41 9.1477e-41
1.22 6.6 1.41 9.1477e-41
1.27 6.6 1.41 9.1477e-41
1.33 6.6 1.41 9.1477e-41
1.38 6.6 1.41 9.1477e-41
1.43 6.6 1.41 9.1477e-41
1.48 6.6 1.4 9.1477e-41
1.54 6.6 1.41 9.1477e-41
1.58 6.6 1.4 9.1477e-41
1.63 6.6 1.4 9.1477e-41
1.68 6.6 1.4 9.1477e-41
1.72 6.6 1.4 9.1477e-41
1.78 6.6 1.4 9.1477e-41
1.82 6.6 1.4 9.1477e-41
1.87 6.6 1.4 9.1477e-41
1.91 6.6 1.39 9.1477e-41
1.96 6.6 1.4 9.1477e-41
2.01 6.6 1.4 9.1477e-41
2.05 6.6 1.4 9.1477e-41
2.1 6.6 1.39 9.1477e-41
2.15 6.6 1.4 9.1477e-41
2.19 6.6 1.4 9.1477e-41
2.24 6.6 1.4 9.1477e-41
2.28 6.6 1.39 9.1477e-41
2.32 6.6 1.4 9.1477e-41
2.36 6.6 1.39 9.1477e-41
2.41 6.6 1.4 9.1477e-41
2.45 6.6 1.39 9.1477e-41
2.49 6.6 1.39 9.1477e-41
2.53 6.6 1.38 9.1477e-41
2.58 6.6 1.39 9.1477e-41
2.62 6.6 1.39 9.1477e-41
2.66 6.6 1.39 9.1477e-41
2.7 6.6 1.39 9.1477e-41
2.74 6.6 1.39 9.1477e-41
2.79 6.6 1.39 9.1477e-41
2.83 6.6 1.39 9.1477e-41
2.87 6.6 1.39 9.1477e-41
2.91 6.6 1.4 9.1477e-41
2.95 6.6 1.39 9.1477e-41
2.99 6.6 1.4 9.1477e-41
3.03 6.6 1.4 9.1477e-41
3.07 6.6 1.39 9.1477e-41
3.11 6.6 1.4 9.1477e-41
3.15 6.6 1.4 9.1477e-41
3.18 6.6 1.39 9.1477e-41
3.22 6.6 1.39 9.1477e-41
3.26 6.6 1.4 9.1477e-41
3.3 6.6 1.4 9.1477e-41
3.34 6.6 1.4 9.1477e-41
3.38 6.6 1.39 9.1477e-41
3.42 6.6 1.4 9.1477e-41
3.45 6.6 1.33 9.1477e-41
3.58 6.6 2.03 9.1477e-41
3.58 6.6 1.78 9.1477e-41
3.58 6.6 1.49 9.1477e-41
3.58 6.6 1.15 9.1477e-41
3.58 6.6 0.77 9.1477e-41
1.11 6.66 2.18 9.1477e-41
1.11 6.66 2.12 9.1477e-41
1.11 6.66 2.06 9.1477e-41
1.11 6.66 1.98 9.1477e-41
1.11 6.66 1.92 9.1477e-41
1.11 6.66 1.85 9.1477e-41
1.11 6.66 1.79 9.1477e-41
1.11 6.66 1.71 9.1477e-41
1.1 6.66 1.63 9.1477e-41
1.11 6.66 1.57 9.1477e-41
1.11 6.66 1.49 9.1477e-41
1.11 6.66 1.42 9.1477e-41
1.17 6.66 1.41 9.1477e-41
1.22 6.66 1.41 9.1477e-41
1.27 6.66 1.41 9.1477e-41
1.33 6.66 1.41 9.1477e-41
1.38 6.66 1.41 9.1477e-41
1.43 6.66 1.41 9.1477e-41
1.48 6.66 1.41 9.1477e-41
1.53 6.66 1.41 9.1477e-41
1.58 6.66 1.4 9.1477e-41
1.63 6.66 1.4 9.1477e-41
1.68 6.66 1.41 9.1477e-41
1.72 6.66 1.4 9.1477e-41
1.77 6.66 1.4 9.1477e-41
1.82 6.66 1.4 9.1477e-41
1.87 6.66 1.4 9.1477e-41
1.92 6.66 1.4 9.1477e-41
1.97 6.66 1.41 9.1477e-41
2.01 6.66 1.4 9.1477e-41
2.05 6.66 1.4 9.1477e-41
2.1 6.66 1.4 9.1477e-41
2.14 6.66 1.39 9.1477e-41
2.19 6.66 1.39 9.1477e-41
2.23 6.66 1.39 9.1477e-41
2.27 6.66 1.39 9.1477e-41
2.32 6.66 1.39 9.1477e-41
2.36 6.66 1.39 9.1477e-41
2.41 6.66 1.4 9.1477e-41
2.45 6.66 1.39 9.1477e-41
2.49 6.66 1.39 9.1477e-41
2.54 6.66 1.39 9.1477e-41
2.58 6.66 1.39 9.1477e-41
2.62 6.66 1.39 9.1477e-41
2.66 6.66 1.39 9.1477e-41
2.7 6.66 1.39 9.1477e-41
2.74 6.66 1.39 9.1477e-41
2.79 6.66 1.39 9.1477e-41
2.83 6.66 1.39 9.1477e-41
2.87 6.66 1.39 9.1477e-41
2.91 6.66 1.4 9.1477e-41
2.95 6.66 1.4 9.1477e-41
2.99 6.66 1.4 9.1477e-41
3.03 6.66 1.4 9.1477e-41
3.07 6.66 1.39 9.1477e-41
3.11 6.66 1.39 9.1477e-41
3.15 6.66 1.4 9.1477e-41
3.19 6.66 1.4 9.1477e-41
3.22 6.66 1.39 9.1477e-41
3.26 6.66 1.4 9.1477e-41
3.3 6.66 1.41 9.1477e-41
3.34 6.66 1.4 9.1477e-41
3.38 6.66 1.38 9.1477e-41
3.42 6.66 1.4 9.1477e-41
3.45 6.66 1.33 9.1477e-41
3.58 6.66 2.03 9.1477e-41
3.58 6.66 1.78 9.1477e-41
3.58 6.66 1.49 9.1477e-41
3.57 6.66 1.1 9.1477e-41
3.58 6.66 0.79 9.1477e-41
1.11 6.72 2.18 9.1477e-41
1.11 6.72 2.12 9.1477e-41
1.11 6.72 2.05 9.1477e-41
1.11 6.72 1.99 9.1477e-41
1.11 6.72 1.92 9.1477e-41
1.11 6.72 1.85 9.1477e-41
1.11 6.72 1.78 9.1477e-41
1.11 6.72 1.71 9.1477e-41
1.1 6.72 1.63 9.1477e-41
1.1 6.72 1.56 9.1477e-41
1.11 6.72 1.49 9.1477e-41
1.11 6.72 1.42 9.1477e-41
1.17 6.72 1.41 9.1477e-41
1.22 6.72 1.41 9.1477e-41
1.27 6.72 1.41 9.1477e-41
1.33 6.72 1.41 9.1477e-41
1.38 6.72 1.42 9.1477e-41
1.43 6.72 1.41 9.1477e-41
1.49 6.72 1.42 9.1477e-41
1.53 6.72 1.41 9.1477e-41
1.58 6.72 1.41 9.1477e-41
1.63 6.72 1.41 9.1477e-41
1.68 6.72 1.4 9.1477e-41
1.72 6.72 1.4 9.1477e-41
1.77 6.72 1.4 9.1477e-41
1.82 6.72 1.4 9.1477e-41
1.87 6.72 1.4 9.1477e-41
1.92 6.72 1.4 9.1477e-41
1.97 6.72 1.41 9.1477e-41
2.01 6.72 1.41 9.1477e-41
2.05 6.72 1.4 9.1477e-41
2.1 6.72 1.4 9.1477e-41
2.15 6.72 1.4 9.1477e-41
2.19 6.72 1.4 9.1477e-41
2.23 6.72 1.39 9.1477e-41
2.28 6.72 1.39 9.1477e-41
2.32 6.72 1.4 9.1477e-41
2.37 6.72 1.4 9.1477e-41
2.41 6.72 1.39 9.1477e-41
2.45 6.72 1.39 9.1477e-41
2.49 6.72 1.39 9.1477e-41
2.54 6.72 1.39 9.1477e-41
2.58 6.72 1.4 9.1477e-41
2.62 6.72 1.4 9.1477e-41
2.66 6.72 1.39 9.1477e-41
2.7 6.72 1.4 9.1477e-41
2.74 6.72 1.39 9.1477e-41
2.79 6.72 1.39 9.1477e-41
2.83 6.72 1.4 9.1477e-41
2.87 6.72 1.4 9.1477e-41
2.91 6.72 1.4 9.1477e-41
2.95 6.72 1.4 9.1477e-41
2.99 6.72 1.4 9.1477e-41
3.03 6.72 1.4 9.1477e-41
3.07 6.72 1.4 9.1477e-41
3.11 6.72 1.4 9.1477e-41
3.14 6.72 1.39 9.1477e-41
3.19 6.72 1.4 9.1477e-41
3.22 6.72 1.39 9.1477e-41
3.26 6.72 1.4 9.1477e-41
3.3 6.72 1.4 9.1477e-41
3.34 6.72 1.39 9.1477e-41
3.38 6.72 1.39 9.1477e-41
3.52 6.72 2.07 9.1477e-41
3.57 6.72 2.07 3.57e-43
3.58 6.72 2.03 9.1477e-41
3.58 6.72 1.78 9.1477e-41
3.59 6.72 1.57 9.1477e-41
3.55 6.72 0.9 9.1477e-41
3.58 6.72 0.9 3.57e-43
1.11 6.78 2.18 9.1477e-41
1.11 6.78 2.12 9.1477e-41
1.11 6.78 2.06 9.1477e-41
1.11 6.78 1.98 9.1477e-41
1.11 6.78 1.93 9.1477e-41
1.11 6.78 1.85 9.1477e-41
1.11 6.78 1.79 9.1477e-41
1.1 6.78 1.71 9.1477e-41
1.1 6.78 1.63 9.1477e-41
1.1 6.78 1.56 9.1477e-41
1.11 6.78 1.49 9.1477e-41
1.11 6.78 1.42 9.1477e-41
1.16 6.78 1.41 9.1477e-41
1.22 6.78 1.41 9.1477e-41
1.27 6.78 1.41 9.1477e-41
1.32 6.78 1.41 9.1477e-41
1.38 6.78 1.42 9.1477e-41
1.43 6.78 1.41 9.1477e-41
1.48 6.78 1.4 9.1477e-41
1.53 6.78 1.41 9.1477e-41
1.58 6.78 1.4 9.1477e-41
1.63 6.78 1.41 9.1477e-41
1.68 6.78 1.4 9.1477e-41
1.73 6.78 1.41 9.1477e-41
1.77 6.78 1.4 9.1477e-41
1.82 6.78 1.4 9.1477e-41
1.87 6.78 1.4 9.1477e-41
1.92 6.78 1.4 9.1477e-41
1.96 6.78 1.4 9.1477e-41
2.01 6.78 1.4 9.1477e-41
2.05 6.78 1.4 9.1477e-41
2.1 6.78 1.4 9.1477e-41
2.15 6.78 1.4 9.1477e-41
2.19 6.78 1.39 9.1477e-41
2.24 6.78 1.4 9.1477e-41
2.28 6.78 1.4 9.1477e-41
2.32 6.78 1.4 9.1477e-41
2.37 6.78 1.4 9.1477e-41
2.41 6.78 1.4 9.1477e-41
2.45 6.78 1.38 9.1477e-41
2.49 6.78 1.39 9.1477e-41
2.54 6.78 1.4 9.1477e-41
2.58 6.78 1.4 9.1477e-41
2.62 6.78 1.39 9.1477e-41
2.66 6.78 1.39 9.1477e-41
2.7 6.78 1.39 9.1477e-41
2.74 6.78 1.39 9.1477e-41
2.79 6.78 1.39 9.1477e-41
2.83 6.78 1.39 9.1477e-41
2.87 6.78 1.39 9.1477e-41
2.91 6.78 1.4 9.1477e-41
2.95 6.78 1.39 9.1477e-41
2.99 6.78 1.4 9.1477e-41
3.03 6.78 1.4 9.1477e-41
3.07 6.78 1.41 9.1477e-41
3.11 6.78 1.4 9.1477e-41
3.15 6.78 1.4 9.1477e-41
3.19 6.78 1.4 9.1477e-41
3.22 6.78 1.38 9.1477e-41
3.26 6.78 1.4 9.1477e-41
3.3 6.78 1.4 9.1477e-41
3.34 6.78 1.39 9.1477e-41
3.38 6.78 1.39 9.1477e-41
3.52 6.78 2.06 9.1477e-41
3.57 6.78 2.18 9.1477e-41
3.58 6.78 1.98 9.1477e-41
3.57 6.78 1.65 9.1477e-41
3.59 6.78 1.58 9.1477e-41
3.54 6.78 0.83 9.1477e-41
3.57 6.78 0.71 9.1477e-41
1.11 6.84 2.18 9.1477e-41
1.11 6.84 2.12 9.1477e-41
1.11 6.84 2.06 9.1477e-41
1.11 6.84 1.99 9.1477e-41
1.11 6.84 1.93 9.1477e-41
1.11 6.84 1.85 9.1477e-41
1.11 6.84 1.79 9.1477e-41
1.11 6.84 1.71 9.1477e-41
1.11 6.84 1.64 9.1477e-41
1.11 6.84 1.57 9.1477e-41
1.11 6.84 1.49 9.1477e-41
1.11 6.84 1.42 9.1477e-41
1.16 6.84 1.41 9.1477e-41
1.22 6.84 1.41 9.1477e-41
1.27 6.84 1.41 9.1477e-41
1.32 6.84 1.41 9.1477e-41
1.38 6.84 1.41 9.1477e-41
1.43 6.84 1.41 9.1477e-41
1.48 6.84 1.41 9.1477e-41
1.53 6.84 1.41 9.1477e-41
1.58 6.84 1.4 9.1477e-41
1.63 6.84 1.4 9.1477e-41
1.68 6.84 1.41 9.1477e-41
1.73 6.84 1.41 9.1477e-41
1.77 6.84 1.4 9.1477e-41
1.82 6.84 1.4 9.1477e-41
1.87 6.84 1.4 9.1477e-41
1.92 6.84 1.41 9.1477e-41
1.96 6.84 1.4 9.1477e-41
2.01 6.84 1.4 9.1477e-41
2.05 6.84 1.4 9.1477e-41
2.1 6.84 1.4 9.1477e-41
2.14 6.84 1.39 9.1477e-41
2.19 6.84 1.39 9.1477e-41
2.23 6.84 1.38 9.1477e-41
2.28 6.84 1.4 9.1477e-41
2.32 6.84 1.38 9.1477e-41
2.36 6.84 1.39 9.1477e-41
2.41 6.84 1.4 9.1477e-41
2.45 6.84 1.39 9.1477e-41
2.49 6.84 1.39 9.1477e-41
2.54 6.84 1.4 9.1477e-41
2.58 6.84 1.4 9.1477e-41
2.62 6.84 1.39 9.1477e-41
2.66 6.84 1.39 9.1477e-41
2.7 6.84 1.4 9.1477e-41
2.74 6.84 1.38 9.1477e-41
2.79 6.84 1.39 9.1477e-41
2.83 6.84 1.39 9.1477e-41
2.87 6.84 1.4 9.1477e-41
2.91 6.84 1.39 9.1477e-41
2.95 6.84 1.4 9.1477e-41
2.99 6.84 1.4 9.1477e-41
3.03 6.84 1.4 9.1477e-41
3.07 6.84 1.39 9.1477e-41
3.11 6.84 1.4 9.1477e-41
3.15 6.84 1.4 9.1477e-41
3.18 6.84 1.39 9.1477e-41
3.23 6.84 1.4 9.1477e-41
3.26 6.84 1.4 9.1477e-41
3.3 6.84 1.4 9.1477e-41
3.34 6.84 1.4 9.1477e-41
3.38 6.84 1.39 9.1477e-41
3.52 6.84 2.06 9.1477e-41
3.57 6.84 2.17 9.1477e-41
3.58 6.84 2.03 9.1477e-41
3.57 6.84 1.67 9.1477e-41
3.59 6.84 1.59 9.1477e-41
3.53 6.84 0.74 9.1477e-41
3.56 6.84 0.57 9.1477e-41
1.11 6.9 2.18 9.1477e-41
1.11 6.9 2.12 9.1477e-41
1.11 6.9 2.06 9.1477e-41
1.11 6.9 1.99 9.1477e-41
1.11 6.9 1.93 9.1477e-41
1.11 6.9 1.85 9.1477e-41
1.11 6.9 1.79 9.1477e-41
1.11 6.9 1.71 9.1477e-41
1.1 6.9 1.63 9.1477e-41
1.11 6.9 1.57 9.1477e-41
1.1 6.9 1.48 9.1477e-41
1.11 6.9 1.42 9.1477e-41
1.17 6.9 1.42 9.1477e-41
1.22 6.9 1.41 9.1477e-41
1.27 6.9 1.41 9.1477e-41
1.32 6.9 1.41 9.1477e-41
1.38 6.9 1.41 9.1477e-41
1.43 6.9 1.41 9.1477e-41
1.48 6.9 1.41 9.1477e-41
1.54 6.9 1.41 9.1477e-41
1.58 6.9 1.41 9.1477e-41
1.63 6.9 1.4 9.1477e-41
1.68 6.9 1.41 9.1477e-41
1.72 6.9 1.4 9.1477e-41
1.78 6.9 1.4 9.1477e-41
1.82 6.9 1.39 9.1477e-41
1.87 6.9 1.4 9.1477e-41
1.92 6.9 1.4 9.1477e-41
1.96 6.9 1.4 9.1477e-41
2.01 6.9 1.41 9.1477e-41
2.05 6.9 1.39 9.1477e-41
2.1 6.9 1.41 9.1477e-41
2.14 6.9 1.39 9.1477e-41
2.19 6.9 1.4 9.1477e-41
2.23 6.9 1.39 9.1477e-41
2.27 6.9 1.39 9.1477e-41
2.32 6.9 1.39 9.1477e-41
2.36 6.9 1.39 9.1477e-41
2.41 6.9 1.4 9.1477e-41
2.45 6.9 1.39 9.1477e-41
2.49 6.9 1.39 9.1477e-41
2.54 6.9 1.39 9.1477e-41
2.58 6.9 1.4 9.1477e-41
2.62 6.9 1.38 9.1477e-41
2.66 6.9 1.4 9.1477e-41
2.7 6.9 1.39 9.1477e-41
2.74 6.9 1.39 9.1477e-41
2.79 6.9 1.4 9.1477e-41
2.83 6.9 1.39 9.1477e-41
2.87 6.9 1.4 9.1477e-41
2.91 6.9 1.4 9.1477e-41
2.95 6.9 1.4 9.1477e-41
2.99 6.9 1.41 9.1477e-41
3.03 6.9 1.4 9.1477e-41
3.07 6.9 1.4 9.1477e-41
3.11 6.9 1.4 9.1477e-41
3.15 6.9 1.4 9.1477e-41
3.19 6.9 1.4 9.1477e-41
3.22 6.9 1.38 9.1477e-41
3.26 6.9 1.4 9.1477e-41
3.3 6.9 1.4 9.1477e-41
3.34 6.9 1.4 9.1477e-41
3.38 6.9 1.4 9.1477e-41
3.52 6.9 2.07 9.1477e-41
3.57 6.9 2.18 9.1477e-41
3.58 6.9 1.98 9.1477e-41
3.57 6.9 1.68 9.1477e-41
3.59 6.9 1.57 9.1477e-41
1.11 6.96 2.18 9.1477e-41
1.11 6.96 2.12 9.1477e-41
1.11 6.96 2.06 9.1477e-41
1.11 6.96 1.99 9.1477e-41
1.11 6.96 1.92 9.1477e-41
1.11 6.96 1.85 9.1477e-41
1.11 6.96 1.78 9.1477e-41
1.11 6.96 1.71 9.1477e-41
1.1 6.96 1.63 9.1477e-41
1.1 6.96 1.56 9.1477e-41
1.1 6.96 1.48 9.1477e-41
1.11 6.96 1.42 9.1477e-41
1.16 6.96 1.41 9.1477e-41
1.22 6.96 1.41 9.1477e-41
1.27 6.96 1.41 9.1477e-41
1.33 6.96 1.41 9.1477e-41
1.38 6.96 1.41 9.1477e-41
1.42 6.96 1.4 9.1477e-41
1.48 6.96 1.41 9.1477e-41
1.53 6.96 1.41 9.1477e-41
1.58 6.96 1.4 9.1477e-41
1.63 6.96 1.41 9.1477e-41
1.68 6.96 1.4 9.1477e-41
1.73 6.96 1.41 9.1477e-41
1.77 6.96 1.4 9.1477e-41
1.83 6.96 1.41 9.1477e-41
1.87 6.96 1.4 9.1477e-41
1.92 6.96 1.41 9.1477e-41
1.97 6.96 1.41 9.1477e-41
2.01 6.96 1.4 9.1477e-41
2.05 6.96 1.4 9.1477e-41
2.1 6.96 1.4 9.1477e-41
2.15 6.96 1.4 9.1477e-41
2.19 6.96 1.4 9.1477e-41
2.24 6.96 1.4 9.1477e-41
2.27 6.96 1.39 9.1477e-41
2.32 6.96 1.4 9.1477e-41
2.36 6.96 1.39 9.1477e-41
2.41 6.96 1.4 9.1477e-41
2.45 6.96 1.39 9.1477e-41
2.5 6.96 1.4 9.1477e-41
2.54 6.96 1.4 9.1477e-41
2.58 6.96 1.39 9.1477e-41
2.62 6.96 1.39 9.1477e-41
2.66 6.96 1.4 9.1477e-41
2.7 6.96 1.4 9.1477e-41
2.74 6.96 1.39 9.1477e-41
2.79 6.96 1.4 9.1477e-41
2.83 6.96 1.39 9.1477e-41
2.87 6.96 1.4 9.1477e-41
2.91 6.96 1.4 9.1477e-41
2.95 6.96 1.4 9.1477e-41
2.99 6.96 1.4 9.1477e-41
3.03 6.96 1.4 9.1477e-41
3.07 6.96 1.4 9.1477e-41
3.11 6.96 1.39 9.1477e-41
3.15 6.96 1.41 9.1477e-41
3.19 6.96 1.4 9.1477e-41
3.23 6.96 1.4 9.1477e-41
3.26 6.96 1.4 9.1477e-41
3.3 6.96 1.4 9.1477e-41
3.34 6.96 1.4 9.1477e-41
3.38 6.96 1.4 9.1477e-41
3.53 6.96 2.1 9.1477e-41
3.57 6.96 2.18 9.1477e-41
3.57 6.96 1.97 9.1477e-41
3.57 6.96 1.69 9.1477e-41
3.59 6.96 1.58 9.1477e-41
1.11 7.02 2.18 9.1477e-41
1.11 7.02 2.12 9.1477e-41
1.11 7.02 2.06 9.1477e-41
1.11 7.02 1.99 9.1477e-41
1.11 7.02 1.93 9.1477e-41
1.11 7.02 1.85 9.1477e-41
1.11 7.02 1.78 9.1477e-41
1.1 7.02 1.71 9.1477e-41
1.1 7.02 1.63 9.1477e-41
1.1 7.02 1.56 9.1477e-41
1.1 7.02 1.48 9.1477e-41
1.11 7.02 1.42 9.1477e-41
1.17 7.02 1.41 9.1477e-41
1.22 7.02 1.41 9.1477e-41
1.27 7.02 1.41 9.1477e-41
1.32 7.02 1.41 9.1477e-41
1.38 7.02 1.41 9.1477e-41
1.43 7.02 1.42 9.1477e-41
1.48 7.02 1.4 9.1477e-41
1.53 7.02 1.41 9.1477e-41
1.58 7.02 1.4 9.1477e-41
1.63 7.02 1.41 9.1477e-41
1.68 7.02 1.4 9.1477e-41
1.72 7.02 1.4 9.1477e-41
1.78 7.02 1.4 9.1477e-41
1.82 7.02 1.4 9.1477e-41
1.87 7.02 1.4 9.1477e-41
1.92 7.02 1.41 9.1477e-41
1.97 7.02 1.41 9.1477e-41
2.01 7.02 1.41 9.1477e-41
2.05 7.02 1.4 9.1477e-41
2.1 7.02 1.41 9.1477e-41
2.15 7.02 1.4 9.1477e-41
2.19 7.02 1.4 9.1477e-41
2.23 7.02 1.39 9.1477e-41
2.28 7.02 1.39 9.1477e-41
2.32 7.02 1.4 9.1477e-41
2.37 7.02 1.4 9.1477e-41
2.41 7.02 1.4 9.1477e-41
2.45 7.02 1.4 9.1477e-41
2.49 7.02 1.39 9.1477e-41
2.54 7.02 1.4 9.1477e-41
2.58 7.02 1.4 9.1477e-41
2.62 7.02 1.39 9.1477e-41
2.66 7.02 1.4 9.1477e-41
2.7 7.02 1.4 9.1477e-41
2.75 7.02 1.4 9.1477e-41
2.79 7.02 1.39 9.1477e-41
2.83 7.02 1.4 9.1477e-41
2.87 7.02 1.4 9.1477e-41
2.91 7.02 1.4 9.1477e-41
2.95 7.02 1.4 9.1477e-41
2.99 7.02 1.4 9.1477e-41
3.03 7.02 1.41 9.1477e-41
3.07 7.02 1.4 9.1477e-41
3.11 7.02 1.41 9.1477e-41
3.15 7.02 1.41 9.1477e-41
3.19 7.02 1.4 9.1477e-41
3.22 7.02 1.39 9.1477e-41
3.26 7.02 1.4 9.1477e-41
3.3 7.02 1.4 9.1477e-41
3.34 7.02 1.4 9.1477e-41
3.38 7.02 1.41 9.1477e-41
3.53 7.02 2.1 9.1477e-41
3.57 7.02 2.19 9.1477e-41
3.57 7.02 1.97 9.1477e-41
3.57 7.02 1.69 9.1477e-41
3.59 7.02 1.57 9.1477e-41
1.11 7.08 2.18 9.1477e-41
1.11 7.08 2.12 9.1477e-41
1.11 7.08 2.06 9.1477e-41
1.11 7.08 1.99 9.1477e-41
1.11 7.08 1.93 9.1477e-41
1.12 7.08 1.86 9.1477e-41
1.11 7.08 1.79 9.1477e-41
1.11 7.08 1.71 9.1477e-41
1.1 7.08 1.62 9.1477e-41
1.1 7.08 1.56 9.1477e-41
1.11 7.08 1.49 9.1477e-41
1.12 7.08 1.42 9.1477e-41
1.17 7.08 1.41 9.1477e-41
1.22 7.08 1.41 9.1477e-41
1.26 7.08 1.4 9.1477e-41
1.33 7.08 1.41 9.1477e-41
1.38 7.08 1.42 9.1477e-41
1.43 7.08 1.41 9.1477e-41
1.48 7.08 1.41 9.1477e-41
1.53 7.08 1.41 9.1477e-41
1.58 7.08 1.4 9.1477e-41
1.63 7.08 1.41 9.1477e-41
1.68 7.08 1.41 9.1477e-41
1.72 7.08 1.39 9.1477e-41
1.78 7.08 1.4 9.1477e-41
1.82 7.08 1.4 9.1477e-41
1.87 7.08 1.4 9.1477e-41
1.92 7.08 1.4 9.1477e-41
1.97 7.08 1.41 9.1477e-41
2.01 7.08 1.4 9.1477e-41
2.05 7.08 1.4 9.1477e-41
2.1 7.08 1.39 9.1477e-41
2.15 7.08 1.41 9.1477e-41
2.19 7.08 1.39 9.1477e-41
2.23 7.08 1.39 9.1477e-41
2.28 7.08 1.4 9.1477e-41
2.32 7.08 1.39 9.1477e-41
2.36 7.08 1.39 9.1477e-41
2.41 7.08 1.4 9.1477e-41
2.45 7.08 1.4 9.1477e-41
2.49 7.08 1.39 9.1477e-41
2.54 7.08 1.4 9.1477e-41
2.58 7.08 1.4 9.1477e-41
2.62 7.08 1.4 9.1477e-41
2.66 7.08 1.4 9.1477e-41
2.7 7.08 1.4 9.1477e-41
2.75 7.08 1.4 9.1477e-41
2.79 7.08 1.4 9.1477e-41
2.83 7.08 1.4 9.1477e-41
2.87 7.08 1.4 9.1477e-41
2.91 7.08 1.4 9.1477e-41
2.95 7.08 1.4 9.1477e-41
2.99 7.08 1.4 9.1477e-41
3.03 7.08 1.41 9.1477e-41
3.07 7.08 1.4 9.1477e-41
3.11 7.08 1.41 9.1477e-41
3.15 7.08 1.4 9.1477e-41
3.19 7.08 1.4 9.1477e-41
3.23 7.08 1.4 9.1477e-41
3.26 7.08 1.4 9.1477e-41
3.3 7.08 1.4 9.1477e-41
3.34 7.08 1.4 9.1477e-41
3.38 7.08 1.4 9.1477e-41
3.53 7.08 2.1 9.1477e-41
3.57 7.08 2.18 9.1477e-41
3.57 7.08 1.96 9.1477e-41
3.57 7.08 1.69 9.1477e-41
3.59 7.08 1.57 9.1477e-41
1.11 7.14 2.18 9.1477e-41
1.11 7.14 2.11 9.1477e-41
1.11 7.14 2.06 9.1477e-41
1.11 7.14 1.99 9.1477e-41
1.11 7.14 1.93 9.1477e-41
1.12 7.14 1.86 9.1477e-41
1.11 7.14 1.78 9.1477e-41
1.1 7.14 1.71 9.1477e-41
1.1 7.14 1.63 9.1477e-41
1.1 7.14 1.56 9.1477e-41
1.11 7.14 1.49 9.1477e-41
1.11 7.14 1.42 9.1477e-41
1.17 7.14 1.41 9.1477e-41
1.22 7.14 1.41 9.1477e-41
1.27 7.14 1.41 9.1477e-41
1.32 7.14 1.41 9.1477e-41
1.38 7.14 1.42 9.1477e-41
1.43 7.14 1.41 9.1477e-41
1.47 7.14 1.39 9.1477e-41
1.53 7.14 1.41 9.1477e-41
1.58 7.14 1.41 9.1477e-41
1.63 7.14 1.41 9.1477e-41
1.68 7.14 1.4 9.1477e-41
1.72 7.14 1.4 9.1477e-41
1.78 7.14 1.4 9.1477e-41
1.82 7.14 1.4 9.1477e-41
1.87 7.14 1.41 9.1477e-41
1.92 7.14 1.41 9.1477e-41
1.96 7.14 1.4 9.1477e-41
2.01 7.14 1.41 9.1477e-41
2.05 7.14 1.4 9.1477e-41
2.1 7.14 1.4 9.1477e-41
2.15 7.14 1.4 9.1477e-41
2.19 7.14 1.4 9.1477e-41
2.23 7.14 1.39 9.1477e-41
2.28 7.14 1.39 9.1477e-41
2.33 7.14 1.41 9.1477e-41
2.37 7.14 1.4 9.1477e-41
2.41 7.14 1.4 9.1477e-41
2.45 7.14 1.4 9.1477e-41
2.49 7.14 1.39 9.1477e-41
2.54 7.14 1.41 9.1477e-41
2.58 7.14 1.4 9.1477e-41
2.62 7.14 1.4 9.1477e-41
2.66 7.14 1.4 9.1477e-41
2.7 7.14 1.4 9.1477e-41
2.74 7.14 1.39 9.1477e-41
2.79 7.14 1.4 9.1477e-41
2.83 7.14 1.4 9.1477e-41
2.87 7.14 1.4 9.1477e-41
2.91 7.14 1.4 9.1477e-41
2.95 7.14 1.41 9.1477e-41
2.99 7.14 1.4 9.1477e-41
3.03 7.14 1.4 9.1477e-41
3.07 7.14 1.4 9.1477e-41
3.11 7.14 1.41 9.1477e-41
3.15 7.14 1.41 9.1477e-41
3.18 7.14 1.39 9.1477e-41
3.23 7.14 1.4 9.1477e-41
3.26 7.14 1.4 9.1477e-41
3.3 7.14 1.41 9.1477e-41
3.34 7.14 1.39 9.1477e-41
3.38 7.14 1.4 9.1477e-41
3.53 7.14 2.11 9.1477e-41
3.57 7.14 2.19 9.1477e-41
3.57 7.14 1.96 9.1477e-41
3.57 7.14 1.67 9.1477e-41
1.11 7.2 2.18 9.1477e-41
1.12 7.2 2.13 9.1477e-41
1.12 7.2 2.06 9.1477e-41
1.11 7.2 1.99 9.1477e-41
1.11 7.2 1.93 9.1477e-41
1.11 7.2 1.85 9.1477e-41
1.11 7.2 1.79 9.1477e-41
1.1 7.2 1.71 9.1477e-41
1.1 7.2 1.63 9.1477e-41
1.1 7.2 1.56 9.1477e-41
1.1 7.2 1.48 9.1477e-41
1.12 7.2 1.42 9.1477e-41
1.17 7.2 1.41 9.1477e-41
1.22 7.2 1.41 9.1477e-41
1.27 7.2 1.41 9.1477e-41
1.33 7.2 1.41 9.1477e-41
1.38 7.2 1.41 9.1477e-41
1.43 7.2 1.41 9.1477e-41
1.48 7.2 1.4 9.1477e-41
1.52 7.2 1.4 9.1477e-41
1.58 7.2 1.41 9.1477e-41
1.63 7.2 1.4 9.1477e-41
1.68 7.2 1.41 9.1477e-41
1.73 7.2 1.41 9.1477e-41
1.78 7.2 1.41 9.1477e-41
1.82 7.2 1.4 9.1477e-41
1.87 7.2 1.41 9.1477e-41
1.92 7.2 1.4 9.1477e-41
1.97 7.2 1.41 9.1477e-41
2.01 7.2 1.41 9.1477e-41
2.05 7.2 1.4 9.1477e-41
2.1 7.2 1.41 9.1477e-41
2.15 7.2 1.4 9.1477e-41
2.2 7.2 1.41 9.1477e-41
2.24 7.2 1.4 9.1477e-41
2.28 7.2 1.4 9.1477e-41
2.33 7.2 1.41 9.1477e-41
2.37 7.2 1.4 9.1477e-41
2.41 7.2 1.4 9.1477e-41
2.46 7.2 1.41 9.1477e-41
2.5 7.2 1.4 9.1477e-41
2.54 7.2 1.39 9.1477e-41
2.58 7.2 1.4 9.1477e-41
2.62 7.2 1.4 9.1477e-41
2.67 7.2 1.41 9.1477e-41
2.71 7.2 1.4 9.1477e-41
2.75 7.2 1.4 9.1477e-41
2.79 7.2 1.4 9.1477e-41
2.83 7.2 1.4 9.1477e-41
2.87 7.2 1.42 9.1477e-41
2.91 7.2 1.4 9.1477e-41
2.95 7.2 1.41 9.1477e-41
2.99 7.2 1.4 9.1477e-41
3.03 7.2 1.4 9.1477e-41
3.07 7.2 1.41 9.1477e-41
3.11 7.2 1.4 9.1477e-41
3.15 7.2 1.4 9.1477e-41
3.19 7.2 1.4 9.1477e-41
3.22 7.2 1.39 9.1477e-41
3.26 7.2 1.4 9.1477e-41
3.3 7.2 1.41 9.1477e-41
3.34 7.2 1.41 9.1477e-41
3.38 7.2 1.4 9.1477e-41
3.53 7.2 2.11 9.1477e-41
3.57 7.2 2.19 9.1477e-41
3.57 7.2 1.96 9.1477e-41
3.57 7.2 1.66 9.1477e-41
1.11 7.26 2.18 9.1477e-41
1.11 7.26 2.12 9.1477e-41
1.11 7.26 2.06 9.1477e-41
1.12 7.26 2 9.1477e-41
1.11 7.26 1.93 9.1477e-41
1.12 7.26 1.87 9.1477e-41
1.11 7.26 1.79 9.1477e-41
1.11 7.26 1.71 9.1477e-41
1.11 7.26 1.64 9.1477e-41
1.1 7.26 1.56 9.1477e-41
1.1 7.26 1.48 9.1477e-41
1.12 7.26 1.42 9.1477e-41
1.17 7.26 1.41 9.1477e-41
1.22 7.26 1.41 9.1477e-41
1.27 7.26 1.41 9.1477e-41
1.33 7.26 1.41 9.1477e-41
1.38 7.26 1.41 9.1477e-41
1.43 7.26 1.41 9.1477e-41
1.48 7.26 1.41 9.1477e-41
1.53 7.26 1.41 9.1477e-41
1.58 7.26 1.41 9.1477e-41
1.63 7.26 1.41 9.1477e-41
1.68 7.26 1.41 9.1477e-41
1.72 7.26 1.4 9.1477e-41
1.78 7.26 1.4 9.1477e-41
1.82 7.26 1.4 9.1477e-41
1.87 7.26 1.41 9.1477e-41
1.92 7.26 1.41 9.1477e-41
1.97 7.26 1.41 9.1477e-41
2.01 7.26 1.41 9.1477e-41
2.06 7.26 1.41 9.1477e-41
2.1 7.26 1.41 9.1477e-41
2.15 7.26 1.41 9.1477e-41
2.2 7.26 1.41 9.1477e-41
2.24 7.26 1.41 9.1477e-41
2.28 7.26 1.4 9.1477e-41
2.33 7.26 1.41 9.1477e-41
2.37 7.26 1.4 9.1477e-41
2.41 7.26 1.4 9.1477e-41
2.45 7.26 1.4 9.1477e-41
2.49 7.26 1.39 9.1477e-41
2.54 7.26 1.41 9.1477e-41
2.58 7.26 1.4 9.1477e-41
2.63 7.26 1.41 9.1477e-41
2.66 7.26 1.4 9.1477e-41
2.7 7.26 1.4 9.1477e-41
2.75 7.26 1.4 9.1477e-41
2.79 7.26 1.4 9.1477e-41
2.83 7.26 1.41 9.1477e-41
2.87 7.26 1.41 9.1477e-41
2.91 7.26 1.41 9.1477e-41
2.95 7.26 1.4 9.1477e-41
2.99 7.26 1.41 9.1477e-41
3.03 7.26 1.41 9.1477e-41
3.07 7.26 1.4 9.1477e-41
3.11 7.26 1.41 9.1477e-41
3.15 7.26 1.41 9.1477e-41
3.19 7.26 1.41 9.1477e-41
3.23 7.26 1.4 9.1477e-41
3.26 7.26 1.4 9.1477e-41
3.3 7.26 1.4 9.1477e-41
3.34 7.26 1.4 9.1477e-41
3.38 7.26 1.4 9.1477e-41
3.53 7.26 2.1 9.1477e-41
3.57 7.26 2.19 9.1477e-41
3.57 7.26 1.97 9.1477e-41
3.57 7.26 1.65 9.1477e-41
1.11 7.32 2.18 9.1477e-41
1.11 7.32 2.12 9.1477e-41
1.12 7.32 2.06 9.1477e-41
1.11 7.32 1.99 9.1477e-41
1.12 7.32 1.93 9.1477e-41
1.12 7.32 1.86 9.1477e-41
1.11 7.32 1.79 9.1477e-41
1.11 7.32 1.71 9.1477e-41
1.1 7.32 1.63 9.1477e-41
1.1 7.32 1.56 9.1477e-41
1.11 7.32 1.49 9.1477e-41
1.11 7.32 1.42 9.1477e-41
1.17 7.32 1.42 9.1477e-41
1.22 7.32 1.41 9.1477e-41
1.27 7.32 1.41 9.1477e-41
1.33 7.32 1.41 9.1477e-41
1.38 7.32 1.41 9.1477e-41
1.43 7.32 1.41 9.1477e-41
1.48 7.32 1.41 9.1477e-41
1.53 7.32 1.41 9.1477e-41
1.58 7.32 1.41 9.1477e-41
1.63 7.32 1.41 9.1477e-41
1.68 7.32 1.4 9.1477e-41
1.72 7.32 1.4 9.1477e-41
1.78 7.32 1.4 9.1477e-41
1.83 7.32 1.41 9.1477e-41
1.87 7.32 1.41 9.1477e-41
1.92 7.32 1.41 9.1477e-41
1.97 7.32 1.41 9.1477e-41
2.01 7.32 1.41 9.1477e-41
2.05 7.32 1.4 9.1477e-41
2.1 7.32 1.4 9.1477e-41
2.15 7.32 1.41 9.1477e-41
2.19 7.32 1.4 9.1477e-41
2.24 7.32 1.41 9.1477e-41
2.29 7.32 1.41 9.1477e-41
2.32 7.32 1.4 9.1477e-41
2.37 7.32 1.4 9.1477e-41
2.41 7.32 1.4 9.1477e-41
2.45 7.32 1.4 9.1477e-41
2.5 7.32 1.4 9.1477e-41
2.54 7.32 1.41 9.1477e-41
2.59 7.32 1.41 9.1477e-41
2.62 7.32 1.4 9.1477e-41
2.67 7.32 1.41 9.1477e-41
2.71 7.32 1.4 9.1477e-41
2.75 7.32 1.4 9.1477e-41
2.79 7.32 1.41 9.1477e-41
2.83 7.32 1.4 9.1477e-41
2.87 7.32 1.41 9.1477e-41
2.91 7.32 1.41 9.1477e-41
2.95 7.32 1.41 9.1477e-41
2.99 7.32 1.41 9.1477e-41
3.03 7.32 1.41 9.1477e-41
3.07 7.32 1.41 9.1477e-41
3.11 7.32 1.41 9.1477e-41
3.15 7.32 1.41 9.1477e-41
3.19 7.32 1.41 9.1477e-41
3.22 7.32 1.39 9.1477e-41
3.26 7.32 1.4 9.1477e-41
3.3 7.32 1.41 9.1477e-41
3.34 7.32 1.41 9.1477e-41
3.38 7.32 1.4 9.1477e-41
3.53 7.32 2.11 9.1477e-41
3.57 7.32 2.19 9.1477e-41
3.57 7.32 1.95 9.1477e-41
3.56 7.32 1.64 9.1477e-41
1.11 7.38 2.18 9.1477e-41
1.12 7.38 2.13 9.1477e-41
1.12 7.38 2.06 9.1477e-41
1.12 7.38 2 9.1477e-41
1.11 7.38 1.93 9.1477e-41
1.12 7.38 1.86 9.1477e-41
1.11 7.38 1.79 9.1477e-41
1.1 7.38 1.71 9.1477e-41
1.1 7.38 1.63 9.1477e-41
1.1 7.38 1.56 9.1477e-41
1.1 7.38 1.48 9.1477e-41
1.12 7.38 1.42 9.1477e-41
1.17 7.38 1.41 9.1477e-41
1.22 7.38 1.41 9.1477e-41
1.27 7.38 1.41 9.1477e-41
1.33 7.38 1.42 9.1477e-41
1.38 7.38 1.41 9.1477e-41
1.43 7.38 1.41 9.1477e-41
1.48 7.38 1.4 9.1477e-41
1.54 7.38 1.41 9.1477e-41
1.58 7.38 1.41 9.1477e-41
1.63 7.38 1.41 9.1477e-41
1.68 7.38 1.41 9.1477e-41
1.73 7.38 1.41 9.1477e-41
1.78 7.38 1.4 9.1477e-41
1.82 7.38 1.39 9.1477e-41
1.87 7.38 1.41 9.1477e-41
1.92 7.38 1.41 9.1477e-41
1.97 7.38 1.41 9.1477e-41
2.01 7.38 1.4 9.1477e-41
2.06 7.38 1.41 9.1477e-41
2.11 7.38 1.42 9.1477e-41
2.15 7.38 1.41 9.1477e-41
2.2 7.38 1.41 9.1477e-41
2.23 7.38 1.39 9.1477e-41
2.28 7.38 1.4 9.1477e-41
2.32 7.38 1.4 9.1477e-41
2.37 7.38 1.4 9.1477e-41
2.41 7.38 1.4 9.1477e-41
2.45 7.38 1.4 9.1477e-41
2.49 7.38 1.39 9.1477e-41
2.54 7.38 1.41 9.1477e-41
2.58 7.38 1.4 9.1477e-41
2.62 7.38 1.4 9.1477e-41
2.66 7.38 1.4 9.1477e-41
2.7 7.38 1.4 9.1477e-41
2.74 7.38 1.39 9.1477e-41
2.79 7.38 1.4 9.1477e-41
2.83 7.38 1.41 9.1477e-41
2.87 7.38 1.41 9.1477e-41
2.91 7.38 1.41 9.1477e-41
2.95 7.38 1.4 9.1477e-41
2.99 7.38 1.41 9.1477e-41
3.03 7.38 1.41 9.1477e-41
3.07 7.38 1.41 9.1477e-41
3.11 7.38 1.41 9.1477e-41
3.15 7.38 1.4 9.1477e-41
3.19 7.38 1.41 9.1477e-41
3.23 7.38 1.4 9.1477e-41
3.26 7.38 1.4 9.1477e-41
3.3 7.38 1.41 9.1477e-41
3.34 7.38 1.4 9.1477e-41
3.38 7.38 1.4 9.1477e-41
3.53 7.38 2.11 9.1477e-41
3.58 7.38 2.11 3.57e-43
3.57 7.38 1.95 9.1477e-41
3.56 7.38 1.63 9.1477e-41
1.11 7.44 2.18 9.1477e-41
1.12 7.44 2.13 9.1477e-41
1.12 7.44 2.06 9.1477e-41
1.12 7.44 2 9.1477e-41
1.11 7.44 1.93 9.1477e-41
1.12 7.44 1.86 9.1477e-41
1.11 7.44 1.79 9.1477e-41
1.11 7.44 1.71 9.1477e-41
1.1 7.44 1.63 9.1477e-41
1.1 7.44 1.56 9.1477e-41
1.11 7.44 1.49 9.1477e-41
1.11 7.44 1.42 9.1477e-41
1.17 7.44 1.41 9.1477e-41
1.22 7.44 1.41 9.1477e-41
1.27 7.44 1.41 9.1477e-41
1.33 7.44 1.41 9.1477e-41
1.38 7.44 1.41 9.1477e-41
1.43 7.44 1.41 9.1477e-41
1.48 7.44 1.4 9.1477e-41
1.53 7.44 1.41 9.1477e-41
1.58 7.44 1.4 9.1477e-41
1.63 7.44 1.41 9.1477e-41
1.68 7.44 1.4 9.1477e-41
1.72 7.44 1.4 9.1477e-41
1.78 7.44 1.4 9.1477e-41
1.82 7.44 1.4 9.1477e-41
1.87 7.44 1.4 9.1477e-41
1.92 7.44 1.41 9.1477e-41
1.97 7.44 1.41 9.1477e-41
2.01 7.44 1.41 9.1477e-41
2.06 7.44 1.41 9.1477e-41
2.1 7.44 1.41 9.1477e-41
2.15 7.44 1.41 9.1477e-41
2.2 7.44 1.42 9.1477e-41
2.24 7.44 1.4 9.1477e-41
2.28 7.44 1.4 9.1477e-41
2.32 7.44 1.4 9.1477e-41
2.37 7.44 1.4 9.1477e-41
2.41 7.44 1.4 9.1477e-41
2.45 7.44 1.4 9.1477e-41
2.5 7.44 1.4 9.1477e-41
2.54 7.44 1.4 9.1477e-41
2.58 7.44 1.4 9.1477e-41
2.62 7.44 1.39 9.1477e-41
2.66 7.44 1.4 9.1477e-41
2.71 7.44 1.4 9.1477e-41
2.75 7.44 1.4 9.1477e-41
2.79 7.44 1.4 9.1477e-41
2.83 7.44 1.41 9.1477e-41
2.87 7.44 1.4 9.1477e-41
2.91 7.44 1.39 9.1477e-41
2.95 7.44 1.41 9.1477e-41
2.99 7.44 1.41 9.1477e-41
3.03 7.44 1.41 9.1477e-41
3.07 7.44 1.41 9.1477e-41
3.11 7.44 1.4 9.1477e-41
3.15 7.44 1.41 9.1477e-41
3.19 7.44 1.4 9.1477e-41
3.23 7.44 1.4 9.1477e-41
3.26 7.44 1.4 9.1477e-41
3.3 7.44 1.4 9.1477e-41
3.34 7.44 1.41 9.1477e-41
3.38 7.44 1.4 9.1477e-41
3.53 7.44 2.12 9.1477e-41
3.57 7.44 2.12 3.57e-43
3.57 7.44 1.95 9.1477e-41
3.56 7.44 1.64 9.1477e-41
1.11 7.5 2.18 9.1477e-41
1.11 7.5 2.12 9.1477e-41
1.11 7.5 2.06 9.1477e-41
1.11 7.5 1.99 9.1477e-41
1.11 7.5 1.93 9.1477e-41
1.11 7.5 1.85 9.1477e-41
1.11 7.5 1.79 9.1477e-41
1.11 7.5 1.71 9.1477e-41
1.1 7.5 1.63 9.1477e-41
1.1 7.5 1.56 9.1477e-41
1.1 7.5 1.48 9.1477e-41
1.11 7.5 1.42 9.1477e-41
1.17 7.5 1.41 9.1477e-41
1.22 7.5 1.41 9.1477e-41
1.28 7.5 1.42 9.1477e-41
1.32 7.5 1.41 9.1477e-41
1.38 7.5 1.42 9.1477e-41
1.43 7.5 1.41 9.1477e-41
1.48 7.5 1.4 9.1477e-41
1.53 7.5 1.41 9.1477e-41
1.58 7.5 1.41 9.1477e-41
1.63 7.5 1.41 9.1477e-41
1.68 7.5 1.4 9.1477e-41
1.72 7.5 1.4 9.1477e-41
1.78 7.5 1.4 9.1477e-41
1.83 7.5 1.41 9.1477e-41
1.87 7.5 1.4 9.1477e-41
1.92 7.5 1.41 9.1477e-41
1.97 7.5 1.41 9.1477e-41
2.01 7.5 1.41 9.1477e-41
2.06 7.5 1.41 9.1477e-41
2.1 7.5 1.41 9.1477e-41
2.15 7.5 1.41 9.1477e-41
2.19 7.5 1.4 9.1477e-41
2.24 7.5 1.4 9.1477e-41
2.28 7.5 1.4 9.1477e-41
2.33 7.5 1.41 9.1477e-41
2.37 7.5 1.41 9.1477e-41
2.41 7.5 1.4 9.1477e-41
2.45 7.5 1.4 9.1477e-41
2.5 7.5 1.4 9.1477e-41
2.54 7.5 1.4 9.1477e-41
2.58 7.5 1.4 9.1477e-41
2.62 7.5 1.4 9.1477e-41
2.66 7.5 1.4 9.1477e-41
2.71 7.5 1.4 9.1477e-41
2.74 7.5 1.39 9.1477e-41
2.79 7.5 1.4 9.1477e-41
2.83 7.5 1.4 9.1477e-41
2.87 7.5 1.4 9.1477e-41
2.91 7.5 1.42 9.1477e-41
2.95 7.5 1.4 9.1477e-41
2.99 7.5 1.41 9.1477e-41
3.03 7.5 1.4 9.1477e-41
3.07 7.5 1.41 9.1477e-41
3.11 7.5 1.4 9.1477e-41
3.15 7.5 1.41 9.1477e-41
3.19 7.5 1.4 9.1477e-41
3.23 7.5 1.41 9.1477e-41
3.26 7.5 1.4 9.1477e-41
3.3 7.5 1.41 9.1477e-41
3.34 7.5 1.4 9.1477e-41
3.38 7.5 1.4 9.1477e-41
3.53 7.5 2.13 9.1477e-41
3.57 7.5 2.13 3.57e-43
3.57 7.5 1.95 9.1477e-41
3.56 7.5 1.64 9.1477e-41
1.11 7.56 2.18 9.1477e-41
1.12 7.56 2.13 9.1477e-41
1.11 7.56 2.06 9.1477e-41
1.11 7.56 1.99 9.1477e-41
1.11 7.56 1.93 9.1477e-41
1.12 7.56 1.86 9.1477e-41
1.12 7.56 1.8 9.1477e-41
1.1 7.56 1.71 9.1477e-41
1.1 7.56 1.63 9.1477e-41
1.1 7.56 1.56 9.1477e-41
1.1 7.56 1.48 9.1477e-41
1.12 7.56 1.42 9.1477e-41
1.17 7.56 1.41 9.1477e-41
1.22 7.56 1.41 9.1477e-41
1.27 7.56 1.41 9.1477e-41
1.32 7.56 1.41 9.1477e-41
1.38 7.56 1.41 9.1477e-41
1.43 7.56 1.42 9.1477e-41
1.48 7.56 1.41 9.1477e-41
1.53 7.56 1.41 9.1477e-41
1.58 7.56 1.41 9.1477e-41
1.64 7.56 1.41 9.1477e-41
1.68 7.56 1.4 9.1477e-41
1.73 7.56 1.41 9.1477e-41
1.78 7.56 1.41 9.1477e-41
1.82 7.56 1.4 9.1477e-41
1.87 7.56 1.41 9.1477e-41
1.92 7.56 1.41 9.1477e-41
1.97 7.56 1.41 9.1477e-41
2.01 7.56 1.41 9.1477e-41
2.06 7.56 1.41 9.1477e-41
2.1 7.56 1.41 9.1477e-41
2.15 7.56 1.41 9.1477e-41
2.2 7.56 1.41 9.1477e-41
2.24 7.56 1.4 9.1477e-41
2.29 7.56 1.41 9.1477e-41
2.33 7.56 1.41 9.1477e-41
2.37 7.56 1.41 9.1477e-41
