# .PCD v.7 - Point Cloud Data file format
VERSION .7
FIELDS x y z rgb
SIZE 4 4 4 4
TYPE F F F F
WIDTH 1876
HEIGHT 1
POINTS 1876
DATA ascii
3.07 3.28 1.39 9.1477e-41
3.11 3.28 1.39 9.1477e-41
3.14 3.28 1.38 9.1477e-41
3.18 3.28 1.39 9.1477e-41
3.22 3.28 1.38 9.1477e-41
3.4 3.28 2.09 9.1477e-41
3.45 3.28 2.17 9.1477e-41
3.44 3.28 1.95 9.1477e-41
3.42 3.28 1.63 9.1477e-41
3.45 3.28 1.58 9.1477e-41
0.99 3.29 2.16 9.1477e-41
0.99 3.29 2.1 9.1477e-41
0.98 3.29 2.03 9.1477e-41
0.98 3.29 1.97 9.1477e-41
0.98 3.29 1.89 9.1477e-41
0.98 3.29 1.83 9.1477e-41
0.98 3.29 1.76 9.1477e-41
0.97 3.29 1.68 9.1477e-41
0.97 3.29 1.6 9.1477e-41
0.97 3.29 1.52 9.1477e-41
0.97 3.29 1.45 9.1477e-41
1 3.29 1.41 9.1477e-41
1.05 3.29 1.41 9.1477e-41
1.11 3.29 1.41 9.1477e-41
1.16 3.29 1.41 9.1477e-41
1.22 3.29 1.41 9.1477e-41
1.26 3.29 1.4 9.1477e-41
1.32 3.29 1.41 9.1477e-41
1.37 3.29 1.4 9.1477e-41
1.42 3.29 1.4 9.1477e-41
1.48 3.29 1.4 9.1477e-41
1.52 3.29 1.4 9.1477e-41
1.58 3.29 1.4 9.1477e-41
1.63 3.29 1.4 9.1477e-41
1.68 3.29 1.4 9.1477e-41
1.72 3.29 1.4 9.1477e-41
1.77 3.29 1.4 9.1477e-41
1.82 3.29 1.4 9.1477e-41
1.87 3.29 1.4 9.1477e-41
1.91 3.29 1.39 9.1477e-41
1.96 3.29 1.39 9.1477e-41
2.01 3.29 1.4 9.1477e-41
2.05 3.29 1.4 9.1477e-41
2.1 3.29 1.4 9.1477e-41
2.14 3.29 1.39 9.1477e-41
2.19 3.29 1.39 9.1477e-41
2.23 3.29 1.39 9.1477e-41
2.28 3.29 1.39 9.1477e-41
2.32 3.29 1.4 9.1477e-41
2.36 3.29 1.39 9.1477e-41
2.41 3.29 1.4 9.1477e-41
2.45 3.29 1.39 9.1477e-41
2.49 3.29 1.38 9.1477e-41
2.54 3.29 1.39 9.1477e-41
2.57 3.29 1.38 9.1477e-41
2.62 3.29 1.39 9.1477e-41
2.66 3.29 1.39 9.1477e-41
2.7 3.29 1.39 9.1477e-41
2.74 3.29 1.38 9.1477e-41
2.78 3.29 1.38 9.1477e-41
2.83 3.29 1.39 9.1477e-41
2.86 3.29 1.38 9.1477e-41
2.91 3.29 1.39 9.1477e-41
2.94 3.29 1.38 9.1477e-41
2.99 3.29 1.39 9.1477e-41
3.03 3.29 1.39 9.1477e-41
3.06 3.29 1.38 9.1477e-41
3.11 3.29 1.39 9.1477e-41
3.14 3.29 1.38 9.1477e-41
3.19 3.29 1.4 9.1477e-41
3.22 3.29 1.38 9.1477e-41
3.4 3.29 2.1 9.1477e-41
3.45 3.29 2.17 9.1477e-41
3.44 3.29 1.95 9.1477e-41
3.42 3.29 1.63 9.1477e-41
3.44 3.29 1.57 9.1477e-41
0.99 3.3 2.16 9.1477e-41
0.99 3.3 2.1 9.1477e-41
0.98 3.3 2.03 9.1477e-41
0.98 3.3 1.97 9.1477e-41
0.98 3.3 1.89 9.1477e-41
0.99 3.3 1.84 9.1477e-41
0.99 3.3 1.77 9.1477e-41
0.97 3.3 1.68 9.1477e-41
0.97 3.3 1.6 9.1477e-41
0.97 3.3 1.52 9.1477e-41
0.97 3.3 1.45 9.1477e-41
0.99 3.3 1.4 9.1477e-41
1.06 3.3 1.42 9.1477e-41
1.1 3.3 1.4 9.1477e-41
1.16 3.3 1.41 9.1477e-41
1.22 3.3 1.41 9.1477e-41
1.27 3.3 1.41 9.1477e-41
1.32 3.3 1.41 9.1477e-41
1.37 3.3 1.4 9.1477e-41
1.42 3.3 1.4 9.1477e-41
1.48 3.3 1.4 9.1477e-41
1.52 3.3 1.4 9.1477e-41
1.58 3.3 1.4 9.1477e-41
1.63 3.3 1.41 9.1477e-41
1.67 3.3 1.39 9.1477e-41
1.71 3.3 1.38 9.1477e-41
1.78 3.3 1.4 9.1477e-41
1.82 3.3 1.39 9.1477e-41
1.87 3.3 1.4 9.1477e-41
1.91 3.3 1.39 9.1477e-41
1.96 3.3 1.39 9.1477e-41
2 3.3 1.39 9.1477e-41
2.05 3.3 1.4 9.1477e-41
2.1 3.3 1.39 9.1477e-41
2.14 3.3 1.39 9.1477e-41
2.19 3.3 1.39 9.1477e-41
2.23 3.3 1.39 9.1477e-41
2.28 3.3 1.39 9.1477e-41
2.32 3.3 1.4 9.1477e-41
2.36 3.3 1.39 9.1477e-41
2.41 3.3 1.39 9.1477e-41
2.45 3.3 1.38 9.1477e-41
2.49 3.3 1.39 9.1477e-41
2.53 3.3 1.38 9.1477e-41
2.58 3.3 1.4 9.1477e-41
2.62 3.3 1.39 9.1477e-41
2.66 3.3 1.39 9.1477e-41
2.7 3.3 1.38 9.1477e-41
2.74 3.3 1.38 9.1477e-41
2.79 3.3 1.39 9.1477e-41
2.82 3.3 1.38 9.1477e-41
2.87 3.3 1.4 9.1477e-41
2.91 3.3 1.39 9.1477e-41
2.94 3.3 1.38 9.1477e-41
2.98 3.3 1.38 9.1477e-41
3.03 3.3 1.4 9.1477e-41
3.07 3.3 1.4 9.1477e-41
3.1 3.3 1.38 9.1477e-41
3.14 3.3 1.39 9.1477e-41
3.18 3.3 1.38 9.1477e-41
3.22 3.3 1.38 9.1477e-41
3.4 3.3 2.1 9.1477e-41
3.45 3.3 2.17 9.1477e-41
3.44 3.3 1.96 9.1477e-41
3.42 3.3 1.62 9.1477e-41
3.45 3.3 1.58 9.1477e-41
0.99 3.31 2.16 9.1477e-41
0.99 3.31 2.1 9.1477e-41
0.98 3.31 2.03 9.1477e-41
0.98 3.31 1.97 9.1477e-41
0.98 3.31 1.9 9.1477e-41
0.97 3.31 1.82 9.1477e-41
0.98 3.31 1.76 9.1477e-41
0.97 3.31 1.68 9.1477e-41
0.97 3.31 1.6 9.1477e-41
0.97 3.31 1.52 9.1477e-41
0.97 3.31 1.45 9.1477e-41
0.99 3.31 1.4 9.1477e-41
1.05 3.31 1.41 9.1477e-41
1.11 3.31 1.41 9.1477e-41
1.16 3.31 1.41 9.1477e-41
1.22 3.31 1.41 9.1477e-41
1.27 3.31 1.41 9.1477e-41
1.32 3.31 1.4 9.1477e-41
1.37 3.31 1.4 9.1477e-41
1.43 3.31 1.41 9.1477e-41
1.48 3.31 1.4 9.1477e-41
1.53 3.31 1.41 9.1477e-41
1.57 3.31 1.39 9.1477e-41
1.63 3.31 1.4 9.1477e-41
1.68 3.31 1.4 9.1477e-41
1.72 3.31 1.4 9.1477e-41
1.77 3.31 1.4 9.1477e-41
1.82 3.31 1.4 9.1477e-41
1.87 3.31 1.4 9.1477e-41
1.92 3.31 1.4 9.1477e-41
1.96 3.31 1.4 9.1477e-41
2 3.31 1.39 9.1477e-41
2.05 3.31 1.4 9.1477e-41
2.1 3.31 1.39 9.1477e-41
2.15 3.31 1.4 9.1477e-41
2.19 3.31 1.4 9.1477e-41
2.24 3.31 1.4 9.1477e-41
2.28 3.31 1.39 9.1477e-41
2.32 3.31 1.39 9.1477e-41
2.36 3.31 1.39 9.1477e-41
2.41 3.31 1.39 9.1477e-41
2.45 3.31 1.39 9.1477e-41
2.49 3.31 1.39 9.1477e-41
2.54 3.31 1.39 9.1477e-41
2.58 3.31 1.39 9.1477e-41
2.62 3.31 1.38 9.1477e-41
2.66 3.31 1.39 9.1477e-41
2.7 3.31 1.39 9.1477e-41
2.74 3.31 1.37 9.1477e-41
2.79 3.31 1.39 9.1477e-41
2.83 3.31 1.39 9.1477e-41
2.87 3.31 1.39 9.1477e-41
2.91 3.31 1.39 9.1477e-41
2.94 3.31 1.38 9.1477e-41
2.99 3.31 1.4 9.1477e-41
3.02 3.31 1.38 9.1477e-41
3.07 3.31 1.39 9.1477e-41
3.11 3.31 1.4 9.1477e-41
3.14 3.31 1.39 9.1477e-41
3.18 3.31 1.39 9.1477e-41
3.22 3.31 1.39 9.1477e-41
3.4 3.31 2.1 9.1477e-41
3.44 3.31 2.16 9.1477e-41
3.44 3.31 1.95 9.1477e-41
3.42 3.31 1.63 9.1477e-41
3.45 3.31 1.58 9.1477e-41
0.99 3.32 2.17 9.1477e-41
0.99 3.32 2.1 9.1477e-41
0.98 3.32 2.03 9.1477e-41
0.98 3.32 1.97 9.1477e-41
0.98 3.32 1.9 9.1477e-41
0.98 3.32 1.83 9.1477e-41
0.98 3.32 1.75 9.1477e-41
0.97 3.32 1.68 9.1477e-41
0.97 3.32 1.61 9.1477e-41
0.97 3.32 1.53 9.1477e-41
0.97 3.32 1.45 9.1477e-41
1 3.32 1.41 9.1477e-41
1.05 3.32 1.41 9.1477e-41
1.11 3.32 1.42 9.1477e-41
1.16 3.32 1.41 9.1477e-41
1.22 3.32 1.41 9.1477e-41
1.26 3.32 1.4 9.1477e-41
1.32 3.32 1.41 9.1477e-41
1.37 3.32 1.4 9.1477e-41
1.42 3.32 1.4 9.1477e-41
1.47 3.32 1.39 9.1477e-41
1.52 3.32 1.4 9.1477e-41
1.58 3.32 1.4 9.1477e-41
1.63 3.32 1.4 9.1477e-41
1.68 3.32 1.4 9.1477e-41
1.72 3.32 1.4 9.1477e-41
1.77 3.32 1.4 9.1477e-41
1.82 3.32 1.39 9.1477e-41
1.87 3.32 1.4 9.1477e-41
1.92 3.32 1.4 9.1477e-41
1.96 3.32 1.39 9.1477e-41
2.01 3.32 1.4 9.1477e-41
2.05 3.32 1.39 9.1477e-41
2.1 3.32 1.4 9.1477e-41
2.14 3.32 1.39 9.1477e-41
2.19 3.32 1.4 9.1477e-41
2.23 3.32 1.39 9.1477e-41
2.28 3.32 1.39 9.1477e-41
2.32 3.32 1.39 9.1477e-41
2.36 3.32 1.39 9.1477e-41
2.41 3.32 1.4 9.1477e-41
2.45 3.32 1.39 9.1477e-41
2.49 3.32 1.39 9.1477e-41
2.53 3.32 1.38 9.1477e-41
2.58 3.32 1.4 9.1477e-41
2.62 3.32 1.39 9.1477e-41
2.66 3.32 1.39 9.1477e-41
2.7 3.32 1.39 9.1477e-41
2.74 3.32 1.39 9.1477e-41
2.79 3.32 1.39 9.1477e-41
2.83 3.32 1.39 9.1477e-41
2.87 3.32 1.39 9.1477e-41
2.91 3.32 1.39 9.1477e-41
2.95 3.32 1.4 9.1477e-41
2.99 3.32 1.39 9.1477e-41
3.03 3.32 1.39 9.1477e-41
3.07 3.32 1.4 9.1477e-41
3.11 3.32 1.39 9.1477e-41
3.14 3.32 1.39 9.1477e-41
3.18 3.32 1.38 9.1477e-41
3.22 3.32 1.39 9.1477e-41
3.4 3.32 2.1 9.1477e-41
3.44 3.32 2.16 9.1477e-41
3.44 3.32 1.96 9.1477e-41
3.42 3.32 1.62 9.1477e-41
3.44 3.32 1.57 9.1477e-41
0.99 3.33 2.16 9.1477e-41
0.99 3.33 2.11 9.1477e-41
0.98 3.33 2.03 9.1477e-41
0.99 3.33 1.98 9.1477e-41
0.98 3.33 1.89 9.1477e-41
0.98 3.33 1.83 9.1477e-41
0.98 3.33 1.75 9.1477e-41
0.97 3.33 1.68 9.1477e-41
0.97 3.33 1.61 9.1477e-41
0.97 3.33 1.52 9.1477e-41
0.97 3.33 1.45 9.1477e-41
1 3.33 1.41 9.1477e-41
1.05 3.33 1.41 9.1477e-41
1.11 3.33 1.41 9.1477e-41
1.16 3.33 1.41 9.1477e-41
1.21 3.33 1.4 9.1477e-41
1.27 3.33 1.41 9.1477e-41
1.32 3.33 1.41 9.1477e-41
1.38 3.33 1.41 9.1477e-41
1.43 3.33 1.41 9.1477e-41
1.48 3.33 1.4 9.1477e-41
1.53 3.33 1.41 9.1477e-41
1.58 3.33 1.4 9.1477e-41
1.63 3.33 1.41 9.1477e-41
1.67 3.33 1.39 9.1477e-41
1.72 3.33 1.4 9.1477e-41
1.77 3.33 1.4 9.1477e-41
1.82 3.33 1.39 9.1477e-41
1.87 3.33 1.4 9.1477e-41
1.92 3.33 1.4 9.1477e-41
1.96 3.33 1.39 9.1477e-41
2.01 3.33 1.4 9.1477e-41
2.05 3.33 1.4 9.1477e-41
2.1 3.33 1.4 9.1477e-41
2.15 3.33 1.4 9.1477e-41
2.19 3.33 1.39 9.1477e-41
2.23 3.33 1.39 9.1477e-41
2.27 3.33 1.39 9.1477e-41
2.32 3.33 1.4 9.1477e-41
2.36 3.33 1.39 9.1477e-41
2.41 3.33 1.39 9.1477e-41
2.45 3.33 1.39 9.1477e-41
2.49 3.33 1.39 9.1477e-41
2.54 3.33 1.39 9.1477e-41
2.58 3.33 1.39 9.1477e-41
2.62 3.33 1.39 9.1477e-41
2.66 3.33 1.39 9.1477e-41
2.7 3.33 1.4 9.1477e-41
2.74 3.33 1.38 9.1477e-41
2.78 3.33 1.38 9.1477e-41
2.83 3.33 1.39 9.1477e-41
2.87 3.33 1.39 9.1477e-41
2.91 3.33 1.39 9.1477e-41
2.95 3.33 1.39 9.1477e-41
2.99 3.33 1.39 9.1477e-41
3.03 3.33 1.39 9.1477e-41
3.07 3.33 1.39 9.1477e-41
3.11 3.33 1.39 9.1477e-41
3.14 3.33 1.39 9.1477e-41
3.18 3.33 1.39 9.1477e-41
3.22 3.33 1.38 9.1477e-41
3.4 3.33 2.1 9.1477e-41
3.45 3.33 2.17 9.1477e-41
3.44 3.33 1.94 9.1477e-41
3.42 3.33 1.62 9.1477e-41
3.45 3.33 1.58 9.1477e-41
0.99 3.34 2.16 9.1477e-41
0.99 3.34 2.11 9.1477e-41
0.99 3.34 2.04 9.1477e-41
0.98 3.34 1.97 9.1477e-41
0.98 3.34 1.89 9.1477e-41
0.97 3.34 1.82 9.1477e-41
0.98 3.34 1.76 9.1477e-41
0.97 3.34 1.68 9.1477e-41
0.97 3.34 1.61 9.1477e-41
0.97 3.34 1.52 9.1477e-41
0.97 3.34 1.45 9.1477e-41
1 3.34 1.41 9.1477e-41
1.06 3.34 1.42 9.1477e-41
1.11 3.34 1.41 9.1477e-41
1.16 3.34 1.41 9.1477e-41
1.22 3.34 1.41 9.1477e-41
1.27 3.34 1.41 9.1477e-41
1.32 3.34 1.41 9.1477e-41
1.38 3.34 1.41 9.1477e-41
1.42 3.34 1.4 9.1477e-41
1.47 3.34 1.39 9.1477e-41
1.53 3.34 1.41 9.1477e-41
1.58 3.34 1.4 9.1477e-41
1.62 3.34 1.39 9.1477e-41
1.68 3.34 1.4 9.1477e-41
1.72 3.34 1.4 9.1477e-41
1.77 3.34 1.4 9.1477e-41
1.82 3.34 1.39 9.1477e-41
1.87 3.34 1.4 9.1477e-41
1.92 3.34 1.4 9.1477e-41
1.96 3.34 1.4 9.1477e-41
2.01 3.34 1.4 9.1477e-41
2.05 3.34 1.39 9.1477e-41
2.1 3.34 1.39 9.1477e-41
2.15 3.34 1.4 9.1477e-41
2.19 3.34 1.39 9.1477e-41
2.23 3.34 1.39 9.1477e-41
2.28 3.34 1.39 9.1477e-41
2.32 3.34 1.39 9.1477e-41
2.36 3.34 1.39 9.1477e-41
2.41 3.34 1.4 9.1477e-41
2.45 3.34 1.38 9.1477e-41
2.49 3.34 1.39 9.1477e-41
2.53 3.34 1.38 9.1477e-41
2.58 3.34 1.39 9.1477e-41
2.62 3.34 1.39 9.1477e-41
2.66 3.34 1.38 9.1477e-41
2.7 3.34 1.39 9.1477e-41
2.74 3.34 1.38 9.1477e-41
2.79 3.34 1.39 9.1477e-41
2.83 3.34 1.39 9.1477e-41
2.87 3.34 1.39 9.1477e-41
2.91 3.34 1.39 9.1477e-41
2.95 3.34 1.39 9.1477e-41
2.99 3.34 1.4 9.1477e-41
3.03 3.34 1.39 9.1477e-41
3.07 3.34 1.39 9.1477e-41
3.1 3.34 1.38 9.1477e-41
3.14 3.34 1.39 9.1477e-41
3.18 3.34 1.38 9.1477e-41
3.22 3.34 1.39 9.1477e-41
3.4 3.34 2.1 9.1477e-41
3.45 3.34 2.17 9.1477e-41
3.44 3.34 1.94 9.1477e-41
3.42 3.34 1.63 9.1477e-41
3.45 3.34 1.59 9.1477e-41
0.99 3.35 2.17 9.1477e-41
0.98 3.35 2.09 9.1477e-41
0.98 3.35 2.03 9.1477e-41
0.98 3.35 1.96 9.1477e-41
0.98 3.35 1.89 9.1477e-41
0.98 3.35 1.83 9.1477e-41
0.98 3.35 1.76 9.1477e-41
0.97 3.35 1.68 9.1477e-41
0.97 3.35 1.61 9.1477e-41
0.97 3.35 1.52 9.1477e-41
0.97 3.35 1.45 9.1477e-41
0.99 3.35 1.4 9.1477e-41
1.05 3.35 1.41 9.1477e-41
1.11 3.35 1.41 9.1477e-41
1.17 3.35 1.41 9.1477e-41
1.22 3.35 1.41 9.1477e-41
1.27 3.35 1.41 9.1477e-41
1.32 3.35 1.4 9.1477e-41
1.37 3.35 1.4 9.1477e-41
1.42 3.35 1.4 9.1477e-41
1.48 3.35 1.4 9.1477e-41
1.53 3.35 1.41 9.1477e-41
1.58 3.35 1.4 9.1477e-41
1.63 3.35 1.4 9.1477e-41
1.68 3.35 1.4 9.1477e-41
1.72 3.35 1.4 9.1477e-41
1.77 3.35 1.4 9.1477e-41
1.82 3.35 1.39 9.1477e-41
1.87 3.35 1.4 9.1477e-41
1.92 3.35 1.4 9.1477e-41
1.96 3.35 1.4 9.1477e-41
2.01 3.35 1.4 9.1477e-41
2.05 3.35 1.39 9.1477e-41
2.1 3.35 1.4 9.1477e-41
2.14 3.35 1.39 9.1477e-41
2.2 3.35 1.41 9.1477e-41
2.23 3.35 1.39 9.1477e-41
2.28 3.35 1.39 9.1477e-41
2.32 3.35 1.39 9.1477e-41
2.36 3.35 1.39 9.1477e-41
2.41 3.35 1.39 9.1477e-41
2.45 3.35 1.39 9.1477e-41
2.49 3.35 1.39 9.1477e-41
2.54 3.35 1.39 9.1477e-41
2.58 3.35 1.39 9.1477e-41
2.62 3.35 1.39 9.1477e-41
2.66 3.35 1.39 9.1477e-41
2.7 3.35 1.4 9.1477e-41
2.74 3.35 1.39 9.1477e-41
2.78 3.35 1.38 9.1477e-41
2.83 3.35 1.39 9.1477e-41
2.86 3.35 1.38 9.1477e-41
2.91 3.35 1.4 9.1477e-41
2.95 3.35 1.39 9.1477e-41
2.99 3.35 1.4 9.1477e-41
3.03 3.35 1.39 9.1477e-41
3.06 3.35 1.38 9.1477e-41
3.11 3.35 1.39 9.1477e-41
3.14 3.35 1.39 9.1477e-41
3.18 3.35 1.39 9.1477e-41
3.22 3.35 1.39 9.1477e-41
3.4 3.35 2.09 9.1477e-41
3.45 3.35 2.17 9.1477e-41
3.44 3.35 1.95 9.1477e-41
3.42 3.35 1.63 9.1477e-41
3.44 3.35 1.57 9.1477e-41
0.99 3.36 2.16 9.1477e-41
0.99 3.36 2.1 9.1477e-41
0.98 3.36 2.03 9.1477e-41
0.98 3.36 1.96 9.1477e-41
0.98 3.36 1.89 9.1477e-41
0.97 3.36 1.82 9.1477e-41
0.98 3.36 1.76 9.1477e-41
0.97 3.36 1.68 9.1477e-41
0.97 3.36 1.61 9.1477e-41
0.97 3.36 1.53 9.1477e-41
0.97 3.36 1.45 9.1477e-41
1 3.36 1.41 9.1477e-41
1.06 3.36 1.42 9.1477e-41
1.11 3.36 1.41 9.1477e-41
1.17 3.36 1.41 9.1477e-41
1.22 3.36 1.41 9.1477e-41
1.27 3.36 1.41 9.1477e-41
1.32 3.36 1.41 9.1477e-41
1.37 3.36 1.4 9.1477e-41
1.42 3.36 1.4 9.1477e-41
1.48 3.36 1.4 9.1477e-41
1.52 3.36 1.4 9.1477e-41
1.58 3.36 1.4 9.1477e-41
1.63 3.36 1.41 9.1477e-41
1.68 3.36 1.4 9.1477e-41
1.72 3.36 1.4 9.1477e-41
1.77 3.36 1.4 9.1477e-41
1.82 3.36 1.39 9.1477e-41
1.87 3.36 1.4 9.1477e-41
1.91 3.36 1.39 9.1477e-41
1.96 3.36 1.4 9.1477e-41
2.01 3.36 1.4 9.1477e-41
2.05 3.36 1.39 9.1477e-41
2.1 3.36 1.4 9.1477e-41
2.15 3.36 1.4 9.1477e-41
2.19 3.36 1.39 9.1477e-41
2.23 3.36 1.39 9.1477e-41
2.28 3.36 1.39 9.1477e-41
2.32 3.36 1.39 9.1477e-41
2.36 3.36 1.38 9.1477e-41
2.41 3.36 1.4 9.1477e-41
2.45 3.36 1.38 9.1477e-41
2.49 3.36 1.39 9.1477e-41
2.54 3.36 1.39 9.1477e-41
2.58 3.36 1.39 9.1477e-41
2.62 3.36 1.4 9.1477e-41
2.66 3.36 1.39 9.1477e-41
2.7 3.36 1.4 9.1477e-41
2.74 3.36 1.38 9.1477e-41
2.79 3.36 1.39 9.1477e-41
2.83 3.36 1.39 9.1477e-41
2.87 3.36 1.39 9.1477e-41
2.91 3.36 1.39 9.1477e-41
2.95 3.36 1.39 9.1477e-41
2.99 3.36 1.39 9.1477e-41
3.03 3.36 1.39 9.1477e-41
3.07 3.36 1.39 9.1477e-41
3.11 3.36 1.39 9.1477e-41
3.14 3.36 1.39 9.1477e-41
3.18 3.36 1.38 9.1477e-41
3.22 3.36 1.39 9.1477e-41
3.4 3.36 2.1 9.1477e-41
3.45 3.36 2.17 9.1477e-41
3.44 3.36 1.95 9.1477e-41
3.42 3.36 1.64 9.1477e-41
3.44 3.36 1.57 9.1477e-41
0.99 3.37 2.16 9.1477e-41
0.99 3.37 2.1 9.1477e-41
0.98 3.37 2.03 9.1477e-41
0.98 3.37 1.96 9.1477e-41
0.98 3.37 1.9 9.1477e-41
0.97 3.37 1.82 9.1477e-41
0.98 3.37 1.75 9.1477e-41
0.98 3.37 1.69 9.1477e-41
0.97 3.37 1.6 9.1477e-41
0.97 3.37 1.52 9.1477e-41
0.97 3.37 1.45 9.1477e-41
0.99 3.37 1.4 9.1477e-41
1.05 3.37 1.41 9.1477e-41
1.11 3.37 1.41 9.1477e-41
1.16 3.37 1.41 9.1477e-41
1.22 3.37 1.41 9.1477e-41
1.27 3.37 1.41 9.1477e-41
1.32 3.37 1.4 9.1477e-41
1.37 3.37 1.4 9.1477e-41
1.42 3.37 1.4 9.1477e-41
1.48 3.37 1.4 9.1477e-41
1.52 3.37 1.4 9.1477e-41
1.58 3.37 1.4 9.1477e-41
1.63 3.37 1.4 9.1477e-41
1.67 3.37 1.39 9.1477e-41
1.73 3.37 1.41 9.1477e-41
1.77 3.37 1.4 9.1477e-41
1.82 3.37 1.39 9.1477e-41
1.87 3.37 1.4 9.1477e-41
1.91 3.37 1.39 9.1477e-41
1.96 3.37 1.4 9.1477e-41
2.01 3.37 1.4 9.1477e-41
2.05 3.37 1.4 9.1477e-41
2.1 3.37 1.39 9.1477e-41
2.14 3.37 1.39 9.1477e-41
2.19 3.37 1.39 9.1477e-41
2.23 3.37 1.39 9.1477e-41
2.28 3.37 1.39 9.1477e-41
2.32 3.37 1.39 9.1477e-41
2.36 3.37 1.39 9.1477e-41
2.41 3.37 1.39 9.1477e-41
2.45 3.37 1.39 9.1477e-41
2.49 3.37 1.39 9.1477e-41
2.54 3.37 1.39 9.1477e-41
2.58 3.37 1.39 9.1477e-41
2.62 3.37 1.38 9.1477e-41
2.66 3.37 1.39 9.1477e-41
2.7 3.37 1.4 9.1477e-41
2.74 3.37 1.39 9.1477e-41
2.79 3.37 1.39 9.1477e-41
2.83 3.37 1.39 9.1477e-41
2.86 3.37 1.38 9.1477e-41
2.91 3.37 1.39 9.1477e-41
2.95 3.37 1.39 9.1477e-41
2.99 3.37 1.39 9.1477e-41
3.03 3.37 1.39 9.1477e-41
3.07 3.37 1.39 9.1477e-41
3.11 3.37 1.39 9.1477e-41
3.14 3.37 1.38 9.1477e-41
3.18 3.37 1.39 9.1477e-41
3.22 3.37 1.38 9.1477e-41
3.4 3.37 2.11 9.1477e-41
3.45 3.37 2.17 9.1477e-41
3.44 3.37 1.95 9.1477e-41
3.42 3.37 1.62 9.1477e-41
3.44 3.37 1.57 9.1477e-41
3.36 3.37 0.76 9.1477e-41
0.99 3.38 2.16 9.1477e-41
0.99 3.38 2.1 9.1477e-41
0.99 3.38 2.04 9.1477e-41
0.99 3.38 1.98 9.1477e-41
0.98 3.38 1.9 9.1477e-41
0.98 3.38 1.83 9.1477e-41
0.99 3.38 1.77 9.1477e-41
0.97 3.38 1.68 9.1477e-41
0.98 3.38 1.61 9.1477e-41
0.97 3.38 1.52 9.1477e-41
0.97 3.38 1.45 9.1477e-41
1 3.38 1.41 9.1477e-41
1.05 3.38 1.41 9.1477e-41
1.11 3.38 1.42 9.1477e-41
1.16 3.38 1.41 9.1477e-41
1.22 3.38 1.41 9.1477e-41
1.27 3.38 1.41 9.1477e-41
1.32 3.38 1.41 9.1477e-41
1.38 3.38 1.41 9.1477e-41
1.42 3.38 1.4 9.1477e-41
1.48 3.38 1.4 9.1477e-41
1.52 3.38 1.4 9.1477e-41
1.57 3.38 1.39 9.1477e-41
1.63 3.38 1.41 9.1477e-41
1.67 3.38 1.39 9.1477e-41
1.72 3.38 1.4 9.1477e-41
1.77 3.38 1.4 9.1477e-41
1.82 3.38 1.39 9.1477e-41
1.86 3.38 1.39 9.1477e-41
1.91 3.38 1.39 9.1477e-41
1.96 3.38 1.4 9.1477e-41
2.01 3.38 1.4 9.1477e-41
2.05 3.38 1.4 9.1477e-41
2.1 3.38 1.4 9.1477e-41
2.15 3.38 1.4 9.1477e-41
2.18 3.38 1.38 9.1477e-41
2.23 3.38 1.39 9.1477e-41
2.28 3.38 1.39 9.1477e-41
2.32 3.38 1.39 9.1477e-41
2.36 3.38 1.39 9.1477e-41
2.41 3.38 1.39 9.1477e-41
2.45 3.38 1.38 9.1477e-41
2.49 3.38 1.39 9.1477e-41
2.54 3.38 1.39 9.1477e-41
2.58 3.38 1.39 9.1477e-41
2.62 3.38 1.38 9.1477e-41
2.66 3.38 1.38 9.1477e-41
2.7 3.38 1.39 9.1477e-41
2.74 3.38 1.39 9.1477e-41
2.78 3.38 1.38 9.1477e-41
2.83 3.38 1.39 9.1477e-41
2.87 3.38 1.39 9.1477e-41
2.91 3.38 1.39 9.1477e-41
2.95 3.38 1.4 9.1477e-41
2.99 3.38 1.39 9.1477e-41
3.03 3.38 1.4 9.1477e-41
3.07 3.38 1.39 9.1477e-41
3.11 3.38 1.39 9.1477e-41
3.14 3.38 1.39 9.1477e-41
3.18 3.38 1.38 9.1477e-41
3.22 3.38 1.39 9.1477e-41
3.4 3.38 2.09 9.1477e-41
3.45 3.38 2.17 9.1477e-41
3.44 3.38 1.95 9.1477e-41
3.42 3.38 1.62 9.1477e-41
3.44 3.38 1.62 3.57e-43
3.36 3.38 0.76 9.1477e-41
0.99 3.39 2.16 9.1477e-41
0.99 3.39 2.1 9.1477e-41
0.99 3.39 2.04 9.1477e-41
0.98 3.39 1.97 9.1477e-41
0.98 3.39 1.89 9.1477e-41
0.98 3.39 1.83 9.1477e-41
0.98 3.39 1.76 9.1477e-41
0.97 3.39 1.68 9.1477e-41
0.97 3.39 1.61 9.1477e-41
0.97 3.39 1.52 9.1477e-41
0.97 3.39 1.45 9.1477e-41
0.99 3.39 1.4 9.1477e-41
1.06 3.39 1.42 9.1477e-41
1.1 3.39 1.4 9.1477e-41
1.16 3.39 1.41 9.1477e-41
1.22 3.39 1.41 9.1477e-41
1.27 3.39 1.41 9.1477e-41
1.32 3.39 1.4 9.1477e-41
1.38 3.39 1.41 9.1477e-41
1.42 3.39 1.4 9.1477e-41
1.47 3.39 1.39 9.1477e-41
1.53 3.39 1.41 9.1477e-41
1.57 3.39 1.39 9.1477e-41
1.63 3.39 1.4 9.1477e-41
1.68 3.39 1.4 9.1477e-41
1.73 3.39 1.41 9.1477e-41
1.77 3.39 1.39 9.1477e-41
1.82 3.39 1.4 9.1477e-41
1.87 3.39 1.4 9.1477e-41
1.91 3.39 1.39 9.1477e-41
1.96 3.39 1.39 9.1477e-41
2.01 3.39 1.4 9.1477e-41
2.05 3.39 1.39 9.1477e-41
2.1 3.39 1.39 9.1477e-41
2.14 3.39 1.39 9.1477e-41
2.19 3.39 1.39 9.1477e-41
2.24 3.39 1.4 9.1477e-41
2.27 3.39 1.39 9.1477e-41
2.32 3.39 1.39 9.1477e-41
2.37 3.39 1.4 9.1477e-41
2.41 3.39 1.39 9.1477e-41
2.45 3.39 1.39 9.1477e-41
2.49 3.39 1.39 9.1477e-41
2.54 3.39 1.4 9.1477e-41
2.58 3.39 1.39 9.1477e-41
2.62 3.39 1.39 9.1477e-41
2.66 3.39 1.39 9.1477e-41
2.7 3.39 1.39 9.1477e-41
2.74 3.39 1.39 9.1477e-41
2.78 3.39 1.38 9.1477e-41
2.82 3.39 1.38 9.1477e-41
2.87 3.39 1.39 9.1477e-41
2.91 3.39 1.39 9.1477e-41
2.95 3.39 1.39 9.1477e-41
2.99 3.39 1.39 9.1477e-41
3.03 3.39 1.39 9.1477e-41
3.07 3.39 1.39 9.1477e-41
3.11 3.39 1.39 9.1477e-41
3.14 3.39 1.39 9.1477e-41
3.18 3.39 1.39 9.1477e-41
3.22 3.39 1.39 9.1477e-41
3.4 3.39 2.11 9.1477e-41
3.44 3.39 2.16 9.1477e-41
3.44 3.39 1.95 9.1477e-41
3.42 3.39 1.62 9.1477e-41
3.45 3.39 1.59 9.1477e-41
3.42 3.39 1.17 9.1477e-41
0.99 3.4 2.16 9.1477e-41
0.98 3.4 2.09 9.1477e-41
0.98 3.4 2.03 9.1477e-41
0.98 3.4 1.97 9.1477e-41
0.98 3.4 1.89 9.1477e-41
0.97 3.4 1.82 9.1477e-41
0.98 3.4 1.76 9.1477e-41
0.97 3.4 1.68 9.1477e-41
0.97 3.4 1.61 9.1477e-41
0.97 3.4 1.52 9.1477e-41
0.97 3.4 1.45 9.1477e-41
1 3.4 1.42 9.1477e-41
1.06 3.4 1.42 9.1477e-41
1.11 3.4 1.42 9.1477e-41
1.16 3.4 1.41 9.1477e-41
1.22 3.4 1.41 9.1477e-41
1.27 3.4 1.41 9.1477e-41
1.32 3.4 1.41 9.1477e-41
1.38 3.4 1.41 9.1477e-41
1.42 3.4 1.4 9.1477e-41
1.48 3.4 1.4 9.1477e-41
1.52 3.4 1.4 9.1477e-41
1.58 3.4 1.4 9.1477e-41
1.63 3.4 1.4 9.1477e-41
1.68 3.4 1.4 9.1477e-41
1.73 3.4 1.41 9.1477e-41
1.77 3.4 1.4 9.1477e-41
1.82 3.4 1.4 9.1477e-41
1.86 3.4 1.39 9.1477e-41
1.92 3.4 1.4 9.1477e-41
1.96 3.4 1.39 9.1477e-41
2.01 3.4 1.41 9.1477e-41
2.05 3.4 1.39 9.1477e-41
2.1 3.4 1.4 9.1477e-41
2.14 3.4 1.39 9.1477e-41
2.19 3.4 1.4 9.1477e-41
2.23 3.4 1.39 9.1477e-41
2.27 3.4 1.39 9.1477e-41
2.32 3.4 1.39 9.1477e-41
2.36 3.4 1.38 9.1477e-41
2.41 3.4 1.4 9.1477e-41
2.45 3.4 1.39 9.1477e-41
2.49 3.4 1.39 9.1477e-41
2.53 3.4 1.38 9.1477e-41
2.58 3.4 1.4 9.1477e-41
2.62 3.4 1.38 9.1477e-41
2.66 3.4 1.39 9.1477e-41
2.7 3.4 1.4 9.1477e-41
2.74 3.4 1.38 9.1477e-41
2.79 3.4 1.4 9.1477e-41
2.82 3.4 1.38 9.1477e-41
2.87 3.4 1.39 9.1477e-41
2.91 3.4 1.4 9.1477e-41
2.95 3.4 1.4 9.1477e-41
2.99 3.4 1.39 9.1477e-41
3.03 3.4 1.4 9.1477e-41
3.07 3.4 1.39 9.1477e-41
3.11 3.4 1.39 9.1477e-41
3.14 3.4 1.39 9.1477e-41
3.18 3.4 1.39 9.1477e-41
3.22 3.4 1.39 9.1477e-41
3.4 3.4 2.1 9.1477e-41
3.45 3.4 2.17 9.1477e-41
3.44 3.4 1.94 9.1477e-41
3.42 3.4 1.63 9.1477e-41
3.45 3.4 1.58 9.1477e-41
3.43 3.4 1.21 9.1477e-41
0.99 3.41 2.16 9.1477e-41
0.99 3.41 2.1 9.1477e-41
0.98 3.41 2.03 9.1477e-41
0.99 3.41 1.98 9.1477e-41
0.98 3.41 1.89 9.1477e-41
0.97 3.41 1.82 9.1477e-41
0.98 3.41 1.75 9.1477e-41
0.97 3.41 1.68 9.1477e-41
0.97 3.41 1.61 9.1477e-41
0.97 3.41 1.52 9.1477e-41
0.97 3.41 1.45 9.1477e-41
0.99 3.41 1.4 9.1477e-41
1.05 3.41 1.41 9.1477e-41
1.11 3.41 1.41 9.1477e-41
1.17 3.41 1.41 9.1477e-41
1.22 3.41 1.41 9.1477e-41
1.27 3.41 1.41 9.1477e-41
1.32 3.41 1.41 9.1477e-41
1.38 3.41 1.41 9.1477e-41
1.43 3.41 1.41 9.1477e-41
1.48 3.41 1.4 9.1477e-41
1.53 3.41 1.41 9.1477e-41
1.58 3.41 1.41 9.1477e-41
1.63 3.41 1.41 9.1477e-41
1.68 3.41 1.4 9.1477e-41
1.72 3.41 1.39 9.1477e-41
1.78 3.41 1.4 9.1477e-41
1.82 3.41 1.39 9.1477e-41
1.87 3.41 1.4 9.1477e-41
1.92 3.41 1.4 9.1477e-41
1.96 3.41 1.4 9.1477e-41
2.01 3.41 1.41 9.1477e-41
2.05 3.41 1.39 9.1477e-41
2.1 3.41 1.4 9.1477e-41
2.14 3.41 1.39 9.1477e-41
2.19 3.41 1.4 9.1477e-41
2.23 3.41 1.39 9.1477e-41
2.28 3.41 1.39 9.1477e-41
2.32 3.41 1.4 9.1477e-41
2.36 3.41 1.39 9.1477e-41
2.41 3.41 1.4 9.1477e-41
2.45 3.41 1.39 9.1477e-41
2.49 3.41 1.39 9.1477e-41
2.54 3.41 1.39 9.1477e-41
2.58 3.41 1.4 9.1477e-41
2.62 3.41 1.39 9.1477e-41
2.66 3.41 1.39 9.1477e-41
2.7 3.41 1.39 9.1477e-41
2.74 3.41 1.39 9.1477e-41
2.79 3.41 1.39 9.1477e-41
2.83 3.41 1.39 9.1477e-41
2.87 3.41 1.4 9.1477e-41
2.9 3.41 1.38 9.1477e-41
2.95 3.41 1.39 9.1477e-41
2.99 3.41 1.4 9.1477e-41
3.03 3.41 1.39 9.1477e-41
3.07 3.41 1.39 9.1477e-41
3.11 3.41 1.39 9.1477e-41
3.14 3.41 1.39 9.1477e-41
3.18 3.41 1.39 9.1477e-41
3.22 3.41 1.38 9.1477e-41
3.4 3.41 2.11 9.1477e-41
3.45 3.41 2.17 9.1477e-41
3.44 3.41 1.95 9.1477e-41
3.42 3.41 1.63 9.1477e-41
3.45 3.41 1.58 9.1477e-41
3.43 3.41 1.23 9.1477e-41
0.99 3.42 2.16 9.1477e-41
0.99 3.42 2.1 9.1477e-41
0.99 3.42 2.04 9.1477e-41
0.98 3.42 1.97 9.1477e-41
0.98 3.42 1.9 9.1477e-41
0.98 3.42 1.83 9.1477e-41
0.98 3.42 1.75 9.1477e-41
0.97 3.42 1.68 9.1477e-41
0.97 3.42 1.61 9.1477e-41
0.97 3.42 1.53 9.1477e-41
0.97 3.42 1.45 9.1477e-41
1 3.42 1.41 9.1477e-41
1.06 3.42 1.42 9.1477e-41
1.11 3.42 1.41 9.1477e-41
1.16 3.42 1.41 9.1477e-41
1.22 3.42 1.41 9.1477e-41
1.27 3.42 1.41 9.1477e-41
1.32 3.42 1.4 9.1477e-41
1.38 3.42 1.41 9.1477e-41
1.43 3.42 1.41 9.1477e-41
1.48 3.42 1.4 9.1477e-41
1.53 3.42 1.41 9.1477e-41
1.58 3.42 1.41 9.1477e-41
1.63 3.42 1.4 9.1477e-41
1.67 3.42 1.39 9.1477e-41
1.72 3.42 1.39 9.1477e-41
1.78 3.42 1.4 9.1477e-41
1.82 3.42 1.4 9.1477e-41
1.87 3.42 1.4 9.1477e-41
1.92 3.42 1.4 9.1477e-41
1.96 3.42 1.4 9.1477e-41
2.01 3.42 1.4 9.1477e-41
2.05 3.42 1.39 9.1477e-41
2.1 3.42 1.4 9.1477e-41
2.15 3.42 1.4 9.1477e-41
2.19 3.42 1.4 9.1477e-41
2.23 3.42 1.39 9.1477e-41
2.28 3.42 1.39 9.1477e-41
2.32 3.42 1.4 9.1477e-41
2.36 3.42 1.39 9.1477e-41
2.41 3.42 1.39 9.1477e-41
2.45 3.42 1.4 9.1477e-41
2.49 3.42 1.39 9.1477e-41
2.54 3.42 1.39 9.1477e-41
2.58 3.42 1.4 9.1477e-41
2.62 3.42 1.39 9.1477e-41
2.66 3.42 1.39 9.1477e-41
2.7 3.42 1.39 9.1477e-41
2.74 3.42 1.39 9.1477e-41
2.78 3.42 1.37 9.1477e-41
2.83 3.42 1.39 9.1477e-41
2.87 3.42 1.39 9.1477e-41
2.91 3.42 1.39 9.1477e-41
2.95 3.42 1.4 9.1477e-41
2.99 3.42 1.4 9.1477e-41
3.03 3.42 1.4 9.1477e-41
3.07 3.42 1.4 9.1477e-41
3.11 3.42 1.39 9.1477e-41
3.14 3.42 1.39 9.1477e-41
3.18 3.42 1.39 9.1477e-41
3.22 3.42 1.39 9.1477e-41
3.4 3.42 2.11 9.1477e-41
3.45 3.42 2.18 9.1477e-41
3.44 3.42 1.95 9.1477e-41
3.42 3.42 1.63 9.1477e-41
3.45 3.42 1.58 9.1477e-41
3.43 3.42 1.24 9.1477e-41
0.98 3.43 2.15 9.1477e-41
0.99 3.43 2.1 9.1477e-41
0.98 3.43 2.03 9.1477e-41
0.98 3.43 1.97 9.1477e-41
0.98 3.43 1.9 9.1477e-41
0.98 3.43 1.83 9.1477e-41
0.98 3.43 1.75 9.1477e-41
0.98 3.43 1.69 9.1477e-41
0.97 3.43 1.61 9.1477e-41
0.97 3.43 1.52 9.1477e-41
0.97 3.43 1.45 9.1477e-41
0.99 3.43 1.4 9.1477e-41
1.06 3.43 1.42 9.1477e-41
1.11 3.43 1.42 9.1477e-41
1.16 3.43 1.41 9.1477e-41
1.22 3.43 1.41 9.1477e-41
1.27 3.43 1.41 9.1477e-41
1.33 3.43 1.41 9.1477e-41
1.38 3.43 1.41 9.1477e-41
1.43 3.43 1.41 9.1477e-41
1.48 3.43 1.41 9.1477e-41
1.53 3.43 1.41 9.1477e-41
1.58 3.43 1.41 9.1477e-41
1.63 3.43 1.4 9.1477e-41
1.68 3.43 1.4 9.1477e-41
1.72 3.43 1.4 9.1477e-41
1.78 3.43 1.4 9.1477e-41
1.82 3.43 1.4 9.1477e-41
1.87 3.43 1.41 9.1477e-41
1.92 3.43 1.4 9.1477e-41
1.97 3.43 1.41 9.1477e-41
2.01 3.43 1.4 9.1477e-41
2.05 3.43 1.39 9.1477e-41
2.1 3.43 1.4 9.1477e-41
2.15 3.43 1.4 9.1477e-41
2.19 3.43 1.39 9.1477e-41
2.23 3.43 1.38 9.1477e-41
2.27 3.43 1.39 9.1477e-41
2.32 3.43 1.39 9.1477e-41
2.36 3.43 1.39 9.1477e-41
2.41 3.43 1.4 9.1477e-41
2.45 3.43 1.39 9.1477e-41
2.49 3.43 1.39 9.1477e-41
2.54 3.43 1.39 9.1477e-41
2.58 3.43 1.39 9.1477e-41
2.62 3.43 1.39 9.1477e-41
2.66 3.43 1.39 9.1477e-41
2.7 3.43 1.4 9.1477e-41
2.74 3.43 1.39 9.1477e-41
2.79 3.43 1.39 9.1477e-41
2.83 3.43 1.39 9.1477e-41
2.86 3.43 1.38 9.1477e-41
2.91 3.43 1.4 9.1477e-41
2.95 3.43 1.4 9.1477e-41
2.99 3.43 1.4 9.1477e-41
3.03 3.43 1.4 9.1477e-41
3.07 3.43 1.39 9.1477e-41
3.11 3.43 1.4 9.1477e-41
3.14 3.43 1.38 9.1477e-41
3.18 3.43 1.39 9.1477e-41
3.22 3.43 1.39 9.1477e-41
3.4 3.43 2.1 9.1477e-41
3.45 3.43 2.17 9.1477e-41
3.44 3.43 1.96 9.1477e-41
3.42 3.43 1.63 9.1477e-41
3.45 3.43 1.58 9.1477e-41
3.43 3.43 1.24 9.1477e-41
0.99 3.44 2.16 9.1477e-41
0.99 3.44 2.11 9.1477e-41
0.98 3.44 2.03 9.1477e-41
0.99 3.44 1.98 9.1477e-41
0.98 3.44 1.89 9.1477e-41
0.98 3.44 1.83 9.1477e-41
0.98 3.44 1.76 9.1477e-41
0.97 3.44 1.68 9.1477e-41
0.97 3.44 1.61 9.1477e-41
0.97 3.44 1.53 9.1477e-41
0.97 3.44 1.45 9.1477e-41
1 3.44 1.41 9.1477e-41
1.06 3.44 1.42 9.1477e-41
1.11 3.44 1.42 9.1477e-41
1.16 3.44 1.41 9.1477e-41
1.22 3.44 1.41 9.1477e-41
1.27 3.44 1.41 9.1477e-41
1.32 3.44 1.41 9.1477e-41
1.37 3.44 1.4 9.1477e-41
1.42 3.44 1.4 9.1477e-41
1.48 3.44 1.4 9.1477e-41
1.53 3.44 1.41 9.1477e-41
1.58 3.44 1.41 9.1477e-41
1.63 3.44 1.4 9.1477e-41
1.68 3.44 1.4 9.1477e-41
1.73 3.44 1.41 9.1477e-41
1.78 3.44 1.4 9.1477e-41
1.82 3.44 1.4 9.1477e-41
1.87 3.44 1.4 9.1477e-41
1.92 3.44 1.4 9.1477e-41
1.96 3.44 1.4 9.1477e-41
2.01 3.44 1.41 9.1477e-41
2.05 3.44 1.4 9.1477e-41
2.1 3.44 1.4 9.1477e-41
2.14 3.44 1.39 9.1477e-41
2.19 3.44 1.4 9.1477e-41
2.24 3.44 1.4 9.1477e-41
2.28 3.44 1.39 9.1477e-41
2.32 3.44 1.4 9.1477e-41
2.36 3.44 1.39 9.1477e-41
2.41 3.44 1.4 9.1477e-41
2.45 3.44 1.38 9.1477e-41
2.49 3.44 1.39 9.1477e-41
2.54 3.44 1.39 9.1477e-41
2.58 3.44 1.39 9.1477e-41
2.62 3.44 1.39 9.1477e-41
2.66 3.44 1.39 9.1477e-41
2.7 3.44 1.39 9.1477e-41
2.74 3.44 1.39 9.1477e-41
2.79 3.44 1.39 9.1477e-41
2.83 3.44 1.39 9.1477e-41
2.87 3.44 1.39 9.1477e-41
2.91 3.44 1.39 9.1477e-41
2.95 3.44 1.39 9.1477e-41
2.99 3.44 1.4 9.1477e-41
3.03 3.44 1.39 9.1477e-41
3.07 3.44 1.39 9.1477e-41
3.11 3.44 1.39 9.1477e-41
3.14 3.44 1.39 9.1477e-41
3.18 3.44 1.38 9.1477e-41
3.22 3.44 1.39 9.1477e-41
3.4 3.44 2.11 9.1477e-41
3.44 3.44 2.16 9.1477e-41
3.44 3.44 1.95 9.1477e-41
3.42 3.44 1.63 9.1477e-41
3.45 3.44 1.59 9.1477e-41
3.43 3.44 1.21 9.1477e-41
3.38 3.44 0.57 9.1477e-41
0.99 3.45 2.16 9.1477e-41
0.99 3.45 2.11 9.1477e-41
0.98 3.45 2.03 9.1477e-41
0.98 3.45 1.97 9.1477e-41
0.98 3.45 1.9 9.1477e-41
0.98 3.45 1.83 9.1477e-41
0.98 3.45 1.75 9.1477e-41
0.97 3.45 1.68 9.1477e-41
0.97 3.45 1.61 9.1477e-41
0.97 3.45 1.52 9.1477e-41
0.97 3.45 1.45 9.1477e-41
1 3.45 1.41 9.1477e-41
1.06 3.45 1.42 9.1477e-41
1.11 3.45 1.42 9.1477e-41
1.17 3.45 1.41 9.1477e-41
1.22 3.45 1.41 9.1477e-41
1.27 3.45 1.41 9.1477e-41
1.33 3.45 1.41 9.1477e-41
1.38 3.45 1.41 9.1477e-41
1.43 3.45 1.41 9.1477e-41
1.48 3.45 1.4 9.1477e-41
1.53 3.45 1.41 9.1477e-41
1.58 3.45 1.4 9.1477e-41
1.63 3.45 1.41 9.1477e-41
1.68 3.45 1.4 9.1477e-41
1.72 3.45 1.4 9.1477e-41
1.78 3.45 1.4 9.1477e-41
1.83 3.45 1.41 9.1477e-41
1.87 3.45 1.41 9.1477e-41
1.92 3.45 1.4 9.1477e-41
1.97 3.45 1.41 9.1477e-41
2.01 3.45 1.41 9.1477e-41
2.05 3.45 1.4 9.1477e-41
2.1 3.45 1.41 9.1477e-41
2.14 3.45 1.39 9.1477e-41
2.19 3.45 1.4 9.1477e-41
2.23 3.45 1.39 9.1477e-41
2.28 3.45 1.39 9.1477e-41
2.32 3.45 1.4 9.1477e-41
2.36 3.45 1.39 9.1477e-41
2.41 3.45 1.4 9.1477e-41
2.45 3.45 1.39 9.1477e-41
2.5 3.45 1.4 9.1477e-41
2.54 3.45 1.39 9.1477e-41
2.58 3.45 1.4 9.1477e-41
2.62 3.45 1.39 9.1477e-41
2.66 3.45 1.4 9.1477e-41
2.7 3.45 1.39 9.1477e-41
2.74 3.45 1.39 9.1477e-41
2.79 3.45 1.4 9.1477e-41
2.83 3.45 1.4 9.1477e-41
2.87 3.45 1.4 9.1477e-41
2.91 3.45 1.39 9.1477e-41
2.95 3.45 1.4 9.1477e-41
2.99 3.45 1.39 9.1477e-41
3.03 3.45 1.4 9.1477e-41
3.07 3.45 1.4 9.1477e-41
3.11 3.45 1.39 9.1477e-41
3.15 3.45 1.4 9.1477e-41
3.18 3.45 1.39 9.1477e-41
3.23 3.45 1.4 9.1477e-41
3.4 3.45 2.1 9.1477e-41
3.44 3.45 2.16 9.1477e-41
3.44 3.45 1.95 9.1477e-41
3.42 3.45 1.63 9.1477e-41
3.45 3.45 1.59 9.1477e-41
3.4 3.45 1.04 9.1477e-41
3.39 3.45 0.65 9.1477e-41
0.99 3.46 2.16 9.1477e-41
0.98 3.46 2.09 9.1477e-41
0.98 3.46 2.03 9.1477e-41
0.98 3.46 1.97 9.1477e-41
0.98 3.46 1.9 9.1477e-41
0.97 3.46 1.82 9.1477e-41
0.98 3.46 1.75 9.1477e-41
0.97 3.46 1.68 9.1477e-41
0.97 3.46 1.61 9.1477e-41
0.97 3.46 1.52 9.1477e-41
0.97 3.46 1.45 9.1477e-41
1 3.46 1.41 9.1477e-41
1.05 3.46 1.41 9.1477e-41
1.11 3.46 1.42 9.1477e-41
1.16 3.46 1.41 9.1477e-41
1.22 3.46 1.41 9.1477e-41
1.27 3.46 1.41 9.1477e-41
1.33 3.46 1.41 9.1477e-41
1.37 3.46 1.4 9.1477e-41
1.43 3.46 1.41 9.1477e-41
1.48 3.46 1.4 9.1477e-41
1.53 3.46 1.41 9.1477e-41
1.58 3.46 1.41 9.1477e-41
1.63 3.46 1.4 9.1477e-41
1.68 3.46 1.4 9.1477e-41
1.72 3.46 1.4 9.1477e-41
1.78 3.46 1.4 9.1477e-41
1.82 3.46 1.39 9.1477e-41
1.87 3.46 1.4 9.1477e-41
1.92 3.46 1.41 9.1477e-41
1.96 3.46 1.4 9.1477e-41
2.01 3.46 1.41 9.1477e-41
2.06 3.46 1.41 9.1477e-41
2.1 3.46 1.4 9.1477e-41
2.15 3.46 1.4 9.1477e-41
2.2 3.46 1.41 9.1477e-41
2.24 3.46 1.4 9.1477e-41
2.28 3.46 1.39 9.1477e-41
2.32 3.46 1.4 9.1477e-41
2.37 3.46 1.4 9.1477e-41
2.41 3.46 1.39 9.1477e-41
2.45 3.46 1.4 9.1477e-41
2.5 3.46 1.4 9.1477e-41
2.54 3.46 1.4 9.1477e-41
2.58 3.46 1.4 9.1477e-41
2.62 3.46 1.4 9.1477e-41
2.66 3.46 1.39 9.1477e-41
2.7 3.46 1.4 9.1477e-41
2.74 3.46 1.39 9.1477e-41
2.79 3.46 1.39 9.1477e-41
2.83 3.46 1.4 9.1477e-41
2.87 3.46 1.4 9.1477e-41
2.91 3.46 1.4 9.1477e-41
2.95 3.46 1.39 9.1477e-41
2.99 3.46 1.39 9.1477e-41
3.03 3.46 1.4 9.1477e-41
3.07 3.46 1.39 9.1477e-41
3.11 3.46 1.4 9.1477e-41
3.14 3.46 1.39 9.1477e-41
3.18 3.46 1.39 9.1477e-41
3.22 3.46 1.38 9.1477e-41
3.4 3.46 2.11 9.1477e-41
3.45 3.46 2.17 9.1477e-41
3.44 3.46 1.94 9.1477e-41
3.42 3.46 1.62 9.1477e-41
3.44 3.46 1.57 9.1477e-41
3.39 3.46 0.99 9.1477e-41
3.4 3.46 0.7 9.1477e-41
3.41 3.46 0.46 9.1477e-41
0.99 3.47 2.16 9.1477e-41
0.99 3.47 2.1 9.1477e-41
0.98 3.47 2.03 9.1477e-41
0.98 3.47 1.96 9.1477e-41
0.98 3.47 1.89 9.1477e-41
0.99 3.47 1.84 9.1477e-41
0.98 3.47 1.76 9.1477e-41
0.97 3.47 1.67 9.1477e-41
0.97 3.47 1.61 9.1477e-41
0.97 3.47 1.52 9.1477e-41
0.97 3.47 1.45 9.1477e-41
1 3.47 1.41 9.1477e-41
1.05 3.47 1.41 9.1477e-41
1.11 3.47 1.42 9.1477e-41
1.17 3.47 1.41 9.1477e-41
1.22 3.47 1.41 9.1477e-41
1.27 3.47 1.41 9.1477e-41
1.32 3.47 1.41 9.1477e-41
1.38 3.47 1.41 9.1477e-41
1.43 3.47 1.41 9.1477e-41
1.48 3.47 1.4 9.1477e-41
1.54 3.47 1.41 9.1477e-41
1.58 3.47 1.41 9.1477e-41
1.63 3.47 1.41 9.1477e-41
1.68 3.47 1.4 9.1477e-41
1.72 3.47 1.4 9.1477e-41
1.78 3.47 1.4 9.1477e-41
1.82 3.47 1.4 9.1477e-41
1.87 3.47 1.4 9.1477e-41
1.92 3.47 1.4 9.1477e-41
1.96 3.47 1.4 9.1477e-41
2.02 3.47 1.41 9.1477e-41
2.05 3.47 1.4 9.1477e-41
2.1 3.47 1.41 9.1477e-41
2.15 3.47 1.4 9.1477e-41
2.19 3.47 1.39 9.1477e-41
2.24 3.47 1.4 9.1477e-41
2.28 3.47 1.39 9.1477e-41
2.33 3.47 1.41 9.1477e-41
2.36 3.47 1.39 9.1477e-41
2.41 3.47 1.4 9.1477e-41
2.45 3.47 1.39 9.1477e-41
2.49 3.47 1.39 9.1477e-41
2.54 3.47 1.4 9.1477e-41
2.58 3.47 1.4 9.1477e-41
2.62 3.47 1.39 9.1477e-41
2.66 3.47 1.4 9.1477e-41
2.71 3.47 1.4 9.1477e-41
2.74 3.47 1.39 9.1477e-41
2.78 3.47 1.38 9.1477e-41
2.83 3.47 1.4 9.1477e-41
2.87 3.47 1.4 9.1477e-41
2.91 3.47 1.39 9.1477e-41
2.95 3.47 1.4 9.1477e-41
2.99 3.47 1.4 9.1477e-41
3.03 3.47 1.39 9.1477e-41
3.07 3.47 1.4 9.1477e-41
3.11 3.47 1.39 9.1477e-41
3.15 3.47 1.4 9.1477e-41
3.18 3.47 1.39 9.1477e-41
3.23 3.47 1.4 9.1477e-41
3.4 3.47 2.11 9.1477e-41
3.45 3.47 2.18 9.1477e-41
3.44 3.47 1.95 9.1477e-41
3.42 3.47 1.63 9.1477e-41
3.45 3.47 1.59 9.1477e-41
3.39 3.47 0.94 9.1477e-41
3.4 3.47 0.74 9.1477e-41
3.42 3.47 0.55 9.1477e-41
0.99 3.48 2.16 9.1477e-41
0.99 3.48 2.1 9.1477e-41
0.98 3.48 2.03 9.1477e-41
0.98 3.48 1.97 9.1477e-41
0.98 3.48 1.89 9.1477e-41
0.98 3.48 1.83 9.1477e-41
0.98 3.48 1.76 9.1477e-41
0.97 3.48 1.68 9.1477e-41
0.97 3.48 1.61 9.1477e-41
0.97 3.48 1.52 9.1477e-41
0.97 3.48 1.45 9.1477e-41
1 3.48 1.41 9.1477e-41
1.06 3.48 1.42 9.1477e-41
1.11 3.48 1.41 9.1477e-41
1.17 3.48 1.41 9.1477e-41
1.22 3.48 1.41 9.1477e-41
1.27 3.48 1.41 9.1477e-41
1.32 3.48 1.41 9.1477e-41
1.38 3.48 1.41 9.1477e-41
1.42 3.48 1.4 9.1477e-41
1.48 3.48 1.4 9.1477e-41
1.53 3.48 1.41 9.1477e-41
1.58 3.48 1.41 9.1477e-41
1.63 3.48 1.41 9.1477e-41
1.68 3.48 1.4 9.1477e-41
1.72 3.48 1.4 9.1477e-41
1.78 3.48 1.4 9.1477e-41
1.82 3.48 1.4 9.1477e-41
1.87 3.48 1.4 9.1477e-41
1.92 3.48 1.4 9.1477e-41
1.97 3.48 1.41 9.1477e-41
2.01 3.48 1.4 9.1477e-41
2.06 3.48 1.41 9.1477e-41
2.1 3.48 1.4 9.1477e-41
2.15 3.48 1.4 9.1477e-41
2.2 3.48 1.41 9.1477e-41
2.24 3.48 1.4 9.1477e-41
2.28 3.48 1.39 9.1477e-41
2.32 3.48 1.4 9.1477e-41
2.37 3.48 1.4 9.1477e-41
2.41 3.48 1.4 9.1477e-41
2.45 3.48 1.39 9.1477e-41
2.5 3.48 1.4 9.1477e-41
2.54 3.48 1.39 9.1477e-41
2.58 3.48 1.4 9.1477e-41
2.62 3.48 1.39 9.1477e-41
2.66 3.48 1.4 9.1477e-41
2.7 3.48 1.4 9.1477e-41
2.74 3.48 1.39 9.1477e-41
2.79 3.48 1.4 9.1477e-41
2.82 3.48 1.38 9.1477e-41
2.87 3.48 1.4 9.1477e-41
2.91 3.48 1.4 9.1477e-41
2.95 3.48 1.39 9.1477e-41
2.99 3.48 1.4 9.1477e-41
3.03 3.48 1.4 9.1477e-41
3.07 3.48 1.4 9.1477e-41
3.11 3.48 1.39 9.1477e-41
3.15 3.48 1.4 9.1477e-41
3.18 3.48 1.39 9.1477e-41
3.22 3.48 1.38 9.1477e-41
3.4 3.48 2.11 9.1477e-41
3.45 3.48 2.17 9.1477e-41
3.44 3.48 1.95 9.1477e-41
3.42 3.48 1.62 9.1477e-41
3.44 3.48 1.57 9.1477e-41
3.38 3.48 0.87 9.1477e-41
3.41 3.48 0.77 9.1477e-41
3.43 3.48 0.62 9.1477e-41
0.99 3.49 2.16 9.1477e-41
0.99 3.49 2.1 9.1477e-41
0.98 3.49 2.03 9.1477e-41
0.98 3.49 1.97 9.1477e-41
0.98 3.49 1.89 9.1477e-41
0.98 3.49 1.83 9.1477e-41
0.98 3.49 1.75 9.1477e-41
0.97 3.49 1.68 9.1477e-41
0.97 3.49 1.61 9.1477e-41
0.97 3.49 1.52 9.1477e-41
0.97 3.49 1.45 9.1477e-41
1 3.49 1.41 9.1477e-41
1.06 3.49 1.42 9.1477e-41
1.11 3.49 1.41 9.1477e-41
1.17 3.49 1.41 9.1477e-41
1.22 3.49 1.41 9.1477e-41
1.27 3.49 1.41 9.1477e-41
1.32 3.49 1.41 9.1477e-41
1.38 3.49 1.42 9.1477e-41
1.43 3.49 1.41 9.1477e-41
1.48 3.49 1.4 9.1477e-41
1.53 3.49 1.41 9.1477e-41
1.58 3.49 1.4 9.1477e-41
1.63 3.49 1.41 9.1477e-41
1.68 3.49 1.4 9.1477e-41
1.73 3.49 1.41 9.1477e-41
1.78 3.49 1.4 9.1477e-41
1.82 3.49 1.4 9.1477e-41
1.87 3.49 1.4 9.1477e-41
1.92 3.49 1.4 9.1477e-41
1.97 3.49 1.41 9.1477e-41
2.01 3.49 1.4 9.1477e-41
2.05 3.49 1.4 9.1477e-41
2.1 3.49 1.4 9.1477e-41
2.15 3.49 1.4 9.1477e-41
2.19 3.49 1.4 9.1477e-41
2.24 3.49 1.4 9.1477e-41
2.28 3.49 1.4 9.1477e-41
2.32 3.49 1.4 9.1477e-41
2.37 3.49 1.4 9.1477e-41
2.41 3.49 1.4 9.1477e-41
2.45 3.49 1.39 9.1477e-41
2.5 3.49 1.4 9.1477e-41
2.54 3.49 1.4 9.1477e-41
2.58 3.49 1.4 9.1477e-41
2.62 3.49 1.39 9.1477e-41
2.66 3.49 1.39 9.1477e-41
2.7 3.49 1.39 9.1477e-41
2.74 3.49 1.39 9.1477e-41
2.79 3.49 1.39 9.1477e-41
2.83 3.49 1.4 9.1477e-41
2.87 3.49 1.4 9.1477e-41
2.91 3.49 1.4 9.1477e-41
2.95 3.49 1.4 9.1477e-41
2.99 3.49 1.39 9.1477e-41
3.03 3.49 1.4 9.1477e-41
3.07 3.49 1.4 9.1477e-41
3.11 3.49 1.4 9.1477e-41
3.14 3.49 1.39 9.1477e-41
3.18 3.49 1.39 9.1477e-41
3.22 3.49 1.39 9.1477e-41
3.4 3.49 2.1 9.1477e-41
3.45 3.49 2.18 9.1477e-41
3.44 3.49 1.96 9.1477e-41
3.42 3.49 1.63 9.1477e-41
3.45 3.49 1.58 9.1477e-41
3.38 3.49 0.89 9.1477e-41
3.41 3.49 0.79 9.1477e-41
3.43 3.49 0.66 9.1477e-41
0.99 3.5 2.16 9.1477e-41
0.99 3.5 2.1 9.1477e-41
0.98 3.5 2.03 9.1477e-41
0.98 3.5 1.97 9.1477e-41
0.98 3.5 1.89 9.1477e-41
0.98 3.5 1.83 9.1477e-41
0.98 3.5 1.75 9.1477e-41
0.98 3.5 1.69 9.1477e-41
0.97 3.5 1.61 9.1477e-41
0.97 3.5 1.52 9.1477e-41
0.97 3.5 1.45 9.1477e-41
1 3.5 1.41 9.1477e-41
1.05 3.5 1.41 9.1477e-41
1.11 3.5 1.41 9.1477e-41
1.17 3.5 1.41 9.1477e-41
1.22 3.5 1.41 9.1477e-41
1.27 3.5 1.41 9.1477e-41
1.32 3.5 1.41 9.1477e-41
1.38 3.5 1.42 9.1477e-41
1.42 3.5 1.4 9.1477e-41
1.47 3.5 1.39 9.1477e-41
1.53 3.5 1.41 9.1477e-41
1.58 3.5 1.41 9.1477e-41
1.63 3.5 1.41 9.1477e-41
1.67 3.5 1.39 9.1477e-41
1.72 3.5 1.4 9.1477e-41
1.78 3.5 1.4 9.1477e-41
1.82 3.5 1.4 9.1477e-41
1.87 3.5 1.41 9.1477e-41
1.92 3.5 1.4 9.1477e-41
1.96 3.5 1.4 9.1477e-41
2.01 3.5 1.4 9.1477e-41
2.06 3.5 1.41 9.1477e-41
2.1 3.5 1.4 9.1477e-41
2.15 3.5 1.41 9.1477e-41
2.19 3.5 1.4 9.1477e-41
2.24 3.5 1.41 9.1477e-41
2.28 3.5 1.39 9.1477e-41
2.33 3.5 1.41 9.1477e-41
2.37 3.5 1.4 9.1477e-41
2.41 3.5 1.4 9.1477e-41
2.45 3.5 1.4 9.1477e-41
2.49 3.5 1.39 9.1477e-41
2.54 3.5 1.39 9.1477e-41
2.58 3.5 1.39 9.1477e-41
2.62 3.5 1.4 9.1477e-41
2.66 3.5 1.39 9.1477e-41
2.7 3.5 1.4 9.1477e-41
2.74 3.5 1.39 9.1477e-41
2.79 3.5 1.39 9.1477e-41
2.83 3.5 1.39 9.1477e-41
2.87 3.5 1.39 9.1477e-41
2.91 3.5 1.4 9.1477e-41
2.95 3.5 1.4 9.1477e-41
2.99 3.5 1.39 9.1477e-41
3.03 3.5 1.4 9.1477e-41
3.07 3.5 1.39 9.1477e-41
3.11 3.5 1.4 9.1477e-41
3.15 3.5 1.4 9.1477e-41
3.19 3.5 1.4 9.1477e-41
3.22 3.5 1.38 9.1477e-41
3.4 3.5 2.12 9.1477e-41
3.45 3.5 2.17 9.1477e-41
3.44 3.5 1.94 9.1477e-41
3.42 3.5 1.63 9.1477e-41
3.45 3.5 1.59 9.1477e-41
3.38 3.5 0.91 9.1477e-41
3.41 3.5 0.81 9.1477e-41
3.44 3.5 0.67 9.1477e-41
0.99 3.51 2.16 9.1477e-41
0.99 3.51 2.11 9.1477e-41
0.98 3.51 2.03 9.1477e-41
0.98 3.51 1.97 9.1477e-41
0.98 3.51 1.89 9.1477e-41
0.98 3.51 1.83 9.1477e-41
0.98 3.51 1.75 9.1477e-41
0.98 3.51 1.69 9.1477e-41
0.97 3.51 1.61 9.1477e-41
0.97 3.51 1.52 9.1477e-41
0.97 3.51 1.45 9.1477e-41
1 3.51 1.41 9.1477e-41
1.05 3.51 1.41 9.1477e-41
1.11 3.51 1.42 9.1477e-41
1.17 3.51 1.41 9.1477e-41
1.22 3.51 1.41 9.1477e-41
1.27 3.51 1.41 9.1477e-41
1.33 3.51 1.41 9.1477e-41
1.37 3.51 1.4 9.1477e-41
1.42 3.51 1.4 9.1477e-41
1.48 3.51 1.4 9.1477e-41
1.52 3.51 1.4 9.1477e-41
1.58 3.51 1.4 9.1477e-41
1.63 3.51 1.41 9.1477e-41
1.68 3.51 1.4 9.1477e-41
1.72 3.51 1.4 9.1477e-41
1.78 3.51 1.4 9.1477e-41
1.82 3.51 1.39 9.1477e-41
1.87 3.51 1.41 9.1477e-41
1.92 3.51 1.4 9.1477e-41
1.96 3.51 1.4 9.1477e-41
2.01 3.51 1.4 9.1477e-41
2.06 3.51 1.41 9.1477e-41
2.1 3.51 1.4 9.1477e-41
2.15 3.51 1.4 9.1477e-41
2.19 3.51 1.4 9.1477e-41
2.23 3.51 1.39 9.1477e-41
2.28 3.51 1.39 9.1477e-41
2.32 3.51 1.4 9.1477e-41
2.37 3.51 1.4 9.1477e-41
2.41 3.51 1.39 9.1477e-41
2.45 3.51 1.39 9.1477e-41
2.49 3.51 1.39 9.1477e-41
2.54 3.51 1.39 9.1477e-41
2.58 3.51 1.4 9.1477e-41
2.62 3.51 1.39 9.1477e-41
2.66 3.51 1.4 9.1477e-41
2.7 3.51 1.4 9.1477e-41
2.74 3.51 1.39 9.1477e-41
2.79 3.51 1.39 9.1477e-41
2.83 3.51 1.39 9.1477e-41
2.87 3.51 1.39 9.1477e-41
2.91 3.51 1.39 9.1477e-41
2.95 3.51 1.4 9.1477e-41
2.99 3.51 1.39 9.1477e-41
3.03 3.51 1.41 9.1477e-41
3.07 3.51 1.39 9.1477e-41
3.11 3.51 1.39 9.1477e-41
3.14 3.51 1.39 9.1477e-41
3.18 3.51 1.38 9.1477e-41
3.22 3.51 1.39 9.1477e-41
3.4 3.51 2.12 9.1477e-41
3.45 3.51 2.17 9.1477e-41
3.44 3.51 1.94 9.1477e-41
3.42 3.51 1.63 9.1477e-41
3.45 3.51 1.58 9.1477e-41
3.39 3.51 0.93 9.1477e-41
3.42 3.51 0.84 9.1477e-41
3.44 3.51 0.69 9.1477e-41
0.99 3.52 2.16 9.1477e-41
0.99 3.52 2.1 9.1477e-41
0.98 3.52 2.03 9.1477e-41
0.98 3.52 1.97 9.1477e-41
0.98 3.52 1.89 9.1477e-41
0.98 3.52 1.83 9.1477e-41
0.98 3.52 1.76 9.1477e-41
0.97 3.52 1.68 9.1477e-41
0.97 3.52 1.61 9.1477e-41
0.97 3.52 1.53 9.1477e-41
0.97 3.52 1.45 9.1477e-41
1 3.52 1.41 9.1477e-41
1.05 3.52 1.41 9.1477e-41
1.11 3.52 1.42 9.1477e-41
1.16 3.52 1.41 9.1477e-41
1.22 3.52 1.41 9.1477e-41
1.27 3.52 1.41 9.1477e-41
1.32 3.52 1.41 9.1477e-41
1.38 3.52 1.42 9.1477e-41
1.42 3.52 1.4 9.1477e-41
1.48 3.52 1.41 9.1477e-41
1.53 3.52 1.41 9.1477e-41
1.58 3.52 1.41 9.1477e-41
1.63 3.52 1.41 9.1477e-41
1.67 3.52 1.39 9.1477e-41
1.73 3.52 1.41 9.1477e-41
1.78 3.52 1.4 9.1477e-41
1.83 3.52 1.41 9.1477e-41
1.87 3.52 1.4 9.1477e-41
1.92 3.52 1.4 9.1477e-41
1.96 3.52 1.4 9.1477e-41
2.01 3.52 1.41 9.1477e-41
2.05 3.52 1.4 9.1477e-41
2.1 3.52 1.4 9.1477e-41
2.15 3.52 1.4 9.1477e-41
2.19 3.52 1.39 9.1477e-41
2.24 3.52 1.4 9.1477e-41
2.28 3.52 1.39 9.1477e-41
2.33 3.52 1.41 9.1477e-41
2.37 3.52 1.4 9.1477e-41
2.41 3.52 1.4 9.1477e-41
2.45 3.52 1.4 9.1477e-41
2.49 3.52 1.39 9.1477e-41
2.54 3.52 1.39 9.1477e-41
2.58 3.52 1.39 9.1477e-41
2.62 3.52 1.39 9.1477e-41
2.66 3.52 1.4 9.1477e-41
2.7 3.52 1.39 9.1477e-41
2.74 3.52 1.39 9.1477e-41
2.79 3.52 1.39 9.1477e-41
2.83 3.52 1.4 9.1477e-41
2.87 3.52 1.39 9.1477e-41
2.91 3.52 1.39 9.1477e-41
2.95 3.52 1.4 9.1477e-41
2.99 3.52 1.39 9.1477e-41
3.03 3.52 1.4 9.1477e-41
3.07 3.52 1.4 9.1477e-41
3.11 3.52 1.39 9.1477e-41
3.14 3.52 1.39 9.1477e-41
3.18 3.52 1.39 9.1477e-41
3.22 3.52 1.39 9.1477e-41
3.4 3.52 2.12 9.1477e-41
3.45 3.52 2.18 9.1477e-41
3.44 3.52 1.94 9.1477e-41
3.42 3.52 1.61 9.1477e-41
3.45 3.52 1.58 9.1477e-41
3.39 3.52 0.95 9.1477e-41
3.42 3.52 0.85 9.1477e-41
3.44 3.52 0.68 9.1477e-41
0.99 3.53 2.16 9.1477e-41
0.99 3.53 2.1 9.1477e-41
0.98 3.53 2.03 9.1477e-41
0.98 3.53 1.97 9.1477e-41
0.98 3.53 1.89 9.1477e-41
0.97 3.53 1.82 9.1477e-41
0.98 3.53 1.76 9.1477e-41
0.97 3.53 1.68 9.1477e-41
0.97 3.53 1.61 9.1477e-41
0.97 3.53 1.52 9.1477e-41
0.97 3.53 1.45 9.1477e-41
1 3.53 1.41 9.1477e-41
1.05 3.53 1.41 9.1477e-41
1.11 3.53 1.41 9.1477e-41
1.16 3.53 1.4 9.1477e-41
1.22 3.53 1.41 9.1477e-41
1.27 3.53 1.41 9.1477e-41
1.32 3.53 1.41 9.1477e-41
1.38 3.53 1.41 9.1477e-41
1.42 3.53 1.4 9.1477e-41
1.48 3.53 1.4 9.1477e-41
1.53 3.53 1.41 9.1477e-41
1.58 3.53 1.41 9.1477e-41
1.63 3.53 1.41 9.1477e-41
1.68 3.53 1.4 9.1477e-41
1.73 3.53 1.41 9.1477e-41
1.77 3.53 1.4 9.1477e-41
1.82 3.53 1.39 9.1477e-41
1.87 3.53 1.41 9.1477e-41
1.92 3.53 1.4 9.1477e-41
1.96 3.53 1.4 9.1477e-41
2 3.53 1.39 9.1477e-41
2.05 3.53 1.4 9.1477e-41
2.1 3.53 1.39 9.1477e-41
2.15 3.53 1.4 9.1477e-41
2.19 3.53 1.4 9.1477e-41
2.23 3.53 1.38 9.1477e-41
2.28 3.53 1.4 9.1477e-41
2.32 3.53 1.39 9.1477e-41
2.37 3.53 1.4 9.1477e-41
2.41 3.53 1.4 9.1477e-41
2.45 3.53 1.39 9.1477e-41
2.49 3.53 1.39 9.1477e-41
2.54 3.53 1.39 9.1477e-41
2.58 3.53 1.4 9.1477e-41
2.62 3.53 1.39 9.1477e-41
2.66 3.53 1.39 9.1477e-41
2.7 3.53 1.39 9.1477e-41
2.74 3.53 1.39 9.1477e-41
2.79 3.53 1.39 9.1477e-41
2.83 3.53 1.39 9.1477e-41
2.87 3.53 1.4 9.1477e-41
2.91 3.53 1.4 9.1477e-41
2.95 3.53 1.39 9.1477e-41
2.99 3.53 1.4 9.1477e-41
3.03 3.53 1.39 9.1477e-41
3.07 3.53 1.4 9.1477e-41
3.11 3.53 1.39 9.1477e-41
3.14 3.53 1.38 9.1477e-41
3.18 3.53 1.39 9.1477e-41
3.22 3.53 1.38 9.1477e-41
3.4 3.53 2.12 9.1477e-41
3.45 3.53 2.17 9.1477e-41
3.44 3.53 1.94 9.1477e-41
3.42 3.53 1.62 9.1477e-41
3.45 3.53 1.58 9.1477e-41
3.39 3.53 0.98 9.1477e-41
3.42 3.53 0.86 9.1477e-41
3.44 3.53 0.69 9.1477e-41
0.99 3.54 2.16 9.1477e-41
0.99 3.54 2.1 9.1477e-41
0.98 3.54 2.03 9.1477e-41
0.98 3.54 1.97 9.1477e-41
0.98 3.54 1.89 9.1477e-41
0.97 3.54 1.82 9.1477e-41
0.98 3.54 1.75 9.1477e-41
0.97 3.54 1.68 9.1477e-41
0.97 3.54 1.61 9.1477e-41
0.97 3.54 1.52 9.1477e-41
0.97 3.54 1.45 9.1477e-41
1 3.54 1.41 9.1477e-41
1.06 3.54 1.42 9.1477e-41
1.11 3.54 1.42 9.1477e-41
1.17 3.54 1.41 9.1477e-41
1.23 3.54 1.42 9.1477e-41
1.27 3.54 1.41 9.1477e-41
1.32 3.54 1.41 9.1477e-41
1.38 3.54 1.41 9.1477e-41
1.42 3.54 1.4 9.1477e-41
1.48 3.54 1.4 9.1477e-41
1.53 3.54 1.41 9.1477e-41
1.58 3.54 1.4 9.1477e-41
1.63 3.54 1.41 9.1477e-41
1.68 3.54 1.4 9.1477e-41
1.72 3.54 1.4 9.1477e-41
1.78 3.54 1.41 9.1477e-41
1.82 3.54 1.4 9.1477e-41
1.87 3.54 1.4 9.1477e-41
1.92 3.54 1.4 9.1477e-41
1.96 3.54 1.39 9.1477e-41
2.01 3.54 1.4 9.1477e-41
2.05 3.54 1.4 9.1477e-41
2.1 3.54 1.4 9.1477e-41
2.15 3.54 1.4 9.1477e-41
2.19 3.54 1.4 9.1477e-41
2.24 3.54 1.4 9.1477e-41
2.28 3.54 1.39 9.1477e-41
2.32 3.54 1.4 9.1477e-41
2.36 3.54 1.39 9.1477e-41
2.41 3.54 1.39 9.1477e-41
2.45 3.54 1.39 9.1477e-41
2.49 3.54 1.39 9.1477e-41
2.54 3.54 1.4 9.1477e-41
2.58 3.54 1.4 9.1477e-41
2.62 3.54 1.39 9.1477e-41
2.66 3.54 1.39 9.1477e-41
2.7 3.54 1.4 9.1477e-41
2.74 3.54 1.38 9.1477e-41
2.79 3.54 1.39 9.1477e-41
2.83 3.54 1.39 9.1477e-41
2.87 3.54 1.4 9.1477e-41
2.91 3.54 1.39 9.1477e-41
2.95 3.54 1.39 9.1477e-41
2.99 3.54 1.4 9.1477e-41
3.03 3.54 1.4 9.1477e-41
3.07 3.54 1.39 9.1477e-41
3.11 3.54 1.39 9.1477e-41
3.14 3.54 1.38 9.1477e-41
3.19 3.54 1.4 9.1477e-41
3.22 3.54 1.39 9.1477e-41
3.4 3.54 2.12 9.1477e-41
3.45 3.54 2.17 9.1477e-41
3.44 3.54 1.94 9.1477e-41
3.42 3.54 1.63 9.1477e-41
3.44 3.54 1.57 9.1477e-41
3.39 3.54 0.98 9.1477e-41
3.42 3.54 0.87 9.1477e-41
3.44 3.54 0.69 9.1477e-41
0.99 3.55 2.16 9.1477e-41
0.99 3.55 2.1 9.1477e-41
0.98 3.55 2.03 9.1477e-41
0.98 3.55 1.96 9.1477e-41
0.98 3.55 1.89 9.1477e-41
0.98 3.55 1.83 9.1477e-41
0.98 3.55 1.75 9.1477e-41
0.97 3.55 1.68 9.1477e-41
0.98 3.55 1.61 9.1477e-41
0.97 3.55 1.52 9.1477e-41
0.97 3.55 1.45 9.1477e-41
1 3.55 1.41 9.1477e-41
1.05 3.55 1.41 9.1477e-41
1.11 3.55 1.41 9.1477e-41
1.16 3.55 1.41 9.1477e-41
1.22 3.55 1.41 9.1477e-41
1.27 3.55 1.41 9.1477e-41
1.32 3.55 1.41 9.1477e-41
1.38 3.55 1.41 9.1477e-41
1.43 3.55 1.41 9.1477e-41
1.48 3.55 1.4 9.1477e-41
1.53 3.55 1.41 9.1477e-41
1.58 3.55 1.4 9.1477e-41
1.63 3.55 1.4 9.1477e-41
1.68 3.55 1.41 9.1477e-41
1.73 3.55 1.41 9.1477e-41
1.78 3.55 1.4 9.1477e-41
1.82 3.55 1.4 9.1477e-41
1.87 3.55 1.4 9.1477e-41
1.92 3.55 1.41 9.1477e-41
1.96 3.55 1.4 9.1477e-41
2.01 3.55 1.41 9.1477e-41
2.05 3.55 1.39 9.1477e-41
2.1 3.55 1.41 9.1477e-41
2.15 3.55 1.4 9.1477e-41
2.19 3.55 1.39 9.1477e-41
2.24 3.55 1.4 9.1477e-41
2.28 3.55 1.39 9.1477e-41
2.32 3.55 1.4 9.1477e-41
2.36 3.55 1.39 9.1477e-41
2.41 3.55 1.4 9.1477e-41
2.45 3.55 1.39 9.1477e-41
2.49 3.55 1.39 9.1477e-41
2.54 3.55 1.39 9.1477e-41
2.58 3.55 1.4 9.1477e-41
2.62 3.55 1.39 9.1477e-41
2.66 3.55 1.39 9.1477e-41
2.7 3.55 1.4 9.1477e-41
2.74 3.55 1.39 9.1477e-41
2.79 3.55 1.39 9.1477e-41
2.83 3.55 1.39 9.1477e-41
2.87 3.55 1.4 9.1477e-41
2.91 3.55 1.4 9.1477e-41
2.95 3.55 1.4 9.1477e-41
2.99 3.55 1.39 9.1477e-41
3.03 3.55 1.4 9.1477e-41
3.07 3.55 1.4 9.1477e-41
3.11 3.55 1.39 9.1477e-41
3.14 3.55 1.39 9.1477e-41
3.18 3.55 1.39 9.1477e-41
3.22 3.55 1.39 9.1477e-41
3.4 3.55 2.12 9.1477e-41
3.45 3.55 2.17 9.1477e-41
3.44 3.55 1.93 9.1477e-41
3.42 3.55 1.62 9.1477e-41
3.45 3.55 1.58 9.1477e-41
3.4 3.55 1 9.1477e-41
3.42 3.55 0.88 9.1477e-41
3.43 3.55 0.66 9.1477e-41
0.99 3.56 2.16 9.1477e-41
0.99 3.56 2.1 9.1477e-41
0.98 3.56 2.03 9.1477e-41
0.98 3.56 1.97 9.1477e-41
0.98 3.56 1.9 9.1477e-41
0.98 3.56 1.83 9.1477e-41
0.98 3.56 1.75 9.1477e-41
0.97 3.56 1.68 9.1477e-41
0.98 3.56 1.61 9.1477e-41
0.97 3.56 1.52 9.1477e-41
0.97 3.56 1.45 9.1477e-41
1 3.56 1.41 9.1477e-41
1.06 3.56 1.42 9.1477e-41
1.11 3.56 1.41 9.1477e-41
1.17 3.56 1.41 9.1477e-41
1.22 3.56 1.41 9.1477e-41
1.27 3.56 1.41 9.1477e-41
1.33 3.56 1.41 9.1477e-41
1.38 3.56 1.41 9.1477e-41
1.43 3.56 1.41 9.1477e-41
1.48 3.56 1.4 9.1477e-41
1.52 3.56 1.4 9.1477e-41
1.58 3.56 1.41 9.1477e-41
1.63 3.56 1.41 9.1477e-41
1.68 3.56 1.4 9.1477e-41
1.72 3.56 1.4 9.1477e-41
1.78 3.56 1.4 9.1477e-41
1.82 3.56 1.4 9.1477e-41
1.87 3.56 1.4 9.1477e-41
1.92 3.56 1.41 9.1477e-41
1.96 3.56 1.4 9.1477e-41
2.01 3.56 1.4 9.1477e-41
2.05 3.56 1.4 9.1477e-41
2.1 3.56 1.41 9.1477e-41
2.14 3.56 1.39 9.1477e-41
2.19 3.56 1.4 9.1477e-41
2.24 3.56 1.41 9.1477e-41
2.28 3.56 1.4 9.1477e-41
2.32 3.56 1.4 9.1477e-41
2.36 3.56 1.39 9.1477e-41
2.41 3.56 1.4 9.1477e-41
2.45 3.56 1.39 9.1477e-41
2.5 3.56 1.4 9.1477e-41
