# .PCD v.7 - Point Cloud Data file format
VERSION .7
FIELDS x y z rgb
SIZE 4 4 4 4
TYPE F F F F
WIDTH 1729
HEIGHT 1
POINTS 1729
DATA ascii
5.17 0 0.45 9.1477e-41
5.2 0 0.5 9.1477e-41
5.25 0 0.52 9.1477e-41
5.29 0 0.54 9.1477e-41
5.34 0 0.54 3.57e-43
5.52 0 0.54 3.57e-43
5.58 0 0.54 3.57e-43
5.63 0 0.54 3.57e-43
5.69 0 0.54 3.57e-43
5.74 0 0.54 3.57e-43
5.8 0 0.54 3.57e-43
5.75 0 0.5 9.1477e-41
5 0.06 0.54 9.1477e-41
5.05 0.06 0.54 9.1477e-41
5.1 0.06 0.55 9.1477e-41
5.13 0.06 0.55 3.57e-43
5.2 0.06 0.55 3.57e-43
5.25 0.06 0.55 3.57e-43
5.29 0.06 0.55 3.57e-43
5.34 0.06 0.55 3.57e-43
5.52 0.06 0.55 3.57e-43
5.45 0.06 0.65 9.1477e-41
5.5 0.06 0.66 9.1477e-41
5.54 0.06 0.68 9.1477e-41
5.59 0.06 0.67 9.1477e-41
5.65 0.06 0.67 3.57e-43
5.75 0.06 0.67 3.57e-43
5.83 0.06 0.67 3.57e-43
6.01 0.06 0.67 3.57e-43
5.94 0.06 0.53 9.1477e-41
6 0.06 0.52 9.1477e-41
5 0.12 0.54 9.1477e-41
5.04 0.12 0.63 9.1477e-41
5.08 0.12 0.63 9.1477e-41
5.13 0.12 0.63 3.57e-43
5.2 0.12 0.63 3.57e-43
5.25 0.12 0.63 3.57e-43
5.29 0.12 0.63 3.57e-43
5.34 0.12 0.63 3.57e-43
5.52 0.12 0.63 3.57e-43
5.44 0.12 0.72 9.1477e-41
5.48 0.12 0.71 9.1477e-41
5.53 0.12 0.73 9.1477e-41
5.57 0.12 0.74 9.1477e-41
5.63 0.12 0.71 9.1477e-41
5.68 0.12 0.71 3.57e-43
5.83 0.12 0.71 3.57e-43
6.01 0.12 0.71 3.57e-43
6.08 0.12 0.71 3.57e-43
5.94 0.12 0.53 9.1477e-41
5.97 0.12 0.61 9.1477e-41
6.02 0.12 0.61 3.57e-43
4.94 0.18 0.63 9.1477e-41
4.99 0.18 0.62 9.1477e-41
5.04 0.18 0.63 9.1477e-41
5.08 0.18 0.63 3.57e-43
5.13 0.18 0.63 3.57e-43
5.2 0.18 0.63 3.57e-43
5.25 0.18 0.63 3.57e-43
5.29 0.18 0.63 3.57e-43
5.34 0.18 0.63 3.57e-43
5.52 0.18 0.63 3.57e-43
5.58 0.18 0.63 3.57e-43
5.44 0.18 0.63 3.57e-43
5.48 0.18 0.63 3.57e-43
5.53 0.18 0.63 3.57e-43
5.57 0.18 0.63 3.57e-43
5.63 0.18 0.63 3.57e-43
5.68 0.18 0.63 3.57e-43
5.83 0.18 0.63 3.57e-43
6.01 0.18 0.63 3.57e-43
6.08 0.18 0.63 3.57e-43
5.94 0.18 0.63 3.57e-43
5.97 0.18 0.61 9.1477e-41
6 0.18 0.66 9.1477e-41
6.07 0.18 0.62 9.1477e-41
6.11 0.18 0.62 3.57e-43
4.85 0.24 0.64 9.1477e-41
4.9 0.24 0.63 9.1477e-41
4.94 0.24 0.67 9.1477e-41
4.98 0.24 0.66 9.1477e-41
5.04 0.24 0.66 3.57e-43
5.08 0.24 0.66 3.57e-43
5.13 0.24 0.66 3.57e-43
5.2 0.24 0.66 3.57e-43
5.25 0.24 0.66 3.57e-43
5.29 0.24 0.66 3.57e-43
5.34 0.24 0.66 3.57e-43
5.52 0.24 0.66 3.57e-43
5.58 0.24 0.66 3.57e-43
5.44 0.24 0.66 3.57e-43
5.48 0.24 0.66 3.57e-43
5.53 0.24 0.66 3.57e-43
5.57 0.24 0.66 3.57e-43
5.63 0.24 0.66 3.57e-43
5.68 0.24 0.66 3.57e-43
5.83 0.24 0.66 3.57e-43
6.01 0.24 0.66 3.57e-43
6.08 0.24 0.66 3.57e-43
5.94 0.24 0.66 3.57e-43
5.97 0.24 0.66 3.57e-43
6 0.24 0.66 9.1477e-41
6.06 0.24 0.63 9.1477e-41
6.12 0.24 0.62 9.1477e-41
6.16 0.24 0.66 9.1477e-41
6.24 0.24 0.59 9.1477e-41
4.8 0.3 0.67 9.1477e-41
4.85 0.3 0.64 9.1477e-41
4.89 0.3 0.67 9.1477e-41
4.94 0.3 0.67 9.1477e-41
4.97 0.3 0.67 3.57e-43
5.04 0.3 0.67 3.57e-43
5.08 0.3 0.67 3.57e-43
5.13 0.3 0.67 3.57e-43
5.2 0.3 0.67 3.57e-43
5.25 0.3 0.67 3.57e-43
5.29 0.3 0.67 3.57e-43
5.34 0.3 0.67 3.57e-43
5.52 0.3 0.67 3.57e-43
5.58 0.3 0.67 3.57e-43
5.44 0.3 0.67 3.57e-43
5.48 0.3 0.67 3.57e-43
5.53 0.3 0.67 3.57e-43
5.57 0.3 0.67 3.57e-43
5.63 0.3 0.67 3.57e-43
5.68 0.3 0.67 3.57e-43
5.83 0.3 0.67 3.57e-43
6.01 0.3 0.67 3.57e-43
6.08 0.3 0.67 3.57e-43
5.94 0.3 0.67 3.57e-43
5.97 0.3 0.67 3.57e-43
6 0.3 0.67 3.57e-43
6.06 0.3 0.67 3.57e-43
6.12 0.3 0.62 9.1477e-41
6.15 0.3 0.68 9.1477e-41
6.22 0.3 0.64 9.1477e-41
6.27 0.3 0.65 9.1477e-41
4.79 0.36 0.72 9.1477e-41
4.83 0.36 0.78 9.1477e-41
4.87 0.36 0.79 9.1477e-41
4.92 0.36 0.78 9.1477e-41
4.96 0.36 0.78 3.57e-43
5.04 0.36 0.78 3.57e-43
5.08 0.36 0.78 3.57e-43
5.13 0.36 0.78 3.57e-43
5.2 0.36 0.78 3.57e-43
5.25 0.36 0.78 3.57e-43
5.29 0.36 0.78 3.57e-43
5.34 0.36 0.78 3.57e-43
5.52 0.36 0.78 3.57e-43
5.58 0.36 0.78 3.57e-43
5.44 0.36 0.78 3.57e-43
5.48 0.36 0.78 3.57e-43
5.53 0.36 0.78 3.57e-43
5.57 0.36 0.78 3.57e-43
5.63 0.36 0.78 3.57e-43
5.68 0.36 0.78 3.57e-43
5.83 0.36 0.78 3.57e-43
6.01 0.36 0.78 3.57e-43
6.08 0.36 0.78 3.57e-43
5.94 0.36 0.78 3.57e-43
5.97 0.36 0.78 3.57e-43
6 0.36 0.78 3.57e-43
6.06 0.36 0.78 3.57e-43
6.12 0.36 0.78 3.57e-43
6.15 0.36 0.68 9.1477e-41
6.22 0.36 0.64 9.1477e-41
6.26 0.36 0.66 9.1477e-41
6.34 0.36 0.6 9.1477e-41
4.76 0.42 0.68 9.1477e-41
4.79 0.42 0.74 9.1477e-41
4.83 0.42 0.79 9.1477e-41
4.87 0.42 0.8 9.1477e-41
4.92 0.42 0.8 3.57e-43
4.96 0.42 0.8 3.57e-43
5.04 0.42 0.8 3.57e-43
5.08 0.42 0.8 3.57e-43
5.13 0.42 0.8 3.57e-43
5.2 0.42 0.8 3.57e-43
5.25 0.42 0.8 3.57e-43
5.29 0.42 0.8 3.57e-43
5.34 0.42 0.8 3.57e-43
5.52 0.42 0.8 3.57e-43
5.58 0.42 0.8 3.57e-43
5.44 0.42 0.8 3.57e-43
5.48 0.42 0.8 3.57e-43
5.53 0.42 0.8 3.57e-43
5.57 0.42 0.8 3.57e-43
5.63 0.42 0.8 3.57e-43
5.68 0.42 0.8 3.57e-43
5.83 0.42 0.8 3.57e-43
6.01 0.42 0.8 3.57e-43
6.08 0.42 0.8 3.57e-43
5.94 0.42 0.8 3.57e-43
5.97 0.42 0.8 3.57e-43
6 0.42 0.8 3.57e-43
6.06 0.42 0.8 3.57e-43
6.12 0.42 0.8 3.57e-43
6.15 0.42 0.68 9.1477e-41
6.16 0.42 0.78 9.1477e-41
6.21 0.42 0.79 9.1477e-41
6.27 0.42 0.77 9.1477e-41
4.76 0.48 0.68 9.1477e-41
4.79 0.48 0.76 9.1477e-41
4.83 0.48 0.8 9.1477e-41
4.87 0.48 0.8 3.57e-43
4.92 0.48 0.8 3.57e-43
4.96 0.48 0.8 3.57e-43
5.04 0.48 0.8 3.57e-43
5.08 0.48 0.8 3.57e-43
5.13 0.48 0.8 3.57e-43
5.2 0.48 0.8 3.57e-43
5.25 0.48 0.8 3.57e-43
5.29 0.48 0.8 3.57e-43
5.34 0.48 0.8 3.57e-43
5.52 0.48 0.8 3.57e-43
5.58 0.48 0.8 3.57e-43
5.44 0.48 0.8 3.57e-43
5.48 0.48 0.8 3.57e-43
5.53 0.48 0.8 3.57e-43
5.57 0.48 0.8 3.57e-43
5.63 0.48 0.8 3.57e-43
5.68 0.48 0.8 3.57e-43
5.83 0.48 0.8 3.57e-43
6.01 0.48 0.8 3.57e-43
6.08 0.48 0.8 3.57e-43
5.94 0.48 0.8 3.57e-43
5.97 0.48 0.8 3.57e-43
6 0.48 0.8 3.57e-43
6.06 0.48 0.8 3.57e-43
6.12 0.48 0.8 3.57e-43
6.15 0.48 0.8 3.57e-43
6.16 0.48 0.8 3.57e-43
6.21 0.48 0.79 9.1477e-41
6.26 0.48 0.79 9.1477e-41
4.76 0.54 0.68 9.1477e-41
4.78 0.54 0.82 9.1477e-41
4.82 0.54 0.82 9.1477e-41
4.86 0.54 0.82 3.57e-43
4.92 0.54 0.82 3.57e-43
4.96 0.54 0.82 3.57e-43
5.04 0.54 0.82 3.57e-43
5.08 0.54 0.82 3.57e-43
5.13 0.54 0.82 3.57e-43
5.2 0.54 0.82 3.57e-43
5.25 0.54 0.82 3.57e-43
5.29 0.54 0.82 3.57e-43
5.34 0.54 0.82 3.57e-43
5.52 0.54 0.82 3.57e-43
5.58 0.54 0.82 3.57e-43
5.44 0.54 0.82 3.57e-43
5.48 0.54 0.82 3.57e-43
5.53 0.54 0.82 3.57e-43
5.57 0.54 0.82 3.57e-43
5.63 0.54 0.82 3.57e-43
5.68 0.54 0.82 3.57e-43
5.83 0.54 0.82 3.57e-43
6.01 0.54 0.82 3.57e-43
6.08 0.54 0.82 3.57e-43
5.94 0.54 0.82 3.57e-43
5.97 0.54 0.82 3.57e-43
6 0.54 0.82 3.57e-43
6.06 0.54 0.82 3.57e-43
6.12 0.54 0.82 3.57e-43
6.15 0.54 0.82 3.57e-43
6.16 0.54 0.82 3.57e-43
6.21 0.54 0.79 9.1477e-41
6.26 0.54 0.79 9.1477e-41
6.32 0.54 0.76 9.1477e-41
4.76 0.6 0.68 9.1477e-41
4.78 0.6 0.84 9.1477e-41
4.82 0.6 0.85 9.1477e-41
4.86 0.6 0.85 3.57e-43
4.92 0.6 0.85 3.57e-43
4.96 0.6 0.85 3.57e-43
5.04 0.6 0.85 3.57e-43
5.08 0.6 0.85 3.57e-43
5.13 0.6 0.85 3.57e-43
5.2 0.6 0.85 3.57e-43
5.25 0.6 0.85 3.57e-43
5.29 0.6 0.85 3.57e-43
5.34 0.6 0.53 9.1477e-41
5.29 0.6 0.53 3.57e-43
5.58 0.6 0.53 3.57e-43
5.44 0.6 0.53 3.57e-43
5.48 0.6 0.53 3.57e-43
5.53 0.6 0.53 3.57e-43
5.57 0.6 0.53 3.57e-43
5.63 0.6 0.53 3.57e-43
5.68 0.6 0.53 3.57e-43
5.83 0.6 0.53 3.57e-43
6.01 0.6 0.53 3.57e-43
6.08 0.6 0.53 3.57e-43
5.94 0.6 0.53 3.57e-43
5.97 0.6 0.53 3.57e-43
6 0.6 0.53 3.57e-43
6.06 0.6 0.53 3.57e-43
6.12 0.6 0.53 3.57e-43
6.15 0.6 0.53 3.57e-43
6.16 0.6 0.53 3.57e-43
6.21 0.6 0.53 3.57e-43
6.26 0.6 0.79 9.1477e-41
6.3 0.6 0.82 9.1477e-41
4.74 0.66 0.84 3.57e-43
4.82 0.66 0.87 9.1477e-41
4.86 0.66 0.87 3.57e-43
4.92 0.66 0.87 3.57e-43
4.96 0.66 0.78 9.1477e-41
4.98 0.66 0.78 3.57e-43
5.08 0.66 0.63 9.1477e-41
5.07 0.66 0.63 3.57e-43
5.2 0.66 0.63 3.57e-43
5.25 0.66 0.63 3.57e-43
5.29 0.66 0.63 3.57e-43
5.34 0.66 0.63 3.57e-43
5.29 0.66 0.63 3.57e-43
5.58 0.66 0.63 3.57e-43
5.44 0.66 0.63 3.57e-43
5.48 0.66 0.63 3.57e-43
5.53 0.66 0.63 3.57e-43
5.57 0.66 0.63 3.57e-43
5.63 0.66 0.63 3.57e-43
5.68 0.66 0.63 3.57e-43
5.83 0.66 0.63 3.57e-43
6.01 0.66 0.63 3.57e-43
6.08 0.66 0.63 3.57e-43
5.94 0.66 0.63 3.57e-43
5.97 0.66 0.63 3.57e-43
6 0.66 0.63 3.57e-43
6.06 0.66 0.63 3.57e-43
6.12 0.66 0.63 3.57e-43
6.15 0.66 0.63 3.57e-43
6.16 0.66 0.63 3.57e-43
6.21 0.66 0.63 3.57e-43
6.26 0.66 0.63 3.57e-43
6.3 0.66 0.82 9.1477e-41
4.74 0.72 0.84 3.57e-43
4.81 0.72 0.84 3.57e-43
4.86 0.72 0.84 3.57e-43
4.92 0.72 0.78 9.1477e-41
4.93 0.72 0.78 3.57e-43
4.98 0.72 0.78 3.57e-43
5.08 0.72 0.78 3.57e-43
5.07 0.72 0.94 9.1477e-41
5.11 0.72 0.93 9.1477e-41
5.16 0.72 0.93 9.1477e-41
5.2 0.72 0.94 9.1477e-41
5.24 0.72 0.94 9.1477e-41
5.29 0.72 0.93 9.1477e-41
5.33 0.72 0.94 9.1477e-41
5.38 0.72 0.94 9.1477e-41
5.42 0.72 0.95 9.1477e-41
5.46 0.72 0.95 9.1477e-41
5.51 0.72 0.96 9.1477e-41
5.56 0.72 0.95 9.1477e-41
5.6 0.72 0.96 9.1477e-41
5.65 0.72 0.96 9.1477e-41
5.69 0.72 0.97 9.1477e-41
5.74 0.72 0.96 9.1477e-41
5.8 0.72 0.94 9.1477e-41
5.85 0.72 0.92 9.1477e-41
5.91 0.72 0.9 9.1477e-41
5.95 0.72 0.9 3.57e-43
6.12 0.72 0.9 3.57e-43
6.15 0.72 0.9 3.57e-43
6.16 0.72 0.9 3.57e-43
6.21 0.72 0.9 3.57e-43
6.26 0.72 0.9 3.57e-43
6.3 0.72 0.82 9.1477e-41
4.89 0.78 0.94 3.57e-43
4.93 0.78 0.96 9.1477e-41
4.98 0.78 0.92 9.1477e-41
5.02 0.78 0.92 9.1477e-41
5.07 0.78 0.93 9.1477e-41
5.11 0.78 0.93 9.1477e-41
5.16 0.78 0.93 9.1477e-41
5.2 0.78 0.94 9.1477e-41
5.23 0.78 0.94 3.57e-43
5.29 0.78 0.93 9.1477e-41
5.32 0.78 0.97 9.1477e-41
5.37 0.78 0.99 9.1477e-41
5.42 0.78 0.97 9.1477e-41
5.46 0.78 0.98 9.1477e-41
5.5 0.78 0.97 9.1477e-41
5.55 0.78 0.97 3.57e-43
5.6 0.78 0.96 9.1477e-41
5.64 0.78 0.99 9.1477e-41
5.68 0.78 0.98 9.1477e-41
5.74 0.78 0.98 3.57e-43
5.8 0.78 0.98 3.57e-43
5.85 0.78 0.92 9.1477e-41
5.89 0.78 0.95 9.1477e-41
5.94 0.78 0.94 9.1477e-41
6 0.78 0.93 9.1477e-41
6.06 0.78 0.89 9.1477e-41
6.12 0.78 0.89 3.57e-43
6.21 0.78 0.89 3.57e-43
6.26 0.78 0.89 3.57e-43
6.3 0.78 0.82 9.1477e-41
4.85 0.84 0.94 3.57e-43
4.89 0.84 0.94 9.1477e-41
4.94 0.84 0.94 9.1477e-41
4.98 0.84 0.93 9.1477e-41
5.02 0.84 0.93 3.57e-43
5.07 0.84 0.93 9.1477e-41
5.1 0.84 1 9.1477e-41
5.14 0.84 1 3.57e-43
5.2 0.84 1 3.57e-43
5.23 0.84 1 3.57e-43
5.29 0.84 1 3.57e-43
5.32 0.84 1 3.57e-43
5.37 0.84 1 3.57e-43
5.42 0.84 1 3.57e-43
5.46 0.84 1 3.57e-43
5.5 0.84 1 3.57e-43
5.55 0.84 1 3.57e-43
5.6 0.84 1 3.57e-43
5.64 0.84 1 3.57e-43
5.68 0.84 1 3.57e-43
5.74 0.84 1 3.57e-43
5.8 0.84 1 3.57e-43
5.85 0.84 1 3.57e-43
5.89 0.84 1 3.57e-43
5.94 0.84 1 3.57e-43
6 0.84 1 3.57e-43
6.06 0.84 0.89 9.1477e-41
6.09 0.84 0.94 9.1477e-41
6.15 0.84 0.92 9.1477e-41
6.2 0.84 0.92 3.57e-43
6.3 0.84 0.82 9.1477e-41
4.7 0.9 0.88 3.57e-43
4.85 0.9 0.94 9.1477e-41
4.89 0.9 0.94 3.57e-43
4.94 0.9 0.94 3.57e-43
4.98 0.9 0.93 9.1477e-41
5.01 0.9 0.98 9.1477e-41
5.06 0.9 0.99 9.1477e-41
5.1 0.9 0.99 3.57e-43
5.14 0.9 0.99 3.57e-43
5.2 0.9 0.99 3.57e-43
5.23 0.9 0.99 3.57e-43
5.29 0.9 0.99 3.57e-43
5.32 0.9 0.99 3.57e-43
5.37 0.9 0.99 3.57e-43
5.42 0.9 0.99 3.57e-43
5.46 0.9 0.99 3.57e-43
5.5 0.9 0.99 3.57e-43
5.55 0.9 0.99 3.57e-43
5.6 0.9 0.99 3.57e-43
5.64 0.9 0.99 3.57e-43
5.68 0.9 0.99 3.57e-43
5.74 0.9 0.99 3.57e-43
5.8 0.9 0.99 3.57e-43
5.85 0.9 0.99 3.57e-43
5.89 0.9 0.99 3.57e-43
5.94 0.9 0.99 3.57e-43
6 0.9 0.99 3.57e-43
6.06 0.9 0.99 3.57e-43
6.09 0.9 0.99 3.57e-43
6.15 0.9 0.92 9.1477e-41
6.2 0.9 0.91 9.1477e-41
6.25 0.9 0.93 9.1477e-41
4.87 0.96 1.1 3.57e-43
4.9 0.96 1.1 3.57e-43
4.98 0.96 1.1 3.57e-43
5.01 0.96 1.1 3.57e-43
5.06 0.96 1.1 3.57e-43
5.1 0.96 1.1 3.57e-43
5.14 0.96 1.1 3.57e-43
5.2 0.96 1.1 3.57e-43
5.23 0.96 1.1 3.57e-43
5.29 0.96 1.1 3.57e-43
5.32 0.96 1.1 3.57e-43
5.37 0.96 0.99 3.57e-43
5.42 0.96 0.97 3.57e-43
5.45 0.96 1.01 3.57e-43
5.49 0.96 1.01 3.57e-43
5.54 0.96 1.01 3.57e-43
5.6 0.96 1.01 3.57e-43
5.64 0.96 1.01 3.57e-43
5.68 0.96 1.01 3.57e-43
5.74 0.96 1.01 3.57e-43
5.8 0.96 0.94 9.1477e-41
5.82 0.96 1.01 9.1477e-41
5.86 0.96 1.03 9.1477e-41
5.91 0.96 1.03 3.57e-43
6 0.96 1.03 3.57e-43
6.06 0.96 1.03 3.57e-43
6.09 0.96 1.03 3.57e-43
6.15 0.96 1.03 3.57e-43
6.2 0.96 1.03 3.57e-43
6.25 0.96 0.93 9.1477e-41
4.87 1.02 1.1 3.57e-43
4.9 1.02 1.1 3.57e-43
4.98 1.02 1.1 3.57e-43
5.01 1.02 1.1 3.57e-43
5.06 1.02 1.1 3.57e-43
5.1 1.02 1.1 3.57e-43
5.14 1.02 1.1 3.57e-43
5.2 1.02 1.1 3.57e-43
5.23 1.02 1.1 3.57e-43
5.29 1.02 1.1 3.57e-43
5.32 1.02 1.1 3.57e-43
5.37 1.02 0.99 3.57e-43
5.42 1.02 0.97 3.57e-43
5.45 1.02 1.01 3.57e-43
5.49 1.02 1.01 3.57e-43
5.54 1.02 1.01 3.57e-43
5.6 1.02 1.01 3.57e-43
5.64 1.02 1.01 3.57e-43
5.68 1.02 1.01 3.57e-43
5.74 1.02 1.01 3.57e-43
5.8 1.02 0.94 9.1477e-41
5.81 1.02 1.03 9.1477e-41
5.86 1.02 1.03 9.1477e-41
5.91 1.02 1.03 9.1477e-41
5.95 1.02 1.03 3.57e-43
6.06 1.02 1.03 3.57e-43
6.09 1.02 1.03 3.57e-43
6.15 1.02 1.03 3.57e-43
6.2 1.02 0.91 9.1477e-41
6.23 1.02 0.97 9.1477e-41
4.71 1.08 1.02 3.57e-43
4.77 1.08 1.02 3.57e-43
4.81 1.08 1.02 3.57e-43
4.85 1.08 0.94 3.57e-43
4.87 1.08 1.1 3.57e-43
4.9 1.08 1.1 3.57e-43
4.98 1.08 1.1 3.57e-43
5.01 1.08 1.1 3.57e-43
5.06 1.08 1.1 3.57e-43
5.1 1.08 1.1 3.57e-43
5.14 1.08 1.1 3.57e-43
5.2 1.08 1.1 3.57e-43
5.23 1.08 1.1 3.57e-43
5.29 1.08 1.1 3.57e-43
5.32 1.08 1.1 3.57e-43
5.37 1.08 0.99 3.57e-43
5.42 1.08 0.97 9.1477e-41
5.45 1.08 1.01 9.1477e-41
5.49 1.08 1.01 9.1477e-41
5.54 1.08 1.01 3.57e-43
5.6 1.08 1.01 3.57e-43
5.64 1.08 1.01 3.57e-43
5.68 1.08 1.01 3.57e-43
5.74 1.08 1.01 3.57e-43
5.8 1.08 1.01 3.57e-43
5.81 1.08 1.01 3.57e-43
5.86 1.08 1.01 3.57e-43
5.91 1.08 1.01 3.57e-43
5.95 1.08 1.01 3.57e-43
6.06 1.08 1.01 3.57e-43
6.09 1.08 1.01 3.57e-43
6.15 1.08 1.01 3.57e-43
6.2 1.08 0.91 9.1477e-41
6.21 1.08 0.91 3.57e-43
4.71 1.14 1.02 3.57e-43
4.77 1.14 1.02 3.57e-43
4.81 1.14 1.02 3.57e-43
4.85 1.14 0.94 3.57e-43
4.87 1.14 1.1 3.57e-43
4.9 1.14 1.1 3.57e-43
4.98 1.14 1.1 3.57e-43
5.01 1.14 1.1 3.57e-43
5.06 1.14 1.1 3.57e-43
5.1 1.14 1.1 3.57e-43
5.14 1.14 1.1 3.57e-43
5.2 1.14 1.1 3.57e-43
5.23 1.14 1.1 3.57e-43
5.29 1.14 1.1 3.57e-43
5.32 1.14 1.1 3.57e-43
5.37 1.14 0.99 3.57e-43
5.42 1.14 0.97 9.1477e-41
5.46 1.14 0.96 9.1477e-41
5.52 1.14 0.92 9.1477e-41
5.56 1.14 0.95 9.1477e-41
5.61 1.14 0.92 9.1477e-41
5.65 1.14 0.92 3.57e-43
5.68 1.14 0.92 3.57e-43
5.74 1.14 0.92 3.57e-43
5.8 1.14 0.92 3.57e-43
5.81 1.14 0.92 3.57e-43
5.86 1.14 0.92 3.57e-43
5.91 1.14 0.92 3.57e-43
5.95 1.14 0.92 3.57e-43
6.06 1.14 0.92 3.57e-43
6.09 1.14 0.92 3.57e-43
6.15 1.14 0.92 3.57e-43
6.2 1.14 0.92 3.57e-43
6.21 1.14 0.92 3.57e-43
4.71 1.2 1.02 3.57e-43
4.77 1.2 1.02 3.57e-43
4.81 1.2 1.02 3.57e-43
4.85 1.2 0.94 3.57e-43
4.87 1.2 1.1 3.57e-43
4.9 1.2 1.1 3.57e-43
4.98 1.2 1.1 3.57e-43
5.01 1.2 1.1 3.57e-43
5.06 1.2 1.1 3.57e-43
5.1 1.2 1.1 3.57e-43
5.14 1.2 1.1 3.57e-43
5.2 1.2 1.1 3.57e-43
5.23 1.2 1.1 3.57e-43
5.29 1.2 1.1 3.57e-43
5.32 1.2 1.1 3.57e-43
5.37 1.2 0.99 3.57e-43
5.42 1.2 0.97 9.1477e-41
5.46 1.2 0.95 9.1477e-41
5.52 1.2 0.92 9.1477e-41
5.56 1.2 0.93 9.1477e-41
5.61 1.2 0.93 9.1477e-41
5.66 1.2 0.93 3.57e-43
5.68 1.2 0.93 3.57e-43
5.74 1.2 0.93 3.57e-43
5.8 1.2 0.93 3.57e-43
5.81 1.2 0.93 3.57e-43
5.86 1.2 0.93 3.57e-43
5.91 1.2 0.93 3.57e-43
5.95 1.2 0.93 3.57e-43
6.06 1.2 0.93 3.57e-43
6.09 1.2 0.93 3.57e-43
6.15 1.2 0.93 3.57e-43
6.2 1.2 0.93 3.57e-43
6.21 1.2 0.93 3.57e-43
4.63 1.26 1 9.1477e-41
4.67 1.26 1 9.1477e-41
4.71 1.26 1.02 9.1477e-41
4.77 1.26 1.02 3.57e-43
4.81 1.26 1.02 3.57e-43
4.85 1.26 0.94 9.1477e-41
4.87 1.26 1.1 9.1477e-41
4.9 1.26 1.1 3.57e-43
4.98 1.26 1.1 3.57e-43
5.01 1.26 1.1 3.57e-43
5.06 1.26 1.1 3.57e-43
5.1 1.26 1.1 3.57e-43
5.14 1.26 1.1 3.57e-43
5.2 1.26 1.1 3.57e-43
5.23 1.26 1.1 3.57e-43
5.29 1.26 1.1 3.57e-43
5.32 1.26 1.1 3.57e-43
5.37 1.26 0.99 9.1477e-41
5.48 1.26 0.99 3.57e-43
5.46 1.26 0.95 9.1477e-41
5.53 1.26 0.87 9.1477e-41
5.58 1.26 0.89 9.1477e-41
5.62 1.26 0.89 3.57e-43
5.66 1.26 0.89 3.57e-43
5.68 1.26 0.89 3.57e-43
5.74 1.26 0.89 3.57e-43
5.8 1.26 0.89 3.57e-43
5.81 1.26 0.89 3.57e-43
5.86 1.26 0.89 3.57e-43
5.91 1.26 0.89 3.57e-43
5.95 1.26 0.89 3.57e-43
6.06 1.26 0.89 3.57e-43
6.09 1.26 0.89 3.57e-43
6.15 1.26 0.89 3.57e-43
6.2 1.26 0.89 3.57e-43
6.21 1.26 0.89 3.57e-43
6.77 1.26 0.89 3.57e-43
6.38 1.26 0.99 9.1477e-41
6.41 1.26 1.02 9.1477e-41
4.71 1.32 1.02 3.57e-43
4.77 1.32 1.02 3.57e-43
4.81 1.32 1.02 3.57e-43
4.85 1.32 1.02 3.57e-43
4.87 1.32 1.1 3.57e-43
4.9 1.32 1.17 3.57e-43
5.05 1.32 1.17 3.57e-43
5.01 1.32 1.17 3.57e-43
5.06 1.32 0.98 3.57e-43
5.1 1.32 0.98 3.57e-43
5.07 1.32 1.3 3.57e-43
5.11 1.32 1.3 3.57e-43
5.23 1.32 0.97 3.57e-43
5.39 1.32 0.97 3.57e-43
5.32 1.32 0.97 3.57e-43
5.37 1.32 0.99 9.1477e-41
5.56 1.32 0.46 9.1477e-41
5.61 1.32 0.46 3.57e-43
5.53 1.32 0.46 3.57e-43
5.58 1.32 0.89 9.1477e-41
5.69 1.32 0.67 9.1477e-41
5.71 1.32 0.67 3.57e-43
5.68 1.32 0.67 3.57e-43
5.74 1.32 0.67 3.57e-43
5.8 1.32 0.67 3.57e-43
5.81 1.32 0.67 3.57e-43
5.86 1.32 0.67 3.57e-43
5.91 1.32 1.03 9.1477e-41
6.09 1.32 0.7 9.1477e-41
6.22 1.32 0.7 3.57e-43
6.09 1.32 0.7 3.57e-43
6.15 1.32 0.7 3.57e-43
6.2 1.32 0.7 3.57e-43
6.21 1.32 0.7 3.57e-43
6.5 1.32 0.7 3.57e-43
4.71 1.38 1.02 3.57e-43
4.77 1.38 1.02 3.57e-43
4.81 1.38 1.02 3.57e-43
4.85 1.38 1.02 3.57e-43
4.87 1.38 1.1 3.57e-43
4.9 1.38 1.17 3.57e-43
5.05 1.38 1.17 3.57e-43
5.01 1.38 1.17 3.57e-43
5.06 1.38 0.98 3.57e-43
5.1 1.38 0.98 3.57e-43
5.07 1.38 1.3 3.57e-43
5.11 1.38 1.3 3.57e-43
5.23 1.38 0.97 3.57e-43
5.39 1.38 0.97 3.57e-43
5.32 1.38 0.97 3.57e-43
5.37 1.38 0.97 3.57e-43
5.56 1.38 0.46 9.1477e-41
5.36 1.38 1.31 9.1477e-41
5.4 1.38 1.31 3.57e-43
5.58 1.38 1.31 3.57e-43
5.69 1.38 1.31 3.57e-43
5.71 1.38 1.31 3.57e-43
5.68 1.38 1.31 3.57e-43
5.74 1.38 1.31 3.57e-43
5.8 1.38 1.31 3.57e-43
5.81 1.38 1.03 9.1477e-41
5.75 1.38 1.03 3.57e-43
5.91 1.38 1.03 3.57e-43
6.09 1.38 1.03 3.57e-43
6.22 1.38 1.03 3.57e-43
6.09 1.38 1.03 3.57e-43
6.15 1.38 1.03 3.57e-43
6.2 1.38 1.03 3.57e-43
6.21 1.38 1.02 9.1477e-41
6.15 1.38 1.26 9.1477e-41
4.71 1.44 1.02 3.57e-43
4.77 1.44 1.02 3.57e-43
4.81 1.44 1.02 3.57e-43
4.85 1.44 1.02 3.57e-43
4.87 1.44 1.1 3.57e-43
4.9 1.44 1.17 3.57e-43
5.05 1.44 1.17 3.57e-43
5.01 1.44 1.17 3.57e-43
5.06 1.44 0.98 3.57e-43
5.1 1.44 0.98 9.1477e-41
5.07 1.44 1.3 9.1477e-41
5.11 1.44 1.3 3.57e-43
5.23 1.44 0.97 9.1477e-41
5.39 1.44 0.97 3.57e-43
5.32 1.44 0.97 3.57e-43
5.37 1.44 0.97 3.57e-43
5.56 1.44 0.97 3.57e-43
5.36 1.44 0.97 3.57e-43
5.4 1.44 0.97 3.57e-43
5.58 1.44 0.97 3.57e-43
5.69 1.44 0.97 3.57e-43
5.71 1.44 0.97 3.57e-43
5.68 1.44 0.97 3.57e-43
5.74 1.44 0.97 3.57e-43
5.8 1.44 0.97 3.57e-43
5.81 1.44 0.97 3.57e-43
5.75 1.44 0.97 3.57e-43
5.91 1.44 0.97 3.57e-43
6.09 1.44 0.7 9.1477e-41
6.03 1.44 0.97 9.1477e-41
6.08 1.44 0.97 3.57e-43
6.15 1.44 0.97 3.57e-43
6.2 1.44 0.97 3.57e-43
6.21 1.44 0.97 3.57e-43
6.15 1.44 1.26 9.1477e-41
4.71 1.5 1.02 3.57e-43
4.77 1.5 1.02 3.57e-43
4.81 1.5 1.02 3.57e-43
4.85 1.5 1.02 3.57e-43
4.87 1.5 1.1 3.57e-43
4.9 1.5 1.17 3.57e-43
5.05 1.5 1.17 3.57e-43
5.01 1.5 1.17 3.57e-43
5.06 1.5 0.98 3.57e-43
5.02 1.5 1.35 3.57e-43
5.06 1.5 1.36 3.57e-43
5.1 1.5 1.35 3.57e-43
5.14 1.5 1.37 3.57e-43
5.18 1.5 1.37 3.57e-43
5.32 1.5 0.97 9.1477e-41
5.26 1.5 0.97 3.57e-43
5.56 1.5 0.97 3.57e-43
5.36 1.5 0.97 3.57e-43
5.4 1.5 0.97 3.57e-43
5.58 1.5 0.97 3.57e-43
5.69 1.5 0.97 3.57e-43
5.71 1.5 0.97 3.57e-43
5.68 1.5 0.97 3.57e-43
5.74 1.5 0.97 3.57e-43
5.8 1.5 0.97 3.57e-43
5.81 1.5 0.97 3.57e-43
5.75 1.5 0.97 3.57e-43
5.91 1.5 0.97 3.57e-43
6.09 1.5 0.97 3.57e-43
6.03 1.5 0.97 3.57e-43
6.08 1.5 0.97 3.57e-43
6.15 1.5 0.97 3.57e-43
6.2 1.5 0.97 3.57e-43
6.21 1.5 0.97 3.57e-43
6.15 1.5 1.26 9.1477e-41
4.71 1.56 1.02 3.57e-43
4.77 1.56 1.02 3.57e-43
4.81 1.56 1.02 3.57e-43
4.85 1.56 1.02 3.57e-43
4.87 1.56 1.1 3.57e-43
4.9 1.56 1.17 9.1477e-41
5.05 1.56 1.17 3.57e-43
5.01 1.56 1.17 3.57e-43
5.06 1.56 0.98 9.1477e-41
5.02 1.56 1.35 9.1477e-41
5.06 1.56 1.36 9.1477e-41
5.1 1.56 1.35 9.1477e-41
5.14 1.56 1.37 9.1477e-41
5.18 1.56 1.37 3.57e-43
5.32 1.56 1.37 3.57e-43
5.26 1.56 1.37 3.57e-43
5.56 1.56 1.37 3.57e-43
5.36 1.56 1.37 3.57e-43
5.4 1.56 1.37 3.57e-43
5.58 1.56 1.37 3.57e-43
5.69 1.56 1.37 3.57e-43
5.71 1.56 1.37 3.57e-43
5.68 1.56 1.37 3.57e-43
5.74 1.56 1.37 3.57e-43
5.8 1.56 1.37 3.57e-43
5.81 1.56 1.37 3.57e-43
5.75 1.56 1.37 3.57e-43
5.91 1.56 1.37 3.57e-43
6.09 1.56 1.37 3.57e-43
6.03 1.56 1.37 3.57e-43
6.08 1.56 1.37 3.57e-43
6.15 1.56 1.37 3.57e-43
6.2 1.56 1.37 3.57e-43
6.21 1.56 1.02 9.1477e-41
6.11 1.56 1.34 9.1477e-41
4.71 1.62 1.02 3.57e-43
4.77 1.62 1.02 3.57e-43
4.81 1.62 1.02 3.57e-43
4.85 1.62 1.02 3.57e-43
4.87 1.62 1.1 9.1477e-41
5 1.62 0.54 9.1477e-41
5.06 1.62 0.54 3.57e-43
5.01 1.62 0.54 3.57e-43
5.06 1.62 0.54 3.57e-43
5.02 1.62 1.35 9.1477e-41
5.06 1.62 1.36 9.1477e-41
5.09 1.62 1.39 9.1477e-41
5.13 1.62 1.4 9.1477e-41
5.17 1.62 1.4 9.1477e-41
5.21 1.62 1.42 9.1477e-41
5.25 1.62 1.42 3.57e-43
5.56 1.62 1.42 3.57e-43
5.36 1.62 1.42 3.57e-43
5.4 1.62 1.42 3.57e-43
5.58 1.62 1.42 3.57e-43
5.69 1.62 1.42 3.57e-43
5.71 1.62 1.42 3.57e-43
5.68 1.62 1.42 3.57e-43
5.74 1.62 1.42 3.57e-43
5.8 1.62 1.42 3.57e-43
5.81 1.62 1.42 3.57e-43
5.75 1.62 1.42 3.57e-43
5.91 1.62 1.42 3.57e-43
6.09 1.62 1.42 3.57e-43
6.03 1.62 1.42 3.57e-43
6.08 1.62 1.42 3.57e-43
6.15 1.62 1.42 3.57e-43
6.2 1.62 1.42 3.57e-43
6.21 1.62 1.02 9.1477e-41
6.1 1.62 1.35 9.1477e-41
4.71 1.68 1.02 3.57e-43
4.77 1.68 1.02 3.57e-43
4.81 1.68 1.02 3.57e-43
4.85 1.68 1.02 3.57e-43
4.87 1.68 1.1 9.1477e-41
5.01 1.68 0.52 9.1477e-41
5.06 1.68 0.52 3.57e-43
5.01 1.68 0.52 3.57e-43
5.06 1.68 0.52 3.57e-43
5.02 1.68 1.35 9.1477e-41
5.05 1.68 1.38 9.1477e-41
5.09 1.68 1.41 9.1477e-41
5.13 1.68 1.41 9.1477e-41
5.17 1.68 1.42 9.1477e-41
5.21 1.68 1.41 9.1477e-41
5.25 1.68 1.43 9.1477e-41
5.29 1.68 1.43 3.57e-43
5.36 1.68 1.43 3.57e-43
5.4 1.68 1.43 3.57e-43
5.58 1.68 1.43 3.57e-43
5.69 1.68 1.43 3.57e-43
5.71 1.68 1.43 3.57e-43
5.68 1.68 1.43 3.57e-43
5.74 1.68 1.43 3.57e-43
5.8 1.68 1.43 3.57e-43
5.81 1.68 1.43 3.57e-43
5.75 1.68 1.43 3.57e-43
5.91 1.68 1.43 3.57e-43
6.09 1.68 1.43 3.57e-43
6.03 1.68 1.43 3.57e-43
6.08 1.68 1.43 3.57e-43
6.15 1.68 1.43 3.57e-43
6.2 1.68 1.43 3.57e-43
6.21 1.68 1.02 9.1477e-41
6.09 1.68 1.37 9.1477e-41
4.71 1.74 1.02 3.57e-43
4.77 1.74 1.02 3.57e-43
4.81 1.74 1.02 3.57e-43
4.85 1.74 1.02 3.57e-43
4.87 1.74 1.1 9.1477e-41
5.01 1.74 1.1 3.57e-43
5.06 1.74 1.1 3.57e-43
5.01 1.74 1.1 3.57e-43
5.06 1.74 1.1 3.57e-43
5.02 1.74 1.35 9.1477e-41
5.05 1.74 1.4 9.1477e-41
5.09 1.74 1.41 9.1477e-41
5.12 1.74 1.43 9.1477e-41
5.17 1.74 1.42 9.1477e-41
5.21 1.74 1.42 9.1477e-41
5.25 1.74 1.42 9.1477e-41
5.28 1.74 1.44 9.1477e-41
5.33 1.74 1.44 3.57e-43
5.4 1.74 1.44 3.57e-43
5.58 1.74 1.44 3.57e-43
5.69 1.74 1.44 3.57e-43
5.71 1.74 1.44 3.57e-43
5.68 1.74 1.44 3.57e-43
5.74 1.74 1.44 3.57e-43
5.8 1.74 1.44 3.57e-43
5.81 1.74 1.44 3.57e-43
5.75 1.74 1.44 3.57e-43
5.91 1.74 1.44 3.57e-43
6.09 1.74 1.44 3.57e-43
6.03 1.74 1.44 3.57e-43
6.08 1.74 1.44 3.57e-43
6.15 1.74 1.44 3.57e-43
6.2 1.74 1.44 3.57e-43
6.21 1.74 1.02 9.1477e-41
6.08 1.74 1.4 9.1477e-41
4.67 1.8 0.67 9.1477e-41
4.7 1.8 0.67 3.57e-43
4.71 1.8 1.02 9.1477e-41
4.77 1.8 1.02 3.57e-43
4.81 1.8 1.02 3.57e-43
4.85 1.8 1.02 3.57e-43
4.87 1.8 1.02 3.57e-43
5.01 1.8 1.02 3.57e-43
5.06 1.8 1.02 3.57e-43
5.01 1.8 1.02 3.57e-43
5.06 1.8 1.02 3.57e-43
5.02 1.8 1.35 9.1477e-41
5.05 1.8 1.39 9.1477e-41
5.09 1.8 1.41 9.1477e-41
5.13 1.8 1.42 9.1477e-41
5.17 1.8 1.42 9.1477e-41
5.21 1.8 1.43 9.1477e-41
5.24 1.8 1.44 9.1477e-41
5.29 1.8 1.44 3.57e-43
5.33 1.8 1.44 3.57e-43
5.4 1.8 1.44 3.57e-43
5.58 1.8 1.44 3.57e-43
5.69 1.8 1.44 3.57e-43
5.71 1.8 1.44 3.57e-43
5.68 1.8 1.44 3.57e-43
5.74 1.8 1.44 3.57e-43
5.8 1.8 1.44 3.57e-43
5.81 1.8 1.44 3.57e-43
5.75 1.8 1.44 3.57e-43
5.91 1.8 1.44 3.57e-43
6.09 1.8 1.44 3.57e-43
6.03 1.8 1.44 3.57e-43
6.08 1.8 1.44 3.57e-43
6.15 1.8 1.44 3.57e-43
6.2 1.8 1.44 3.57e-43
6.21 1.8 1.02 9.1477e-41
6.08 1.8 1.4 9.1477e-41
5.02 1.86 1.37 3.57e-43
5.05 1.86 1.4 9.1477e-41
5.09 1.86 1.42 9.1477e-41
5.12 1.86 1.43 9.1477e-41
5.16 1.86 1.44 9.1477e-41
5.2 1.86 1.44 9.1477e-41
5.24 1.86 1.45 9.1477e-41
5.28 1.86 1.45 9.1477e-41
5.32 1.86 1.45 3.57e-43
5.4 1.86 1.45 3.57e-43
5.58 1.86 1.45 3.57e-43
5.69 1.86 1.45 3.57e-43
5.71 1.86 1.45 3.57e-43
5.68 1.86 1.45 3.57e-43
5.74 1.86 1.45 3.57e-43
5.8 1.86 1.45 3.57e-43
5.81 1.86 1.45 3.57e-43
5.75 1.86 1.45 3.57e-43
5.91 1.86 1.45 3.57e-43
6.09 1.86 1.45 3.57e-43
6.03 1.86 1.45 3.57e-43
6.08 1.86 1.45 3.57e-43
6.15 1.86 1.45 3.57e-43
6.2 1.86 1.45 3.57e-43
6.21 1.86 1.02 9.1477e-41
6.08 1.86 1.41 9.1477e-41
5.02 1.92 1.37 3.57e-43
5.05 1.92 1.4 9.1477e-41
5.09 1.92 1.42 9.1477e-41
5.12 1.92 1.43 9.1477e-41
5.16 1.92 1.44 9.1477e-41
5.2 1.92 1.44 9.1477e-41
5.24 1.92 1.45 9.1477e-41
5.28 1.92 1.45 9.1477e-41
5.32 1.92 1.45 3.57e-43
5.4 1.92 1.45 3.57e-43
5.58 1.92 1.45 3.57e-43
5.69 1.92 1.45 3.57e-43
5.71 1.92 1.45 3.57e-43
5.68 1.92 1.45 3.57e-43
5.74 1.92 1.45 3.57e-43
5.8 1.92 1.45 3.57e-43
5.81 1.92 1.45 3.57e-43
5.75 1.92 1.45 3.57e-43
5.91 1.92 1.45 3.57e-43
6.09 1.92 1.45 3.57e-43
6.03 1.92 1.45 3.57e-43
6.08 1.92 1.45 3.57e-43
6.15 1.92 1.45 3.57e-43
6.2 1.92 1.45 3.57e-43
6.21 1.92 1.02 9.1477e-41
6.07 1.92 1.41 9.1477e-41
5.06 1.98 0.74 3.57e-43
5.02 1.98 1.37 9.1477e-41
5.05 1.98 1.42 9.1477e-41
5.09 1.98 1.42 9.1477e-41
5.12 1.98 1.43 9.1477e-41
5.16 1.98 1.44 9.1477e-41
5.2 1.98 1.44 9.1477e-41
5.24 1.98 1.45 9.1477e-41
5.28 1.98 1.45 3.57e-43
5.32 1.98 1.45 3.57e-43
5.4 1.98 1.45 3.57e-43
5.58 1.98 1.45 3.57e-43
5.69 1.98 1.45 3.57e-43
5.71 1.98 1.45 3.57e-43
5.68 1.98 1.45 3.57e-43
5.74 1.98 1.45 3.57e-43
5.8 1.98 1.45 3.57e-43
5.81 1.98 1.45 3.57e-43
5.75 1.98 1.45 3.57e-43
5.91 1.98 1.45 3.57e-43
6.09 1.98 1.45 3.57e-43
6.03 1.98 1.45 3.57e-43
6.08 1.98 1.45 3.57e-43
6.15 1.98 1.45 3.57e-43
6.2 1.98 1.45 3.57e-43
6.21 1.98 1.02 9.1477e-41
6.07 1.98 1.02 3.57e-43
4.7 2.04 0.91 3.57e-43
4.8 2.04 0.99 3.57e-43
4.85 2.04 0.93 3.57e-43
4.93 2.04 0.69 3.57e-43
4.97 2.04 0.72 3.57e-43
5.02 2.04 0.74 3.57e-43
5.06 2.04 0.74 3.57e-43
5.06 2.04 0.74 3.57e-43
5.02 2.04 1.37 9.1477e-41
5.05 2.04 1.41 9.1477e-41
5.09 2.04 1.42 9.1477e-41
5.13 2.04 1.42 9.1477e-41
5.16 2.04 1.44 9.1477e-41
5.2 2.04 1.44 9.1477e-41
5.24 2.04 1.45 9.1477e-41
5.28 2.04 1.45 3.57e-43
5.32 2.04 1.45 3.57e-43
5.4 2.04 1.45 3.57e-43
5.58 2.04 1.45 3.57e-43
5.69 2.04 1.45 3.57e-43
5.71 2.04 1.45 3.57e-43
5.68 2.04 1.45 3.57e-43
5.74 2.04 1.45 3.57e-43
5.8 2.04 1.45 3.57e-43
5.81 2.04 1.45 3.57e-43
5.75 2.04 1.45 3.57e-43
5.91 2.04 1.45 3.57e-43
6.09 2.04 1.45 3.57e-43
6.03 2.04 1.45 3.57e-43
6.08 2.04 1.45 3.57e-43
6.15 2.04 1.45 3.57e-43
6.2 2.04 1.45 3.57e-43
6.21 2.04 1.02 9.1477e-41
6.07 2.04 1.41 9.1477e-41
4.7 2.1 0.91 3.57e-43
4.8 2.1 0.99 3.57e-43
4.85 2.1 0.93 3.57e-43
4.93 2.1 0.69 3.57e-43
4.97 2.1 0.72 3.57e-43
5.02 2.1 0.74 3.57e-43
5.06 2.1 0.74 3.57e-43
5.06 2.1 0.74 3.57e-43
5.02 2.1 1.37 9.1477e-41
5.05 2.1 1.41 9.1477e-41
5.09 2.1 1.42 9.1477e-41
5.12 2.1 1.43 9.1477e-41
5.16 2.1 1.44 9.1477e-41
5.2 2.1 1.44 9.1477e-41
5.24 2.1 1.44 3.57e-43
5.28 2.1 1.45 9.1477e-41
5.32 2.1 1.45 3.57e-43
5.4 2.1 1.45 3.57e-43
5.58 2.1 1.45 3.57e-43
5.69 2.1 1.45 3.57e-43
5.71 2.1 1.45 3.57e-43
5.68 2.1 1.45 3.57e-43
5.74 2.1 1.45 3.57e-43
5.8 2.1 1.45 3.57e-43
5.81 2.1 1.45 3.57e-43
5.75 2.1 1.45 3.57e-43
5.91 2.1 1.45 3.57e-43
6.09 2.1 1.45 3.57e-43
6.03 2.1 1.45 3.57e-43
6.08 2.1 1.45 3.57e-43
6.15 2.1 1.45 3.57e-43
6.2 2.1 1.45 3.57e-43
6.21 2.1 1.02 9.1477e-41
6.08 2.1 1.41 9.1477e-41
4.7 2.16 0.91 3.57e-43
4.8 2.16 0.99 3.57e-43
4.85 2.16 0.93 9.1477e-41
4.93 2.16 0.69 9.1477e-41
4.97 2.16 0.72 9.1477e-41
5.02 2.16 0.74 9.1477e-41
5.06 2.16 0.74 3.57e-43
5.06 2.16 0.74 3.57e-43
5.02 2.16 0.74 3.57e-43
5.05 2.16 1.41 9.1477e-41
5.09 2.16 1.42 9.1477e-41
5.12 2.16 1.43 9.1477e-41
5.16 2.16 1.44 9.1477e-41
5.2 2.16 1.44 9.1477e-41
5.24 2.16 1.44 9.1477e-41
5.28 2.16 1.45 9.1477e-41
5.32 2.16 1.45 9.1477e-41
5.36 2.16 1.45 3.57e-43
5.58 2.16 1.45 3.57e-43
5.69 2.16 1.45 3.57e-43
5.71 2.16 1.45 3.57e-43
5.68 2.16 1.45 3.57e-43
5.74 2.16 1.45 3.57e-43
5.8 2.16 1.45 3.57e-43
5.81 2.16 1.45 3.57e-43
5.75 2.16 1.45 3.57e-43
5.91 2.16 1.45 3.57e-43
6.09 2.16 1.45 3.57e-43
6.03 2.16 1.45 3.57e-43
6.08 2.16 1.45 3.57e-43
6.15 2.16 1.45 3.57e-43
6.2 2.16 1.45 3.57e-43
6.21 2.16 1.02 9.1477e-41
6.08 2.16 1.41 9.1477e-41
4.7 2.22 0.91 3.57e-43
4.8 2.22 0.99 3.57e-43
4.85 2.22 0.93 9.1477e-41
4.93 2.22 0.71 9.1477e-41
4.97 2.22 0.72 9.1477e-41
5.02 2.22 0.74 9.1477e-41
5.06 2.22 0.74 3.57e-43
5.06 2.22 0.74 3.57e-43
5.02 2.22 0.74 3.57e-43
5.05 2.22 1.41 9.1477e-41
5.09 2.22 1.42 9.1477e-41
5.13 2.22 1.41 9.1477e-41
5.16 2.22 1.44 9.1477e-41
5.2 2.22 1.44 9.1477e-41
5.25 2.22 1.43 9.1477e-41
5.28 2.22 1.45 9.1477e-41
5.32 2.22 1.44 9.1477e-41
5.36 2.22 1.44 3.57e-43
5.58 2.22 1.44 3.57e-43
5.69 2.22 1.44 3.57e-43
5.71 2.22 1.44 3.57e-43
5.68 2.22 1.44 3.57e-43
5.74 2.22 1.44 3.57e-43
5.8 2.22 1.44 3.57e-43
5.81 2.22 1.44 3.57e-43
5.75 2.22 1.44 3.57e-43
5.91 2.22 1.44 3.57e-43
6.09 2.22 1.44 3.57e-43
6.03 2.22 1.44 3.57e-43
6.08 2.22 1.44 3.57e-43
6.15 2.22 1.44 3.57e-43
6.2 2.22 1.44 3.57e-43
6.21 2.22 1.02 9.1477e-41
6.08 2.22 1.41 9.1477e-41
4.7 2.28 0.91 3.57e-43
4.8 2.28 0.99 3.57e-43
4.85 2.28 0.93 9.1477e-41
4.93 2.28 0.69 9.1477e-41
4.98 2.28 0.68 9.1477e-41
5.03 2.28 0.67 9.1477e-41
5.07 2.28 0.7 9.1477e-41
5.11 2.28 0.7 3.57e-43
5.02 2.28 0.7 3.57e-43
5.05 2.28 1.41 9.1477e-41
5.09 2.28 1.42 9.1477e-41
5.13 2.28 1.41 9.1477e-41
5.16 2.28 1.44 9.1477e-41
5.2 2.28 1.43 9.1477e-41
5.24 2.28 1.44 9.1477e-41
5.28 2.28 1.45 9.1477e-41
5.32 2.28 1.45 3.57e-43
5.36 2.28 1.45 3.57e-43
5.58 2.28 1.45 3.57e-43
5.69 2.28 1.45 3.57e-43
5.71 2.28 1.45 3.57e-43
5.68 2.28 1.45 3.57e-43
5.74 2.28 1.45 3.57e-43
5.8 2.28 1.45 3.57e-43
5.81 2.28 1.45 3.57e-43
5.75 2.28 1.45 3.57e-43
5.91 2.28 1.45 3.57e-43
6.09 2.28 1.45 3.57e-43
6.03 2.28 1.45 3.57e-43
6.08 2.28 1.45 3.57e-43
6.15 2.28 1.45 3.57e-43
6.2 2.28 1.45 3.57e-43
6.21 2.28 1.02 9.1477e-41
6.08 2.28 1.41 9.1477e-41
4.7 2.34 0.91 3.57e-43
4.8 2.34 0.99 9.1477e-41
4.89 2.34 0.7 9.1477e-41
4.94 2.34 0.67 9.1477e-41
4.98 2.34 0.67 9.1477e-41
5.03 2.34 0.67 9.1477e-41
5.08 2.34 0.66 9.1477e-41
5.12 2.34 0.66 3.57e-43
5.02 2.34 0.66 3.57e-43
5.05 2.34 1.41 9.1477e-41
5.09 2.34 1.42 9.1477e-41
5.13 2.34 1.42 9.1477e-41
5.17 2.34 1.42 9.1477e-41
5.2 2.34 1.44 9.1477e-41
5.24 2.34 1.44 9.1477e-41
5.28 2.34 1.44 9.1477e-41
5.32 2.34 1.44 3.57e-43
5.36 2.34 1.44 3.57e-43
5.58 2.34 1.44 3.57e-43
5.69 2.34 1.44 3.57e-43
5.71 2.34 1.44 3.57e-43
5.68 2.34 1.44 3.57e-43
5.74 2.34 1.44 3.57e-43
5.8 2.34 1.44 3.57e-43
5.81 2.34 1.44 3.57e-43
5.75 2.34 1.44 3.57e-43
5.91 2.34 1.44 3.57e-43
6.09 2.34 1.44 3.57e-43
6.03 2.34 1.44 3.57e-43
6.08 2.34 1.44 3.57e-43
6.15 2.34 1.44 3.57e-43
6.2 2.34 0.91 9.1477e-41
6.03 2.34 1.41 9.1477e-41
6.07 2.34 1.41 9.1477e-41
4.7 2.4 0.91 3.57e-43
4.8 2.4 0.91 3.57e-43
4.89 2.4 0.91 3.57e-43
4.94 2.4 0.67 9.1477e-41
4.99 2.4 0.62 9.1477e-41
5.04 2.4 0.62 9.1477e-41
5.08 2.4 0.62 3.57e-43
5.12 2.4 0.62 3.57e-43
5.02 2.4 0.62 3.57e-43
5.05 2.4 1.41 9.1477e-41
5.09 2.4 1.41 9.1477e-41
5.13 2.4 1.41 9.1477e-41
5.17 2.4 1.41 9.1477e-41
5.2 2.4 1.43 9.1477e-41
5.25 2.4 1.42 9.1477e-41
5.29 2.4 1.42 3.57e-43
5.32 2.4 1.42 3.57e-43
5.36 2.4 1.42 3.57e-43
5.58 2.4 1.42 3.57e-43
5.69 2.4 1.42 3.57e-43
5.71 2.4 1.42 3.57e-43
5.68 2.4 1.42 3.57e-43
5.74 2.4 1.42 3.57e-43
5.8 2.4 1.42 3.57e-43
5.81 2.4 1.42 3.57e-43
5.75 2.4 1.42 3.57e-43
5.91 2.4 1.42 3.57e-43
6.09 2.4 1.42 3.57e-43
6.03 2.4 1.42 3.57e-43
6.08 2.4 1.42 3.57e-43
6.15 2.4 1.42 3.57e-43
6.2 2.4 0.91 9.1477e-41
6.04 2.4 1.4 9.1477e-41
6.08 2.4 1.4 9.1477e-41
4.99 2.46 0.62 3.57e-43
5.04 2.46 0.63 3.57e-43
5.08 2.46 0.63 3.57e-43
5.12 2.46 0.63 3.57e-43
5.02 2.46 1.37 3.57e-43
5.05 2.46 1.41 9.1477e-41
5.09 2.46 1.4 9.1477e-41
5.13 2.46 1.42 9.1477e-41
5.17 2.46 1.42 9.1477e-41
5.21 2.46 1.43 9.1477e-41
5.25 2.46 1.43 9.1477e-41
5.29 2.46 1.43 3.57e-43
5.32 2.46 1.43 3.57e-43
5.36 2.46 1.43 3.57e-43
5.58 2.46 1.43 3.57e-43
5.69 2.46 1.43 3.57e-43
5.71 2.46 1.43 3.57e-43
5.68 2.46 1.43 3.57e-43
5.74 2.46 1.43 3.57e-43
5.8 2.46 1.43 3.57e-43
5.81 2.46 1.43 3.57e-43
5.75 2.46 1.43 3.57e-43
5.91 2.46 1.43 3.57e-43
6.09 2.46 1.43 3.57e-43
6.03 2.46 1.43 3.57e-43
6.08 2.46 1.43 3.57e-43
6.15 2.46 1.43 3.57e-43
6.2 2.46 0.91 9.1477e-41
6.03 2.46 1.41 9.1477e-41
6.08 2.46 1.4 9.1477e-41
4.8 2.52 0.84 3.57e-43
4.83 2.52 0.84 3.57e-43
4.94 2.52 0.84 3.57e-43
4.99 2.52 0.62 9.1477e-41
5.04 2.52 0.63 9.1477e-41
5.08 2.52 0.63 3.57e-43
5.12 2.52 0.63 3.57e-43
5.02 2.52 1.37 9.1477e-41
5.06 2.52 1.37 9.1477e-41
5.09 2.52 1.4 9.1477e-41
5.13 2.52 1.41 9.1477e-41
5.17 2.52 1.4 9.1477e-41
5.21 2.52 1.42 9.1477e-41
5.25 2.52 1.42 3.57e-43
5.29 2.52 1.43 9.1477e-41
5.33 2.52 1.43 3.57e-43
5.36 2.52 1.43 3.57e-43
5.58 2.52 1.43 3.57e-43
5.69 2.52 1.43 3.57e-43
5.71 2.52 1.43 3.57e-43
5.68 2.52 1.43 3.57e-43
5.74 2.52 1.43 3.57e-43
5.8 2.52 1.43 3.57e-43
5.81 2.52 1.43 3.57e-43
5.75 2.52 1.43 3.57e-43
5.91 2.52 1.43 3.57e-43
6.09 2.52 1.43 3.57e-43
6.03 2.52 1.43 3.57e-43
6.08 2.52 1.43 3.57e-43
6.15 2.52 1.43 3.57e-43
6.2 2.52 0.91 9.1477e-41
6.04 2.52 0.91 3.57e-43
6.08 2.52 1.4 9.1477e-41
4.69 2.58 0.84 9.1477e-41
4.73 2.58 0.84 3.57e-43
4.77 2.58 0.84 3.57e-43
4.8 2.58 0.84 3.57e-43
4.83 2.58 0.84 3.57e-43
4.94 2.58 0.84 3.57e-43
4.99 2.58 0.84 3.57e-43
5.04 2.58 0.84 3.57e-43
5.08 2.58 0.84 3.57e-43
5.12 2.58 0.84 3.57e-43
5.02 2.58 1.37 9.1477e-41
5.06 2.58 1.37 9.1477e-41
5.09 2.58 1.39 9.1477e-41
5.13 2.58 1.4 9.1477e-41
5.17 2.58 1.4 9.1477e-41
5.21 2.58 1.41 9.1477e-41
5.25 2.58 1.41 3.57e-43
5.29 2.58 1.41 3.57e-43
5.33 2.58 1.41 3.57e-43
5.36 2.58 1.41 3.57e-43
5.58 2.58 1.41 3.57e-43
5.69 2.58 1.41 3.57e-43
5.71 2.58 1.41 3.57e-43
5.68 2.58 0.98 9.1477e-41
5.58 2.58 0.98 3.57e-43
5.8 2.58 0.98 3.57e-43
5.81 2.58 0.98 3.57e-43
5.75 2.58 0.98 3.57e-43
5.91 2.58 0.98 3.57e-43
6.09 2.58 0.98 3.57e-43
6.03 2.58 0.98 3.57e-43
6.08 2.58 0.98 3.57e-43
6.15 2.58 0.98 3.57e-43
6.2 2.58 0.91 9.1477e-41
6.04 2.58 0.91 3.57e-43
6.08 2.58 1.4 9.1477e-41
4.69 2.64 1.37 3.57e-43
5.06 2.64 1.37 9.1477e-41
5.1 2.64 1.37 9.1477e-41
5.13 2.64 1.39 9.1477e-41
5.18 2.64 1.38 9.1477e-41
5.21 2.64 1.38 3.57e-43
5.25 2.64 1.38 3.57e-43
5.29 2.64 1.38 3.57e-43
5.33 2.64 1.38 3.57e-43
5.36 2.64 1.38 3.57e-43
5.58 2.64 1.38 3.57e-43
5.69 2.64 1.38 3.57e-43
5.71 2.64 1.38 3.57e-43
5.68 2.64 0.98 9.1477e-41
5.58 2.64 0.98 3.57e-43
5.8 2.64 0.98 3.57e-43
5.81 2.64 0.98 3.57e-43
5.75 2.64 0.98 3.57e-43
5.91 2.64 0.98 3.57e-43
6.09 2.64 0.98 3.57e-43
6.03 2.64 0.98 3.57e-43
6.08 2.64 0.98 3.57e-43
6.15 2.64 0.98 3.57e-43
6.2 2.64 0.91 9.1477e-41
6.04 2.64 0.91 3.57e-43
6.08 2.64 1.4 9.1477e-41
5.07 2.7 1.32 3.57e-43
5.1 2.7 1.37 9.1477e-41
5.14 2.7 1.37 9.1477e-41
5.18 2.7 1.37 9.1477e-41
5.21 2.7 1.37 3.57e-43
5.25 2.7 1.37 3.57e-43
5.29 2.7 1.37 3.57e-43
5.33 2.7 1.37 3.57e-43
5.36 2.7 1.37 3.57e-43
5.58 2.7 1.37 3.57e-43
5.69 2.7 1.37 3.57e-43
5.71 2.7 1.37 3.57e-43
5.68 2.7 1.37 3.57e-43
5.58 2.7 1.37 3.57e-43
5.8 2.7 1.37 3.57e-43
5.81 2.7 1.37 3.57e-43
5.75 2.7 1.37 3.57e-43
5.91 2.7 1.37 3.57e-43
6.09 2.7 1.37 3.57e-43
6.03 2.7 1.37 3.57e-43
6.08 2.7 1.37 3.57e-43
6.15 2.7 1.37 3.57e-43
6.2 2.7 0.91 9.1477e-41
6.05 2.7 0.91 3.57e-43
6.08 2.7 1.4 9.1477e-41
4.69 2.76 1.37 3.57e-43
5.07 2.76 1.32 9.1477e-41
5.1 2.76 1.35 9.1477e-41
5.14 2.76 1.36 9.1477e-41
5.18 2.76 1.35 9.1477e-41
5.23 2.76 1.35 9.1477e-41
5.26 2.76 1.36 9.1477e-41
5.3 2.76 1.36 3.57e-43
5.33 2.76 1.36 3.57e-43
5.36 2.76 1.36 3.57e-43
5.58 2.76 1.36 3.57e-43
5.69 2.76 1.36 3.57e-43
5.71 2.76 1.36 3.57e-43
5.68 2.76 1.36 3.57e-43
5.58 2.76 1.36 3.57e-43
5.8 2.76 1.36 3.57e-43
5.81 2.76 1.36 3.57e-43
5.75 2.76 1.36 3.57e-43
5.91 2.76 1.36 3.57e-43
6.09 2.76 1.36 3.57e-43
6.03 2.76 1.36 3.57e-43
6.08 2.76 1.36 3.57e-43
6.15 2.76 0.92 9.1477e-41
6.01 2.76 1.35 9.1477e-41
6.06 2.76 1.35 3.57e-43
6.08 2.76 1.4 9.1477e-41
4.73 2.82 1.32 3.57e-43
5.11 2.82 1.34 9.1477e-41
5.14 2.82 1.35 9.1477e-41
5.18 2.82 1.35 9.1477e-41
5.22 2.82 1.37 9.1477e-41
5.26 2.82 1.37 3.57e-43
5.3 2.82 1.37 9.1477e-41
5.35 2.82 1.37 3.57e-43
5.36 2.82 1.37 3.57e-43
5.58 2.82 1.37 3.57e-43
5.69 2.82 1.37 3.57e-43
5.71 2.82 1.37 3.57e-43
5.68 2.82 1.37 3.57e-43
5.58 2.82 1.37 3.57e-43
5.8 2.82 1.37 3.57e-43
5.81 2.82 1.37 3.57e-43
5.75 2.82 1.37 3.57e-43
5.91 2.82 1.37 3.57e-43
6.09 2.82 1.37 3.57e-43
6.03 2.82 1.37 3.57e-43
6.08 2.82 1.37 3.57e-43
6.15 2.82 1.37 3.57e-43
6.01 2.82 1.37 3.57e-43
6.06 2.82 1.37 3.57e-43
6.08 2.82 1.4 9.1477e-41
5.69 2.88 0.87 3.57e-43
5.56 2.88 1.24 9.1477e-41
5.61 2.88 1.24 3.57e-43
5.58 2.88 1.24 3.57e-43
5.8 2.88 1.24 3.57e-43
5.81 2.88 1.24 3.57e-43
5.75 2.88 1.24 3.57e-43
5.91 2.88 1.24 3.57e-43
6.09 2.88 1.24 3.57e-43
6.03 2.88 1.24 3.57e-43
6.08 2.88 1.24 3.57e-43
6.15 2.88 1.24 3.57e-43
6.01 2.88 1.24 3.57e-43
6.06 2.88 1.24 3.57e-43
6.08 2.88 1.4 9.1477e-41
4.69 2.94 0.86 3.57e-43
4.77 2.94 0.87 9.1477e-41
4.8 2.94 0.87 3.57e-43
4.83 2.94 0.87 3.57e-43
4.94 2.94 0.87 3.57e-43
4.99 2.94 0.87 3.57e-43
5.04 2.94 0.87 3.57e-43
5.08 2.94 0.87 3.57e-43
5.12 2.94 0.87 3.57e-43
5.02 2.94 0.87 3.57e-43
5.07 2.94 0.87 3.57e-43
5.11 2.94 0.87 3.57e-43
5.14 2.94 0.87 3.57e-43
5.18 2.94 0.87 3.57e-43
5.22 2.94 0.87 3.57e-43
5.26 2.94 0.87 3.57e-43
5.3 2.94 0.87 3.57e-43
5.35 2.94 0.87 3.57e-43
5.36 2.94 0.87 3.57e-43
5.58 2.94 0.87 3.57e-43
5.69 2.94 0.87 3.57e-43
5.56 2.94 0.87 3.57e-43
5.61 2.94 0.87 3.57e-43
5.58 2.94 0.87 3.57e-43
5.8 2.94 0.87 3.57e-43
5.81 2.94 0.87 3.57e-43
5.75 2.94 0.87 3.57e-43
5.91 2.94 0.87 3.57e-43
6.09 2.94 0.87 3.57e-43
6.03 2.94 0.87 3.57e-43
6.08 2.94 0.87 3.57e-43
6.15 2.94 0.87 3.57e-43
6.01 2.94 0.87 3.57e-43
6.06 2.94 0.87 3.57e-43
6.08 2.94 1.4 9.1477e-41
4.69 3 0.86 3.57e-43
4.78 3 0.84 9.1477e-41
4.81 3 0.84 3.57e-43
4.83 3 0.84 3.57e-43
4.94 3 0.84 3.57e-43
4.99 3 0.84 3.57e-43
5.04 3 0.84 3.57e-43
5.08 3 0.84 3.57e-43
5.12 3 0.84 3.57e-43
5.02 3 0.84 3.57e-43
5.07 3 0.84 3.57e-43
5.11 3 0.84 3.57e-43
5.14 3 0.84 3.57e-43
5.18 3 0.84 3.57e-43
5.22 3 0.84 3.57e-43
5.26 3 0.84 3.57e-43
5.3 3 0.84 3.57e-43
5.35 3 0.84 3.57e-43
5.36 3 0.84 3.57e-43
5.58 3 0.84 3.57e-43
5.69 3 0.84 3.57e-43
5.56 3 0.84 3.57e-43
5.61 3 0.84 3.57e-43
5.58 3 0.84 3.57e-43
5.8 3 0.84 3.57e-43
5.81 3 0.84 3.57e-43
5.75 3 0.84 3.57e-43
5.91 3 0.84 3.57e-43
6.09 3 0.84 3.57e-43
6.03 3 0.84 3.57e-43
6.08 3 0.84 3.57e-43
6.15 3 0.84 3.57e-43
6.01 3 0.84 3.57e-43
6.06 3 1.35 9.1477e-41
4.69 3.06 0.86 3.57e-43
4.78 3.06 0.79 9.1477e-41
4.82 3.06 0.84 9.1477e-41
4.85 3.06 0.84 3.57e-43
4.94 3.06 0.84 3.57e-43
4.99 3.06 0.62 9.1477e-41
4.97 3.06 0.62 3.57e-43
5.08 3.06 0.62 3.57e-43
5.12 3.06 0.62 3.57e-43
5.02 3.06 0.62 3.57e-43
5.07 3.06 0.62 3.57e-43
5.11 3.06 0.62 3.57e-43
5.14 3.06 0.62 3.57e-43
5.18 3.06 0.62 3.57e-43
5.22 3.06 0.62 3.57e-43
5.26 3.06 0.62 3.57e-43
5.3 3.06 0.62 3.57e-43
5.35 3.06 0.62 3.57e-43
5.36 3.06 0.62 3.57e-43
5.58 3.06 0.62 3.57e-43
5.69 3.06 0.62 3.57e-43
5.56 3.06 0.62 3.57e-43
5.61 3.06 0.62 3.57e-43
5.58 3.06 0.62 3.57e-43
5.8 3.06 0.62 3.57e-43
5.81 3.06 0.62 3.57e-43
5.75 3.06 0.62 3.57e-43
5.91 3.06 0.62 3.57e-43
6.09 3.06 0.62 3.57e-43
6.03 3.06 0.62 3.57e-43
6.08 3.06 0.62 3.57e-43
6.15 3.06 0.62 3.57e-43
6.01 3.06 0.62 3.57e-43
6.06 3.06 1.35 9.1477e-41
4.69 3.12 0.86 3.57e-43
4.79 3.12 0.73 9.1477e-41
4.83 3.12 0.79 9.1477e-41
4.88 3.12 0.78 9.1477e-41
4.91 3.12 0.78 3.57e-43
4.99 3.12 0.78 3.57e-43
4.97 3.12 0.78 3.57e-43
5.08 3.12 0.78 3.57e-43
5.12 3.12 0.66 9.1477e-41
5.1 3.12 0.98 9.1477e-41
5.14 3.12 1.01 9.1477e-41
5.18 3.12 1.02 9.1477e-41
5.22 3.12 1.03 9.1477e-41
5.27 3.12 1.03 9.1477e-41
5.31 3.12 1.03 9.1477e-41
5.36 3.12 1.03 3.57e-43
5.3 3.12 1.03 3.57e-43
5.35 3.12 1.03 3.57e-43
5.36 3.12 1.03 3.57e-43
5.58 3.12 1.03 3.57e-43
5.69 3.12 1.03 3.57e-43
5.56 3.12 1.03 3.57e-43
5.61 3.12 1.03 3.57e-43
5.58 3.12 1.03 3.57e-43
5.8 3.12 1.03 3.57e-43
5.81 3.12 1.03 3.57e-43
5.75 3.12 1.03 3.57e-43
5.91 3.12 1.03 3.57e-43
6.09 3.12 1.03 3.57e-43
6.03 3.12 1.03 3.57e-43
6.08 3.12 1.03 3.57e-43
6.15 3.12 0.92 9.1477e-41
6.2 3.12 0.92 9.1477e-41
4.87 3.18 0.53 3.57e-43
4.89 3.18 0.71 9.1477e-41
4.93 3.18 0.73 9.1477e-41
4.96 3.18 0.73 3.57e-43
4.97 3.18 0.73 3.57e-43
5.08 3.18 0.73 3.57e-43
5.12 3.18 0.73 3.57e-43
5.1 3.18 0.73 3.57e-43
5.14 3.18 0.73 3.57e-43
5.18 3.18 0.73 3.57e-43
5.22 3.18 0.73 3.57e-43
5.27 3.18 0.73 3.57e-43
5.31 3.18 0.73 3.57e-43
5.36 3.18 0.73 3.57e-43
5.3 3.18 1.37 9.1477e-41
5.45 3.18 1.01 9.1477e-41
5.49 3.18 1.03 9.1477e-41
5.53 3.18 1.03 9.1477e-41
5.59 3.18 1.03 3.57e-43
5.56 3.18 1.03 3.57e-43
5.61 3.18 1.03 3.57e-43
5.58 3.18 1.03 3.57e-43
5.8 3.18 1.03 3.57e-43
5.81 3.18 1.03 3.57e-43
5.75 3.18 1.03 3.57e-43
5.91 3.18 1.03 3.57e-43
6.09 3.18 1.03 3.57e-43
6.03 3.18 1.03 3.57e-43
6.08 3.18 0.97 9.1477e-41
6.21 3.18 0.79 9.1477e-41
4.84 3.24 0.43 9.1477e-41
4.87 3.24 0.53 9.1477e-41
4.91 3.24 0.53 3.57e-43
4.93 3.24 0.53 3.57e-43
4.96 3.24 0.53 3.57e-43
4.97 3.24 0.98 9.1477e-41
5.07 3.24 0.67 9.1477e-41
5.12 3.24 0.7 9.1477e-41
5.16 3.24 0.72 9.1477e-41
5.19 3.24 0.76 9.1477e-41
5.24 3.24 0.76 9.1477e-41
5.29 3.24 0.76 3.57e-43
5.27 3.24 1.03 9.1477e-41
5.37 3.24 1.03 3.57e-43
5.36 3.24 1.03 3.57e-43
5.3 3.24 1.03 3.57e-43
5.45 3.24 1.03 3.57e-43
5.49 3.24 1.03 9.1477e-41
5.57 3.24 1.03 3.57e-43
5.59 3.24 1.03 3.57e-43
5.56 3.24 1.03 3.57e-43
5.61 3.24 1.03 3.57e-43
5.58 3.24 1.03 3.57e-43
5.8 3.24 0.93 9.1477e-41
5.9 3.24 0.79 9.1477e-41
5.94 3.24 0.81 9.1477e-41
6 3.24 0.79 9.1477e-41
6.07 3.24 0.75 9.1477e-41
6.16 3.24 0.65 9.1477e-41
5.07 3.3 0.46 9.1477e-41
5.11 3.3 0.51 9.1477e-41
5.15 3.3 0.52 9.1477e-41
5.19 3.3 0.55 9.1477e-41
5.23 3.3 0.59 9.1477e-41
5.28 3.3 0.6 9.1477e-41
5.33 3.3 0.59 9.1477e-41
5.37 3.3 0.63 9.1477e-41
5.41 3.3 0.65 9.1477e-41
5.46 3.3 0.63 9.1477e-41
5.51 3.3 0.65 9.1477e-41
5.55 3.3 0.66 9.1477e-41
5.6 3.3 0.64 9.1477e-41
5.65 3.3 0.65 9.1477e-41
5.69 3.3 0.67 9.1477e-41
5.77 3.3 0.59 9.1477e-41
5.82 3.3 0.6 9.1477e-41
5.87 3.3 0.59 9.1477e-41
5.92 3.3 0.59 9.1477e-41
5.99 3.3 0.54 9.1477e-41
6.08 3.3 0.45 9.1477e-41
