# .PCD v.7 - Point Cloud Data file format
VERSION .7
FIELDS x y z rgb
SIZE 4 4 4 4
TYPE F F F F
WIDTH 1977
HEIGHT 1
POINTS 1977
DATA ascii
3.8 0.34 0.81 3.57e-43
3.84 0.34 0.81 3.57e-43
3.88 0.34 0.81 3.57e-43
3.92 0.34 0.81 3.57e-43
3.97 0.34 0.81 3.57e-43
4.01 0.34 0.81 3.57e-43
4.05 0.34 0.81 3.57e-43
4.09 0.34 0.81 3.57e-43
4.14 0.34 0.81 3.57e-43
4.18 0.34 0.81 3.57e-43
4.23 0.34 0.81 3.57e-43
4.27 0.34 0.81 3.57e-43
4.31 0.34 0.81 3.57e-43
4.36 0.34 0.71 9.1477e-41
4.39 0.34 0.78 9.1477e-41
4.44 0.34 0.79 9.1477e-41
4.48 0.34 0.78 9.1477e-41
4.53 0.34 0.78 3.57e-43
3.01 0.36 0.77 9.1477e-41
3.07 0.36 0.83 9.1477e-41
3.11 0.36 0.82 9.1477e-41
3.15 0.36 0.82 3.57e-43
3.19 0.36 0.82 3.57e-43
3.23 0.36 0.82 3.57e-43
3.26 0.36 0.82 3.57e-43
3.3 0.36 0.82 3.57e-43
3.34 0.36 0.82 3.57e-43
3.39 0.36 0.82 3.57e-43
3.42 0.36 0.82 3.57e-43
3.5 0.36 0.82 3.57e-43
3.51 0.36 0.82 3.57e-43
3.56 0.36 0.82 3.57e-43
3.6 0.36 0.82 3.57e-43
3.66 0.36 0.82 3.57e-43
3.71 0.36 0.82 3.57e-43
3.75 0.36 0.82 3.57e-43
3.8 0.36 0.82 3.57e-43
3.84 0.36 0.82 3.57e-43
3.88 0.36 0.82 3.57e-43
3.92 0.36 0.82 3.57e-43
3.97 0.36 0.82 3.57e-43
4.01 0.36 0.82 3.57e-43
4.05 0.36 0.82 3.57e-43
4.09 0.36 0.82 3.57e-43
4.14 0.36 0.82 3.57e-43
4.18 0.36 0.82 3.57e-43
4.23 0.36 0.82 3.57e-43
4.27 0.36 0.82 3.57e-43
4.31 0.36 0.82 3.57e-43
4.36 0.36 0.82 3.57e-43
4.39 0.36 0.78 9.1477e-41
4.44 0.36 0.8 9.1477e-41
4.48 0.36 0.77 9.1477e-41
4.53 0.36 0.77 3.57e-43
3.01 0.38 0.8 9.1477e-41
3.06 0.38 0.82 9.1477e-41
3.11 0.38 0.82 3.57e-43
3.15 0.38 0.82 3.57e-43
3.19 0.38 0.82 3.57e-43
3.23 0.38 0.82 3.57e-43
3.26 0.38 0.82 3.57e-43
3.3 0.38 0.82 3.57e-43
3.34 0.38 0.82 3.57e-43
3.39 0.38 0.82 3.57e-43
3.42 0.38 0.82 3.57e-43
3.5 0.38 0.82 3.57e-43
3.51 0.38 0.82 3.57e-43
3.56 0.38 0.82 3.57e-43
3.6 0.38 0.82 3.57e-43
3.66 0.38 0.82 3.57e-43
3.71 0.38 0.82 3.57e-43
3.75 0.38 0.82 3.57e-43
3.8 0.38 0.82 3.57e-43
3.84 0.38 0.82 3.57e-43
3.88 0.38 0.82 3.57e-43
3.92 0.38 0.82 3.57e-43
3.97 0.38 0.82 3.57e-43
4.01 0.38 0.82 3.57e-43
4.05 0.38 0.82 3.57e-43
4.09 0.38 0.82 3.57e-43
4.14 0.38 0.82 3.57e-43
4.18 0.38 0.82 3.57e-43
4.23 0.38 0.82 3.57e-43
4.27 0.38 0.82 3.57e-43
4.31 0.38 0.82 3.57e-43
4.36 0.38 0.82 3.57e-43
4.39 0.38 0.78 9.1477e-41
4.44 0.38 0.8 9.1477e-41
4.48 0.38 0.79 9.1477e-41
4.53 0.38 0.75 9.1477e-41
4.58 0.38 0.68 9.1477e-41
3.02 0.4 0.82 9.1477e-41
3.06 0.4 0.82 9.1477e-41
3.11 0.4 0.82 3.57e-43
3.15 0.4 0.82 3.57e-43
3.19 0.4 0.82 3.57e-43
3.23 0.4 0.82 3.57e-43
3.26 0.4 0.82 3.57e-43
3.3 0.4 0.82 3.57e-43
3.34 0.4 0.82 3.57e-43
3.39 0.4 0.82 3.57e-43
3.42 0.4 0.82 3.57e-43
3.5 0.4 0.82 3.57e-43
3.51 0.4 0.82 3.57e-43
3.56 0.4 0.82 3.57e-43
3.6 0.4 0.82 3.57e-43
3.66 0.4 0.82 3.57e-43
3.71 0.4 0.82 3.57e-43
3.75 0.4 0.73 9.1477e-41
3.8 0.4 0.73 3.57e-43
3.84 0.4 0.78 9.1477e-41
3.89 0.4 0.78 3.57e-43
3.92 0.4 0.78 9.1477e-41
3.97 0.4 0.78 3.57e-43
4.01 0.4 0.78 3.57e-43
4.05 0.4 0.78 3.57e-43
4.09 0.4 0.78 3.57e-43
4.14 0.4 0.78 3.57e-43
4.18 0.4 0.78 3.57e-43
4.23 0.4 0.78 3.57e-43
4.27 0.4 0.78 3.57e-43
4.31 0.4 0.78 3.57e-43
4.36 0.4 0.78 3.57e-43
4.39 0.4 0.78 9.1477e-41
4.44 0.4 0.81 9.1477e-41
4.48 0.4 0.8 9.1477e-41
4.53 0.4 0.74 9.1477e-41
4.57 0.4 0.72 9.1477e-41
3.03 0.42 0.85 9.1477e-41
3.07 0.42 0.85 9.1477e-41
3.11 0.42 0.85 3.57e-43
3.15 0.42 0.85 3.57e-43
3.19 0.42 0.85 3.57e-43
3.23 0.42 0.85 3.57e-43
3.26 0.42 0.85 3.57e-43
3.3 0.42 0.85 3.57e-43
3.34 0.42 0.85 3.57e-43
3.39 0.42 0.85 3.57e-43
3.42 0.42 0.85 3.57e-43
3.5 0.42 0.85 3.57e-43
3.51 0.42 0.85 3.57e-43
3.56 0.42 0.85 3.57e-43
3.6 0.42 0.85 3.57e-43
3.66 0.42 0.74 9.1477e-41
3.72 0.42 0.74 3.57e-43
3.75 0.42 0.74 3.57e-43
3.8 0.42 0.91 9.1477e-41
3.85 0.42 0.91 3.57e-43
3.89 0.42 0.91 3.57e-43
3.92 0.42 0.91 3.57e-43
3.97 0.42 0.91 3.57e-43
4.01 0.42 0.91 3.57e-43
4.05 0.42 0.91 3.57e-43
4.09 0.42 0.91 3.57e-43
4.14 0.42 0.91 3.57e-43
4.18 0.42 0.91 3.57e-43
4.23 0.42 0.91 3.57e-43
4.27 0.42 0.91 3.57e-43
4.31 0.42 0.91 3.57e-43
4.36 0.42 0.91 3.57e-43
4.39 0.42 0.78 9.1477e-41
4.44 0.42 0.81 9.1477e-41
4.48 0.42 0.79 9.1477e-41
4.53 0.42 0.75 9.1477e-41
4.57 0.42 0.74 9.1477e-41
3.03 0.44 0.86 9.1477e-41
3.07 0.44 0.86 3.57e-43
3.11 0.44 0.86 3.57e-43
3.15 0.44 0.86 3.57e-43
3.19 0.44 0.86 3.57e-43
3.23 0.44 0.86 3.57e-43
3.26 0.44 0.86 3.57e-43
3.3 0.44 0.86 3.57e-43
3.34 0.44 0.86 3.57e-43
3.39 0.44 0.86 3.57e-43
3.42 0.44 0.86 3.57e-43
3.5 0.44 0.86 3.57e-43
3.51 0.44 0.86 3.57e-43
3.56 0.44 0.54 9.1477e-41
3.64 0.44 0.54 3.57e-43
3.66 0.44 0.54 3.57e-43
3.72 0.44 0.54 3.57e-43
3.75 0.44 0.54 3.57e-43
3.8 0.44 0.54 3.57e-43
3.85 0.44 0.92 9.1477e-41
3.89 0.44 0.93 9.1477e-41
3.93 0.44 0.93 3.57e-43
3.97 0.44 0.93 3.57e-43
4.01 0.44 0.93 3.57e-43
4.05 0.44 0.93 3.57e-43
4.09 0.44 0.93 3.57e-43
4.14 0.44 0.93 3.57e-43
4.18 0.44 0.93 3.57e-43
4.23 0.44 0.93 3.57e-43
4.27 0.44 0.93 3.57e-43
4.31 0.44 0.93 3.57e-43
4.36 0.44 0.93 3.57e-43
4.39 0.44 0.93 3.57e-43
4.44 0.44 0.81 9.1477e-41
4.48 0.44 0.78 9.1477e-41
4.52 0.44 0.76 9.1477e-41
4.57 0.44 0.77 9.1477e-41
3.03 0.46 0.87 9.1477e-41
3.07 0.46 0.87 3.57e-43
3.11 0.46 0.87 3.57e-43
3.15 0.46 0.87 3.57e-43
3.19 0.46 0.87 3.57e-43
3.23 0.46 0.87 3.57e-43
3.26 0.46 0.87 3.57e-43
3.3 0.46 0.87 3.57e-43
3.34 0.46 0.87 3.57e-43
3.39 0.46 0.87 3.57e-43
3.42 0.46 0.87 3.57e-43
3.5 0.46 0.87 3.57e-43
3.51 0.46 0.87 3.57e-43
3.56 0.46 0.54 9.1477e-41
3.64 0.46 0.54 3.57e-43
3.66 0.46 0.74 9.1477e-41
3.72 0.46 0.94 9.1477e-41
3.76 0.46 0.94 3.57e-43
3.8 0.46 0.91 9.1477e-41
3.85 0.46 0.94 9.1477e-41
3.89 0.46 0.94 9.1477e-41
3.93 0.46 0.93 9.1477e-41
3.97 0.46 0.93 3.57e-43
4.01 0.46 0.93 3.57e-43
4.05 0.46 0.93 3.57e-43
4.09 0.46 0.93 3.57e-43
4.14 0.46 0.93 3.57e-43
4.18 0.46 0.93 3.57e-43
4.23 0.46 0.93 3.57e-43
4.27 0.46 0.93 3.57e-43
4.31 0.46 0.93 3.57e-43
4.36 0.46 0.93 3.57e-43
4.39 0.46 0.93 3.57e-43
4.44 0.46 0.81 9.1477e-41
4.48 0.46 0.81 9.1477e-41
4.52 0.46 0.8 9.1477e-41
4.57 0.46 0.79 9.1477e-41
3.03 0.48 0.87 9.1477e-41
3.07 0.48 0.87 3.57e-43
3.11 0.48 0.87 3.57e-43
3.15 0.48 0.87 3.57e-43
3.19 0.48 0.87 3.57e-43
3.23 0.48 0.87 3.57e-43
3.26 0.48 0.87 3.57e-43
3.3 0.48 0.87 3.57e-43
3.34 0.48 0.87 3.57e-43
3.39 0.48 0.87 3.57e-43
3.42 0.48 0.55 9.1477e-41
3.51 0.48 0.55 3.57e-43
3.51 0.48 0.55 3.57e-43
3.56 0.48 0.54 9.1477e-41
3.64 0.48 0.96 9.1477e-41
3.68 0.48 0.96 9.1477e-41
3.72 0.48 0.95 9.1477e-41
3.76 0.48 0.95 9.1477e-41
3.81 0.48 0.94 9.1477e-41
3.85 0.48 0.95 9.1477e-41
3.89 0.48 0.94 9.1477e-41
3.93 0.48 0.94 9.1477e-41
3.97 0.48 0.95 9.1477e-41
4.01 0.48 0.95 9.1477e-41
4.05 0.48 0.95 3.57e-43
4.09 0.48 0.95 3.57e-43
4.14 0.48 0.95 3.57e-43
4.18 0.48 0.95 3.57e-43
4.23 0.48 0.95 3.57e-43
4.27 0.48 0.95 3.57e-43
4.31 0.48 0.95 3.57e-43
4.36 0.48 0.95 3.57e-43
4.39 0.48 0.95 3.57e-43
4.44 0.48 0.81 9.1477e-41
4.48 0.48 0.82 9.1477e-41
4.52 0.48 0.82 9.1477e-41
4.56 0.48 0.82 9.1477e-41
3.03 0.5 0.87 9.1477e-41
3.07 0.5 0.87 3.57e-43
3.11 0.5 0.87 3.57e-43
3.15 0.5 0.87 3.57e-43
3.19 0.5 0.87 3.57e-43
3.23 0.5 0.87 3.57e-43
3.26 0.5 0.87 3.57e-43
3.3 0.5 0.87 3.57e-43
3.34 0.5 0.87 3.57e-43
3.39 0.5 0.87 3.57e-43
3.42 0.5 0.55 9.1477e-41
3.51 0.5 0.55 3.57e-43
3.51 0.5 0.55 9.1477e-41
3.6 0.5 0.55 3.57e-43
3.64 0.5 0.96 9.1477e-41
3.68 0.5 0.96 9.1477e-41
3.72 0.5 0.97 9.1477e-41
3.77 0.5 0.96 9.1477e-41
3.81 0.5 0.95 9.1477e-41
3.85 0.5 0.96 9.1477e-41
3.89 0.5 0.94 9.1477e-41
3.93 0.5 0.96 9.1477e-41
3.97 0.5 0.96 9.1477e-41
4.01 0.5 0.94 9.1477e-41
4.05 0.5 0.95 9.1477e-41
4.09 0.5 0.95 3.57e-43
4.14 0.5 0.95 3.57e-43
4.18 0.5 0.95 3.57e-43
4.23 0.5 0.95 3.57e-43
4.27 0.5 0.95 3.57e-43
4.31 0.5 0.95 3.57e-43
4.36 0.5 0.95 3.57e-43
4.39 0.5 0.95 3.57e-43
4.44 0.5 0.95 3.57e-43
4.48 0.5 0.82 9.1477e-41
4.52 0.5 0.81 9.1477e-41
4.56 0.5 0.82 9.1477e-41
3.85 0.52 0.98 3.57e-43
3.89 0.52 0.98 3.57e-43
3.93 0.52 0.96 9.1477e-41
3.97 0.52 0.97 9.1477e-41
4.01 0.52 0.95 9.1477e-41
4.05 0.52 0.97 9.1477e-41
4.09 0.52 0.97 3.57e-43
4.14 0.52 0.97 3.57e-43
4.18 0.52 0.97 3.57e-43
4.23 0.52 0.97 3.57e-43
4.27 0.52 0.97 3.57e-43
4.31 0.52 0.97 3.57e-43
4.36 0.52 0.97 3.57e-43
4.39 0.52 0.97 3.57e-43
4.44 0.52 0.97 3.57e-43
4.48 0.52 0.82 9.1477e-41
4.52 0.52 0.83 9.1477e-41
4.56 0.52 0.82 9.1477e-41
3.81 0.54 0.93 3.57e-43
3.85 0.54 0.98 9.1477e-41
3.89 0.54 0.98 9.1477e-41
3.93 0.54 0.98 3.57e-43
3.97 0.54 0.98 3.57e-43
4.01 0.54 0.98 3.57e-43
4.05 0.54 0.98 3.57e-43
4.09 0.54 0.98 3.57e-43
4.18 0.54 0.98 3.57e-43
4.23 0.54 0.98 3.57e-43
4.27 0.54 0.98 3.57e-43
4.31 0.54 0.98 3.57e-43
4.36 0.54 0.98 3.57e-43
4.39 0.54 0.98 3.57e-43
4.44 0.54 0.98 3.57e-43
4.48 0.54 0.82 9.1477e-41
4.52 0.54 0.83 9.1477e-41
4.56 0.54 0.84 9.1477e-41
3.51 0.56 0.94 3.57e-43
3.56 0.56 0.96 9.1477e-41
3.6 0.56 0.96 9.1477e-41
3.64 0.56 0.96 9.1477e-41
3.68 0.56 0.93 9.1477e-41
3.72 0.56 0.95 9.1477e-41
3.76 0.56 0.94 9.1477e-41
3.81 0.56 0.93 9.1477e-41
3.85 0.56 0.95 9.1477e-41
3.89 0.56 0.97 9.1477e-41
3.93 0.56 0.98 9.1477e-41
3.97 0.56 0.98 3.57e-43
4.01 0.56 0.98 3.57e-43
4.05 0.56 0.98 3.57e-43
4.09 0.56 0.98 3.57e-43
4.14 0.56 0.98 3.57e-43
4.18 0.56 0.98 3.57e-43
4.23 0.56 0.98 3.57e-43
4.27 0.56 0.98 3.57e-43
4.31 0.56 0.98 3.57e-43
4.36 0.56 0.98 3.57e-43
4.39 0.56 0.98 3.57e-43
4.44 0.56 0.98 3.57e-43
4.48 0.56 0.82 9.1477e-41
4.52 0.56 0.83 9.1477e-41
4.56 0.56 0.84 9.1477e-41
3.3 0.58 0.94 3.57e-43
3.35 0.58 0.96 9.1477e-41
3.39 0.58 0.97 9.1477e-41
3.43 0.58 0.96 9.1477e-41
3.47 0.58 0.96 9.1477e-41
3.51 0.58 0.94 9.1477e-41
3.56 0.58 0.95 9.1477e-41
3.6 0.58 0.94 9.1477e-41
3.64 0.58 0.95 9.1477e-41
3.68 0.58 0.94 9.1477e-41
3.72 0.58 0.94 9.1477e-41
3.76 0.58 0.95 9.1477e-41
3.81 0.58 0.93 9.1477e-41
3.85 0.58 0.93 9.1477e-41
3.89 0.58 0.94 9.1477e-41
3.93 0.58 0.95 9.1477e-41
3.97 0.58 0.95 9.1477e-41
4.01 0.58 0.94 9.1477e-41
4.05 0.58 0.94 9.1477e-41
4.09 0.58 0.94 9.1477e-41
4.14 0.58 0.94 3.57e-43
4.18 0.58 0.94 3.57e-43
4.23 0.58 0.94 3.57e-43
4.27 0.58 0.94 3.57e-43
4.31 0.58 0.94 3.57e-43
4.36 0.58 0.94 3.57e-43
4.39 0.58 0.94 3.57e-43
4.44 0.58 0.94 3.57e-43
4.48 0.58 0.94 3.57e-43
4.52 0.58 0.94 3.57e-43
4.56 0.58 0.84 9.1477e-41
3.26 0.6 0.96 3.57e-43
3.3 0.6 0.94 9.1477e-41
3.35 0.6 0.95 9.1477e-41
3.39 0.6 0.95 9.1477e-41
3.43 0.6 0.93 9.1477e-41
3.47 0.6 0.95 9.1477e-41
3.51 0.6 0.94 9.1477e-41
3.56 0.6 0.96 9.1477e-41
3.6 0.6 0.95 9.1477e-41
3.64 0.6 0.96 9.1477e-41
3.68 0.6 0.95 9.1477e-41
3.72 0.6 0.96 9.1477e-41
3.77 0.6 0.97 9.1477e-41
3.81 0.6 0.96 9.1477e-41
3.85 0.6 0.97 9.1477e-41
3.89 0.6 0.99 9.1477e-41
3.93 0.6 0.98 9.1477e-41
3.97 0.6 0.97 9.1477e-41
4.01 0.6 0.97 9.1477e-41
4.05 0.6 0.93 9.1477e-41
4.09 0.6 0.94 9.1477e-41
4.18 0.6 0.94 3.57e-43
4.23 0.6 0.94 3.57e-43
4.27 0.6 0.94 3.57e-43
4.31 0.6 0.94 3.57e-43
4.36 0.6 0.94 3.57e-43
4.39 0.6 0.94 3.57e-43
4.44 0.6 0.94 3.57e-43
4.48 0.6 0.94 3.57e-43
4.52 0.6 0.94 3.57e-43
4.56 0.6 0.84 9.1477e-41
3.22 0.62 0.94 3.57e-43
3.26 0.62 0.96 9.1477e-41
3.3 0.62 0.94 9.1477e-41
3.34 0.62 0.93 9.1477e-41
3.39 0.62 0.95 9.1477e-41
3.43 0.62 0.95 9.1477e-41
3.47 0.62 0.96 9.1477e-41
3.52 0.62 0.96 9.1477e-41
3.56 0.62 0.96 9.1477e-41
3.6 0.62 0.97 9.1477e-41
3.64 0.62 0.97 9.1477e-41
3.68 0.62 0.96 9.1477e-41
3.73 0.62 0.98 9.1477e-41
3.77 0.62 0.96 9.1477e-41
3.81 0.62 0.97 9.1477e-41
3.85 0.62 0.96 9.1477e-41
3.89 0.62 0.96 9.1477e-41
3.93 0.62 0.96 9.1477e-41
3.97 0.62 0.95 9.1477e-41
4.01 0.62 0.94 9.1477e-41
4.05 0.62 0.95 9.1477e-41
4.09 0.62 0.93 9.1477e-41
4.18 0.62 0.93 9.1477e-41
4.22 0.62 0.91 9.1477e-41
4.26 0.62 0.86 9.1477e-41
4.3 0.62 0.86 3.57e-43
4.36 0.62 0.86 3.57e-43
4.39 0.62 0.86 3.57e-43
4.44 0.62 0.86 3.57e-43
4.48 0.62 0.86 3.57e-43
4.52 0.62 0.86 3.57e-43
4.56 0.62 0.84 9.1477e-41
3.13 0.64 0.95 3.57e-43
3.18 0.64 0.95 9.1477e-41
3.22 0.64 0.94 9.1477e-41
3.26 0.64 0.95 9.1477e-41
3.3 0.64 0.94 9.1477e-41
3.35 0.64 0.95 9.1477e-41
3.39 0.64 0.96 9.1477e-41
3.43 0.64 0.96 9.1477e-41
3.48 0.64 0.98 9.1477e-41
3.52 0.64 0.97 9.1477e-41
3.56 0.64 1 9.1477e-41
3.6 0.64 0.99 9.1477e-41
3.64 0.64 0.99 9.1477e-41
3.69 0.64 0.99 9.1477e-41
3.73 0.64 0.99 3.57e-43
3.77 0.64 0.99 3.57e-43
3.81 0.64 0.97 9.1477e-41
3.85 0.64 0.98 9.1477e-41
3.89 0.64 0.98 3.57e-43
3.93 0.64 0.98 3.57e-43
3.97 0.64 0.95 9.1477e-41
4.01 0.64 0.96 9.1477e-41
4.05 0.64 0.96 9.1477e-41
4.09 0.64 0.95 9.1477e-41
4.18 0.64 0.92 9.1477e-41
4.22 0.64 0.93 9.1477e-41
4.26 0.64 0.9 9.1477e-41
4.31 0.64 0.86 9.1477e-41
4.35 0.64 0.86 3.57e-43
4.39 0.64 0.86 3.57e-43
4.44 0.64 0.86 3.57e-43
4.48 0.64 0.86 3.57e-43
4.52 0.64 0.86 3.57e-43
4.56 0.64 0.84 9.1477e-41
3.13 0.66 0.95 3.57e-43
3.18 0.66 0.94 9.1477e-41
3.22 0.66 0.95 9.1477e-41
3.26 0.66 0.95 9.1477e-41
3.3 0.66 0.95 9.1477e-41
3.35 0.66 0.95 9.1477e-41
3.39 0.66 0.97 9.1477e-41
3.44 0.66 0.98 9.1477e-41
3.48 0.66 0.99 9.1477e-41
3.52 0.66 0.99 3.57e-43
3.56 0.66 0.99 3.57e-43
3.6 0.66 0.99 3.57e-43
3.64 0.66 0.99 3.57e-43
3.69 0.66 0.99 9.1477e-41
3.73 0.66 1 9.1477e-41
3.77 0.66 1.01 9.1477e-41
3.81 0.66 0.99 9.1477e-41
3.85 0.66 1 9.1477e-41
3.89 0.66 0.99 9.1477e-41
3.93 0.66 0.99 3.57e-43
3.97 0.66 0.95 9.1477e-41
4.01 0.66 0.98 9.1477e-41
4.05 0.66 0.98 9.1477e-41
4.09 0.66 0.98 9.1477e-41
4.18 0.66 0.95 9.1477e-41
4.22 0.66 0.93 9.1477e-41
4.26 0.66 0.93 9.1477e-41
4.3 0.66 0.91 9.1477e-41
4.35 0.66 0.91 3.57e-43
4.39 0.66 0.91 3.57e-43
4.44 0.66 0.91 3.57e-43
4.48 0.66 0.91 3.57e-43
4.52 0.66 0.91 3.57e-43
4.56 0.66 0.84 9.1477e-41
3.09 0.68 0.97 3.57e-43
3.13 0.68 0.95 9.1477e-41
3.18 0.68 0.95 9.1477e-41
3.22 0.68 0.95 9.1477e-41
3.26 0.68 0.95 9.1477e-41
3.31 0.68 0.95 3.57e-43
3.35 0.68 0.95 9.1477e-41
3.4 0.68 1.01 9.1477e-41
3.44 0.68 1.01 3.57e-43
3.48 0.68 1.01 3.57e-43
3.52 0.68 1.01 3.57e-43
3.56 0.68 1.01 3.57e-43
3.6 0.68 1.01 3.57e-43
3.64 0.68 0.99 9.1477e-41
3.68 0.68 0.97 9.1477e-41
3.73 0.68 0.99 9.1477e-41
3.77 0.68 0.98 9.1477e-41
3.81 0.68 0.99 9.1477e-41
3.85 0.68 0.98 9.1477e-41
3.89 0.68 0.98 9.1477e-41
3.93 0.68 0.98 3.57e-43
3.97 0.68 0.98 3.57e-43
4.01 0.68 0.98 3.57e-43
4.05 0.68 0.98 9.1477e-41
4.09 0.68 0.98 9.1477e-41
4.14 0.68 0.98 3.57e-43
4.18 0.68 0.95 9.1477e-41
4.22 0.68 0.96 9.1477e-41
4.26 0.68 0.96 9.1477e-41
4.3 0.68 0.95 9.1477e-41
4.34 0.68 0.95 9.1477e-41
4.39 0.68 0.95 3.57e-43
4.44 0.68 0.95 3.57e-43
4.48 0.68 0.95 3.57e-43
4.52 0.68 0.95 3.57e-43
4.56 0.68 0.84 9.1477e-41
3.09 0.7 0.97 3.57e-43
3.13 0.7 0.95 9.1477e-41
3.18 0.7 0.95 9.1477e-41
3.22 0.7 0.95 3.57e-43
3.26 0.7 0.95 9.1477e-41
3.31 0.7 1.01 9.1477e-41
3.36 0.7 1 9.1477e-41
3.4 0.7 1 3.57e-43
3.44 0.7 1 3.57e-43
3.48 0.7 1 3.57e-43
3.52 0.7 0.99 9.1477e-41
3.56 0.7 1 9.1477e-41
3.6 0.7 0.99 9.1477e-41
3.64 0.7 0.99 9.1477e-41
3.69 0.7 0.99 9.1477e-41
3.73 0.7 0.99 9.1477e-41
3.77 0.7 0.99 9.1477e-41
3.81 0.7 0.99 9.1477e-41
3.85 0.7 0.99 9.1477e-41
3.89 0.7 0.98 9.1477e-41
3.93 0.7 0.98 9.1477e-41
3.97 0.7 0.98 9.1477e-41
4.01 0.7 0.98 3.57e-43
4.05 0.7 0.98 3.57e-43
4.09 0.7 0.98 3.57e-43
4.14 0.7 0.98 3.57e-43
4.18 0.7 0.98 3.57e-43
4.22 0.7 0.98 3.57e-43
4.26 0.7 0.96 9.1477e-41
4.3 0.7 0.93 9.1477e-41
4.34 0.7 0.95 9.1477e-41
4.39 0.7 0.92 9.1477e-41
4.43 0.7 0.92 3.57e-43
4.48 0.7 0.92 3.57e-43
4.52 0.7 0.92 3.57e-43
4.56 0.7 0.84 9.1477e-41
3.03 0.72 0.88 9.1477e-41
3.09 0.72 0.97 9.1477e-41
3.13 0.72 0.95 9.1477e-41
3.18 0.72 0.95 3.57e-43
3.22 0.72 0.95 3.57e-43
3.26 0.72 0.95 9.1477e-41
3.32 0.72 0.95 3.57e-43
3.36 0.72 0.95 3.57e-43
3.4 0.72 1.01 9.1477e-41
3.44 0.72 0.98 9.1477e-41
3.48 0.72 1 9.1477e-41
3.52 0.72 1 9.1477e-41
3.56 0.72 1 9.1477e-41
3.6 0.72 0.99 9.1477e-41
3.64 0.72 1 9.1477e-41
3.69 0.72 0.99 9.1477e-41
3.73 0.72 0.99 9.1477e-41
3.77 0.72 1 9.1477e-41
3.81 0.72 0.99 9.1477e-41
3.85 0.72 0.98 9.1477e-41
3.89 0.72 0.99 9.1477e-41
3.93 0.72 0.99 9.1477e-41
3.97 0.72 0.99 9.1477e-41
4.01 0.72 0.98 9.1477e-41
4.05 0.72 0.99 9.1477e-41
4.09 0.72 0.99 3.57e-43
4.14 0.72 0.99 3.57e-43
4.18 0.72 0.99 3.57e-43
4.22 0.72 0.99 3.57e-43
4.26 0.72 0.99 3.57e-43
4.3 0.72 0.99 3.57e-43
4.34 0.72 0.95 9.1477e-41
4.39 0.72 0.91 9.1477e-41
4.43 0.72 0.91 3.57e-43
4.48 0.72 0.91 3.57e-43
4.52 0.72 0.91 3.57e-43
4.56 0.72 0.84 9.1477e-41
3.03 0.74 0.88 9.1477e-41
3.09 0.74 0.97 9.1477e-41
3.13 0.74 0.97 3.57e-43
3.18 0.74 0.97 3.57e-43
3.22 0.74 0.96 9.1477e-41
3.27 0.74 1.02 9.1477e-41
3.32 0.74 1.02 3.57e-43
3.36 0.74 1 9.1477e-41
3.4 0.74 1 3.57e-43
3.44 0.74 0.98 9.1477e-41
3.48 0.74 1 9.1477e-41
3.52 0.74 1.01 9.1477e-41
3.56 0.74 1.01 9.1477e-41
3.6 0.74 0.99 9.1477e-41
3.64 0.74 0.99 9.1477e-41
3.69 0.74 0.99 9.1477e-41
3.73 0.74 0.99 9.1477e-41
3.77 0.74 0.99 9.1477e-41
3.81 0.74 0.99 9.1477e-41
3.85 0.74 0.99 9.1477e-41
3.89 0.74 0.98 9.1477e-41
3.93 0.74 0.98 9.1477e-41
3.97 0.74 0.98 9.1477e-41
4.01 0.74 0.99 9.1477e-41
4.05 0.74 0.97 9.1477e-41
4.09 0.74 0.98 9.1477e-41
4.18 0.74 0.98 3.57e-43
4.22 0.74 0.98 3.57e-43
4.26 0.74 0.98 3.57e-43
4.3 0.74 0.98 3.57e-43
4.34 0.74 0.98 3.57e-43
4.39 0.74 0.91 9.1477e-41
4.43 0.74 0.91 9.1477e-41
4.47 0.74 0.94 9.1477e-41
4.51 0.74 0.94 3.57e-43
4.56 0.74 0.84 9.1477e-41
3.19 0.76 1.01 3.57e-43
3.23 0.76 1.01 9.1477e-41
3.27 0.76 1.01 9.1477e-41
3.31 0.76 1.01 3.57e-43
3.36 0.76 1 9.1477e-41
3.4 0.76 1 3.57e-43
3.44 0.76 0.98 9.1477e-41
3.48 0.76 0.99 9.1477e-41
3.52 0.76 0.99 9.1477e-41
3.56 0.76 1.02 9.1477e-41
3.6 0.76 1 9.1477e-41
3.64 0.76 1 9.1477e-41
3.69 0.76 0.99 9.1477e-41
3.73 0.76 1 9.1477e-41
3.77 0.76 0.99 9.1477e-41
3.81 0.76 0.98 9.1477e-41
3.85 0.76 0.98 9.1477e-41
3.89 0.76 0.99 9.1477e-41
3.93 0.76 0.99 9.1477e-41
3.97 0.76 0.98 9.1477e-41
4.01 0.76 0.98 9.1477e-41
4.05 0.76 0.99 9.1477e-41
4.09 0.76 0.97 9.1477e-41
4.18 0.76 0.97 9.1477e-41
4.22 0.76 0.98 9.1477e-41
4.26 0.76 0.98 3.57e-43
4.3 0.76 0.98 3.57e-43
4.34 0.76 0.98 3.57e-43
4.39 0.76 0.91 9.1477e-41
4.43 0.76 0.92 9.1477e-41
4.47 0.76 0.93 9.1477e-41
4.51 0.76 0.93 3.57e-43
4.56 0.76 0.84 9.1477e-41
3.15 0.78 0.97 3.57e-43
3.19 0.78 1.01 9.1477e-41
3.23 0.78 1.01 9.1477e-41
3.27 0.78 1.01 3.57e-43
3.31 0.78 1.01 3.57e-43
3.36 0.78 1.01 3.57e-43
3.4 0.78 1.01 3.57e-43
3.44 0.78 0.98 9.1477e-41
3.48 0.78 1 9.1477e-41
3.52 0.78 1 9.1477e-41
3.56 0.78 1 9.1477e-41
3.6 0.78 1 9.1477e-41
3.64 0.78 1 9.1477e-41
3.69 0.78 0.99 9.1477e-41
3.73 0.78 0.99 9.1477e-41
3.77 0.78 1 9.1477e-41
3.81 0.78 1 9.1477e-41
3.85 0.78 0.99 9.1477e-41
3.89 0.78 0.99 9.1477e-41
3.93 0.78 0.99 9.1477e-41
3.97 0.78 0.98 9.1477e-41
4.01 0.78 0.99 9.1477e-41
4.05 0.78 0.99 9.1477e-41
4.09 0.78 0.99 9.1477e-41
4.18 0.78 0.98 9.1477e-41
4.22 0.78 0.97 9.1477e-41
4.26 0.78 0.97 9.1477e-41
4.3 0.78 0.97 3.57e-43
4.34 0.78 0.97 3.57e-43
4.39 0.78 0.97 3.57e-43
4.43 0.78 0.92 9.1477e-41
4.47 0.78 0.92 3.57e-43
4.51 0.78 0.92 3.57e-43
4.56 0.78 0.84 9.1477e-41
3.03 0.8 0.97 3.57e-43
3.15 0.8 0.97 3.57e-43
3.19 0.8 0.97 3.57e-43
3.23 0.8 0.97 3.57e-43
3.27 0.8 0.97 3.57e-43
3.31 0.8 0.99 9.1477e-41
3.35 0.8 0.99 3.57e-43
3.4 0.8 1 9.1477e-41
3.44 0.8 1 9.1477e-41
3.48 0.8 1.01 9.1477e-41
3.52 0.8 1 9.1477e-41
3.56 0.8 1.01 9.1477e-41
3.6 0.8 1 9.1477e-41
3.64 0.8 1 9.1477e-41
3.69 0.8 1.01 9.1477e-41
3.73 0.8 0.99 9.1477e-41
3.77 0.8 1 9.1477e-41
3.81 0.8 0.99 9.1477e-41
3.85 0.8 1 9.1477e-41
3.89 0.8 0.99 9.1477e-41
3.93 0.8 0.99 9.1477e-41
3.97 0.8 1 9.1477e-41
4.01 0.8 0.99 9.1477e-41
4.05 0.8 1.01 9.1477e-41
4.09 0.8 1.01 9.1477e-41
4.18 0.8 1.01 9.1477e-41
4.22 0.8 0.97 9.1477e-41
4.26 0.8 0.97 9.1477e-41
4.3 0.8 0.96 9.1477e-41
4.34 0.8 0.96 3.57e-43
4.39 0.8 0.96 3.57e-43
4.43 0.8 0.96 3.57e-43
4.47 0.8 0.96 3.57e-43
4.51 0.8 0.96 3.57e-43
4.56 0.8 0.84 9.1477e-41
3.03 0.82 0.97 3.57e-43
3.15 0.82 0.97 3.57e-43
3.19 0.82 0.97 3.57e-43
3.23 0.82 0.97 3.57e-43
3.27 0.82 0.97 3.57e-43
3.31 0.82 0.99 9.1477e-41
3.35 0.82 0.99 9.1477e-41
3.39 0.82 0.99 9.1477e-41
3.44 0.82 0.99 9.1477e-41
3.48 0.82 1 9.1477e-41
3.52 0.82 1 9.1477e-41
3.56 0.82 1 3.57e-43
3.6 0.82 1 3.57e-43
3.64 0.82 1 3.57e-43
3.69 0.82 1 3.57e-43
3.73 0.82 1 3.57e-43
3.77 0.82 1 9.1477e-41
3.81 0.82 0.99 9.1477e-41
3.85 0.82 0.99 9.1477e-41
3.89 0.82 1.01 9.1477e-41
3.93 0.82 0.99 9.1477e-41
3.97 0.82 0.99 9.1477e-41
4.01 0.82 1 9.1477e-41
4.05 0.82 1.04 9.1477e-41
4.09 0.82 1.04 9.1477e-41
4.18 0.82 1.03 9.1477e-41
4.22 0.82 1 9.1477e-41
4.26 0.82 1 3.57e-43
4.3 0.82 0.96 9.1477e-41
4.34 0.82 0.97 9.1477e-41
4.38 0.82 0.97 3.57e-43
4.43 0.82 0.97 3.57e-43
4.47 0.82 0.97 3.57e-43
4.51 0.82 0.97 3.57e-43
4.56 0.82 0.84 9.1477e-41
3.03 0.84 0.97 3.57e-43
3.15 0.84 0.97 3.57e-43
3.19 0.84 0.97 3.57e-43
3.23 0.84 0.97 3.57e-43
3.27 0.84 0.97 3.57e-43
3.31 0.84 0.97 3.57e-43
3.35 0.84 0.97 3.57e-43
3.39 0.84 0.97 3.57e-43
3.44 0.84 0.97 3.57e-43
3.48 0.84 0.97 3.57e-43
3.52 0.84 0.97 3.57e-43
3.56 0.84 0.97 3.57e-43
3.6 0.84 0.97 3.57e-43
3.64 0.84 0.97 3.57e-43
3.27 0.84 1.01 3.57e-43
3.73 0.84 1.03 3.57e-43
3.77 0.84 1 3.57e-43
3.81 0.84 1 3.57e-43
3.85 0.84 1 3.57e-43
3.89 0.84 1 3.57e-43
3.93 0.84 1 3.57e-43
3.97 0.84 1 3.57e-43
4.01 0.84 1 9.1477e-41
4.05 0.84 1.04 9.1477e-41
4.09 0.84 1.05 9.1477e-41
4.18 0.84 1.04 9.1477e-41
4.22 0.84 1.04 3.57e-43
4.26 0.84 1.04 3.57e-43
4.3 0.84 1.04 3.57e-43
4.34 0.84 1.04 3.57e-43
4.38 0.84 0.97 9.1477e-41
4.42 0.84 0.97 3.57e-43
4.47 0.84 0.97 3.57e-43
4.51 0.84 0.97 3.57e-43
4.56 0.84 0.84 9.1477e-41
3.03 0.86 0.97 3.57e-43
3.15 0.86 0.97 3.57e-43
3.19 0.86 0.97 3.57e-43
3.23 0.86 0.97 3.57e-43
3.27 0.86 0.97 3.57e-43
3.31 0.86 0.97 3.57e-43
3.35 0.86 0.97 3.57e-43
3.39 0.86 0.97 3.57e-43
3.44 0.86 0.97 3.57e-43
3.48 0.86 0.97 3.57e-43
3.52 0.86 0.97 3.57e-43
3.56 0.86 0.97 3.57e-43
3.6 0.86 0.97 3.57e-43
3.64 0.86 0.97 3.57e-43
3.27 0.86 1.01 3.57e-43
3.73 0.86 1.03 3.57e-43
3.77 0.86 1 3.57e-43
3.81 0.86 1 3.57e-43
3.85 0.86 1 3.57e-43
3.89 0.86 1 3.57e-43
3.93 0.86 1 3.57e-43
3.97 0.86 1 3.57e-43
4.01 0.86 1 9.1477e-41
4.05 0.86 1.04 9.1477e-41
4.09 0.86 1.05 9.1477e-41
4.18 0.86 1.04 9.1477e-41
4.22 0.86 0.99 9.1477e-41
4.26 0.86 0.99 3.57e-43
4.3 0.86 0.99 3.57e-43
4.34 0.86 0.97 9.1477e-41
4.38 0.86 0.96 9.1477e-41
4.42 0.86 0.96 3.57e-43
4.47 0.86 0.96 3.57e-43
4.51 0.86 0.96 3.57e-43
4.56 0.86 0.84 9.1477e-41
3.03 0.88 0.97 3.57e-43
3.15 0.88 0.97 3.57e-43
3.19 0.88 0.97 3.57e-43
3.23 0.88 0.97 3.57e-43
3.27 0.88 0.97 3.57e-43
3.31 0.88 0.97 3.57e-43
3.35 0.88 0.97 3.57e-43
3.39 0.88 0.97 3.57e-43
3.44 0.88 0.97 3.57e-43
3.48 0.88 0.97 3.57e-43
3.52 0.88 0.97 3.57e-43
3.56 0.88 0.97 3.57e-43
3.6 0.88 0.97 3.57e-43
3.64 0.88 0.97 3.57e-43
3.27 0.88 1.01 3.57e-43
3.73 0.88 1.03 3.57e-43
3.77 0.88 1 3.57e-43
3.81 0.88 1 3.57e-43
3.85 0.88 1 3.57e-43
3.89 0.88 1 3.57e-43
3.93 0.88 1 3.57e-43
3.97 0.88 1 3.57e-43
4.01 0.88 1 3.57e-43
4.05 0.88 1 3.57e-43
4.09 0.88 1 3.57e-43
4.14 0.88 1 3.57e-43
4.18 0.88 1 3.57e-43
4.22 0.88 1 3.57e-43
4.26 0.88 1 3.57e-43
4.3 0.88 1 3.57e-43
4.34 0.88 1 3.57e-43
4.38 0.88 0.96 9.1477e-41
4.42 0.88 0.96 3.57e-43
4.47 0.88 0.96 3.57e-43
4.51 0.88 0.96 3.57e-43
4.56 0.88 0.84 9.1477e-41
3.03 0.9 0.97 3.57e-43
3.15 0.9 0.97 3.57e-43
3.19 0.9 0.97 3.57e-43
3.23 0.9 0.97 3.57e-43
3.27 0.9 0.97 3.57e-43
3.31 0.9 0.97 3.57e-43
3.35 0.9 0.97 3.57e-43
3.39 0.9 0.97 3.57e-43
3.44 0.9 0.97 3.57e-43
3.48 0.9 0.97 3.57e-43
3.52 0.9 0.97 3.57e-43
3.56 0.9 0.97 3.57e-43
3.6 0.9 0.97 3.57e-43
3.64 0.9 0.97 3.57e-43
3.27 0.9 1.01 3.57e-43
3.73 0.9 1.03 3.57e-43
3.77 0.9 1 3.57e-43
3.81 0.9 1 3.57e-43
3.85 0.9 1 3.57e-43
3.89 0.9 1 3.57e-43
3.93 0.9 1 3.57e-43
3.97 0.9 1 3.57e-43
4.01 0.9 1 3.57e-43
4.05 0.9 1 3.57e-43
4.09 0.9 1 3.57e-43
4.14 0.9 1 3.57e-43
4.18 0.9 1 3.57e-43
4.22 0.9 1 3.57e-43
4.26 0.9 1 3.57e-43
4.3 0.9 1 3.57e-43
4.34 0.9 1 3.57e-43
4.38 0.9 0.96 9.1477e-41
4.42 0.9 0.96 3.57e-43
4.47 0.9 0.96 3.57e-43
4.51 0.9 0.96 3.57e-43
4.56 0.9 0.84 9.1477e-41
3.27 0.92 1.01 3.57e-43
3.73 0.92 1.03 3.57e-43
3.77 0.92 1 9.1477e-41
3.81 0.92 1 3.57e-43
3.85 0.92 1 3.57e-43
3.89 0.92 1 3.57e-43
3.93 0.92 1 3.57e-43
3.97 0.92 1 3.57e-43
4.01 0.92 1 3.57e-43
4.05 0.92 1 3.57e-43
4.09 0.92 1 3.57e-43
4.14 0.92 1 3.57e-43
4.18 0.92 1 3.57e-43
4.22 0.92 1 3.57e-43
4.26 0.92 1 3.57e-43
4.3 0.92 1 3.57e-43
4.34 0.92 1 3.57e-43
4.38 0.92 1 3.57e-43
4.42 0.92 1 3.57e-43
4.47 0.92 1 3.57e-43
4.51 0.92 1 3.57e-43
4.56 0.92 0.84 9.1477e-41
3.27 0.94 1.01 3.57e-43
3.73 0.94 1.03 9.1477e-41
3.77 0.94 1.04 9.1477e-41
3.81 0.94 1.01 9.1477e-41
3.85 0.94 1.02 9.1477e-41
3.89 0.94 1.02 3.57e-43
3.93 0.94 1.02 3.57e-43
3.97 0.94 1.02 3.57e-43
4.01 0.94 1.02 3.57e-43
4.05 0.94 1.02 3.57e-43
4.09 0.94 1.02 3.57e-43
4.14 0.94 1.02 3.57e-43
4.18 0.94 1.02 3.57e-43
4.22 0.94 1.02 3.57e-43
4.26 0.94 1.02 3.57e-43
4.3 0.94 1.02 3.57e-43
4.34 0.94 1.02 3.57e-43
4.38 0.94 1.02 3.57e-43
4.42 0.94 1.02 3.57e-43
4.47 0.94 1.02 3.57e-43
4.51 0.94 1.02 3.57e-43
4.56 0.94 0.84 9.1477e-41
3.72 0.96 0.94 3.57e-43
3.77 0.96 1.03 9.1477e-41
3.81 0.96 1.01 9.1477e-41
3.85 0.96 1.02 9.1477e-41
3.89 0.96 1.02 3.57e-43
3.93 0.96 1.02 3.57e-43
3.97 0.96 1.02 3.57e-43
4.01 0.96 1.02 3.57e-43
4.05 0.96 1.02 3.57e-43
4.09 0.96 1.02 3.57e-43
4.14 0.96 1.02 3.57e-43
4.18 0.96 1.02 3.57e-43
4.22 0.96 1.02 3.57e-43
4.26 0.96 1.02 3.57e-43
4.3 0.96 1.02 3.57e-43
4.34 0.96 1.02 3.57e-43
4.38 0.96 1.02 3.57e-43
4.42 0.96 1.02 3.57e-43
4.47 0.96 1.02 3.57e-43
4.51 0.96 0.94 9.1477e-41
4.56 0.96 0.89 9.1477e-41
3.64 0.98 1 3.57e-43
3.69 0.98 1 9.1477e-41
3.72 0.98 0.94 9.1477e-41
3.77 0.98 0.97 9.1477e-41
3.81 0.98 0.95 9.1477e-41
3.85 0.98 0.93 9.1477e-41
3.89 0.98 0.93 3.57e-43
3.93 0.98 0.93 3.57e-43
3.97 0.98 0.93 3.57e-43
4.01 0.98 0.93 3.57e-43
4.05 0.98 0.93 3.57e-43
4.09 0.98 0.93 3.57e-43
4.14 0.98 0.93 3.57e-43
4.18 0.98 0.93 3.57e-43
4.22 0.98 0.93 3.57e-43
4.26 0.98 0.93 3.57e-43
4.3 0.98 0.93 3.57e-43
4.34 0.98 0.93 3.57e-43
4.38 0.98 0.93 3.57e-43
4.42 0.98 0.93 3.57e-43
4.47 0.98 0.93 3.57e-43
4.51 0.98 0.94 9.1477e-41
4.56 0.98 0.88 9.1477e-41
2.99 1 0.87 9.1477e-41
3.04 1 0.87 3.57e-43
3.09 1 0.87 3.57e-43
3.15 1 0.87 3.57e-43
3.19 1 0.87 3.57e-43
3.23 1 0.87 3.57e-43
3.27 1 0.87 3.57e-43
3.31 1 0.87 3.57e-43
3.35 1 0.87 3.57e-43
3.39 1 0.87 3.57e-43
3.44 1 0.87 3.57e-43
3.48 1 0.87 3.57e-43
3.52 1 0.87 3.57e-43
3.56 1 0.87 3.57e-43
3.6 1 0.87 3.57e-43
3.64 1 1 9.1477e-41
3.68 1 0.98 9.1477e-41
3.72 1 0.94 9.1477e-41
3.76 1 0.94 9.1477e-41
3.81 1 0.93 9.1477e-41
3.85 1 0.93 9.1477e-41
3.89 1 0.93 3.57e-43
3.93 1 0.93 3.57e-43
3.97 1 0.93 3.57e-43
4.01 1 0.93 3.57e-43
4.05 1 0.93 3.57e-43
4.09 1 0.93 3.57e-43
4.14 1 0.93 3.57e-43
4.18 1 0.93 3.57e-43
4.22 1 0.93 3.57e-43
4.26 1 0.93 3.57e-43
4.3 1 0.93 3.57e-43
4.34 1 0.93 3.57e-43
4.38 1 0.93 3.57e-43
4.42 1 0.93 3.57e-43
4.47 1 0.93 3.57e-43
4.51 1 0.94 9.1477e-41
4.56 1 0.88 9.1477e-41
3.23 1.02 1 3.57e-43
3.68 1.02 0.98 9.1477e-41
3.72 1.02 0.94 9.1477e-41
3.76 1.02 0.94 9.1477e-41
3.81 1.02 0.93 9.1477e-41
3.85 1.02 0.93 9.1477e-41
3.89 1.02 0.93 3.57e-43
3.93 1.02 0.93 3.57e-43
3.97 1.02 0.93 3.57e-43
4.01 1.02 0.93 3.57e-43
4.05 1.02 0.93 3.57e-43
4.09 1.02 0.93 3.57e-43
4.14 1.02 0.93 3.57e-43
4.18 1.02 0.93 3.57e-43
4.22 1.02 0.93 3.57e-43
4.26 1.02 0.93 3.57e-43
4.3 1.02 0.93 3.57e-43
4.34 1.02 0.93 3.57e-43
4.38 1.02 0.93 3.57e-43
4.42 1.02 0.93 3.57e-43
4.47 1.02 0.93 3.57e-43
4.51 1.02 0.94 9.1477e-41
4.56 1.02 0.88 9.1477e-41
3.23 1.04 1 3.57e-43
3.68 1.04 0.98 9.1477e-41
3.72 1.04 0.95 9.1477e-41
3.76 1.04 0.95 9.1477e-41
3.81 1.04 0.93 9.1477e-41
3.85 1.04 0.93 9.1477e-41
3.89 1.04 0.93 3.57e-43
3.93 1.04 0.93 3.57e-43
3.97 1.04 0.93 3.57e-43
4.01 1.04 0.93 3.57e-43
4.05 1.04 0.93 3.57e-43
4.09 1.04 0.93 3.57e-43
4.14 1.04 0.93 3.57e-43
4.18 1.04 0.93 3.57e-43
4.22 1.04 0.93 3.57e-43
4.26 1.04 0.93 3.57e-43
4.3 1.04 0.93 3.57e-43
4.34 1.04 0.93 3.57e-43
4.38 1.04 0.93 3.57e-43
4.42 1.04 0.93 3.57e-43
4.47 1.04 0.93 3.57e-43
4.51 1.04 0.94 9.1477e-41
4.56 1.04 0.94 3.57e-43
3.68 1.06 0.45 3.57e-43
3.72 1.06 0.95 9.1477e-41
3.77 1.06 0.96 9.1477e-41
3.81 1.06 0.94 9.1477e-41
3.85 1.06 0.94 9.1477e-41
3.89 1.06 0.94 3.57e-43
3.93 1.06 0.94 3.57e-43
3.97 1.06 0.94 3.57e-43
4.01 1.06 0.94 3.57e-43
4.05 1.06 0.94 3.57e-43
4.09 1.06 0.94 3.57e-43
4.14 1.06 0.94 3.57e-43
4.18 1.06 0.94 3.57e-43
4.22 1.06 0.94 3.57e-43
4.26 1.06 0.94 3.57e-43
4.3 1.06 0.94 3.57e-43
4.34 1.06 0.94 3.57e-43
4.38 1.06 0.94 3.57e-43
4.42 1.06 0.94 3.57e-43
4.47 1.06 0.94 3.57e-43
4.51 1.06 0.94 9.1477e-41
4.56 1.06 0.94 3.57e-43
3.15 1.08 1.04 3.57e-43
3.08 1.08 0.45 9.1477e-41
3.13 1.08 0.45 3.57e-43
3.27 1.08 0.45 3.57e-43
3.31 1.08 0.45 3.57e-43
3.35 1.08 0.45 3.57e-43
3.39 1.08 0.45 3.57e-43
3.44 1.08 0.45 3.57e-43
3.48 1.08 0.45 3.57e-43
3.52 1.08 0.45 3.57e-43
3.56 1.08 0.45 3.57e-43
3.6 1.08 0.45 3.57e-43
3.64 1.08 0.45 3.57e-43
3.68 1.08 0.45 3.57e-43
3.72 1.08 0.95 9.1477e-41
3.77 1.08 0.98 9.1477e-41
3.81 1.08 0.98 3.57e-43
3.85 1.08 0.98 3.57e-43
3.89 1.08 0.98 3.57e-43
3.93 1.08 0.98 3.57e-43
3.97 1.08 0.98 3.57e-43
4.01 1.08 0.98 3.57e-43
4.05 1.08 0.98 3.57e-43
4.09 1.08 0.98 3.57e-43
4.14 1.08 0.98 3.57e-43
4.18 1.08 0.98 3.57e-43
4.22 1.08 0.98 3.57e-43
4.26 1.08 0.98 3.57e-43
4.3 1.08 0.98 3.57e-43
4.34 1.08 0.98 3.57e-43
4.38 1.08 0.98 3.57e-43
4.42 1.08 0.98 3.57e-43
4.47 1.08 0.98 3.57e-43
4.51 1.08 0.94 9.1477e-41
4.56 1.08 0.94 3.57e-43
4.7 1.08 0.94 3.57e-43
2.94 1.1 1.05 9.1477e-41
2.98 1.1 1.05 3.57e-43
2.99 1.1 1.05 3.57e-43
3.04 1.1 1.05 3.57e-43
3.09 1.1 1.05 3.57e-43
3.15 1.1 1.04 9.1477e-41
3.07 1.1 0.41 9.1477e-41
3.13 1.1 0.41 3.57e-43
3.27 1.1 0.41 3.57e-43
3.31 1.1 0.41 3.57e-43
3.35 1.1 0.41 3.57e-43
3.39 1.1 0.41 3.57e-43
3.44 1.1 0.41 3.57e-43
3.48 1.1 0.41 3.57e-43
3.52 1.1 0.41 3.57e-43
3.56 1.1 0.41 3.57e-43
3.6 1.1 0.41 3.57e-43
3.64 1.1 0.41 3.57e-43
3.68 1.1 0.41 3.57e-43
3.72 1.1 0.41 3.57e-43
3.77 1.1 0.41 3.57e-43
3.81 1.1 0.41 3.57e-43
3.85 1.1 0.41 3.57e-43
3.89 1.1 0.41 3.57e-43
3.93 1.1 0.41 3.57e-43
3.97 1.1 0.41 3.57e-43
4.01 1.1 0.41 3.57e-43
4.05 1.1 0.41 3.57e-43
4.09 1.1 0.41 3.57e-43
4.14 1.1 0.41 3.57e-43
4.18 1.1 0.41 3.57e-43
4.22 1.1 0.41 3.57e-43
4.26 1.1 0.41 3.57e-43
4.3 1.1 0.41 3.57e-43
4.34 1.1 0.97 9.1477e-41
4.41 1.1 0.97 3.57e-43
4.42 1.1 0.97 3.57e-43
4.47 1.1 0.97 3.57e-43
4.51 1.1 0.94 9.1477e-41
4.56 1.1 0.94 3.57e-43
4.7 1.1 0.94 3.57e-43
4.75 1.1 0.94 3.57e-43
2.94 1.12 1.05 9.1477e-41
2.97 1.12 1.05 3.57e-43
2.99 1.12 1.05 3.57e-43
3.04 1.12 1.05 3.57e-43
3.09 1.12 1.05 3.57e-43
3.15 1.12 1.04 9.1477e-41
3.07 1.12 0.41 9.1477e-41
3.13 1.12 0.41 3.57e-43
3.27 1.12 0.41 3.57e-43
3.31 1.12 0.41 3.57e-43
3.35 1.12 0.41 3.57e-43
3.39 1.12 0.41 3.57e-43
3.44 1.12 0.99 9.1477e-41
3.38 1.12 0.99 3.57e-43
3.52 1.12 1 9.1477e-41
3.48 1.12 1 3.57e-43
3.6 1.12 1 3.57e-43
3.64 1.12 1 3.57e-43
3.68 1.12 1 3.57e-43
3.72 1.12 1 3.57e-43
3.77 1.12 1 3.57e-43
3.81 1.12 1 3.57e-43
3.85 1.12 1 3.57e-43
3.89 1.12 1 3.57e-43
3.93 1.12 1 3.57e-43
3.97 1.12 1 3.57e-43
4.01 1.12 1 3.57e-43
4.05 1.12 1 3.57e-43
4.09 1.12 1 3.57e-43
4.14 1.12 1 3.57e-43
4.18 1.12 1 3.57e-43
4.22 1.12 1 3.57e-43
4.26 1.12 1 3.57e-43
4.3 1.12 1 3.57e-43
4.34 1.12 0.97 9.1477e-41
4.41 1.12 0.97 3.57e-43
4.42 1.12 0.97 3.57e-43
4.47 1.12 0.97 3.57e-43
4.51 1.12 0.94 9.1477e-41
4.56 1.12 0.94 3.57e-43
4.7 1.12 0.94 3.57e-43
4.75 1.12 0.94 3.57e-43
2.89 1.14 1.03 9.1477e-41
2.92 1.14 0.98 9.1477e-41
2.72 1.14 0.98 3.57e-43
2.99 1.14 0.9 9.1477e-41
3.07 1.14 0.9 3.57e-43
3.09 1.14 0.9 3.57e-43
3.15 1.14 1.04 9.1477e-41
3.13 1.14 1.04 3.57e-43
3.27 1.14 1.04 3.57e-43
3.31 1.14 1.04 3.57e-43
3.35 1.14 1.04 3.57e-43
3.39 1.14 1.04 3.57e-43
3.44 1.14 1.04 3.57e-43
3.38 1.14 1.04 3.57e-43
3.52 1.14 1.04 3.57e-43
3.48 1.14 1.04 3.57e-43
3.6 1.14 1.04 3.57e-43
3.64 1.14 1.04 3.57e-43
3.68 1.14 0.98 9.1477e-41
3.72 1.14 0.92 9.1477e-41
3.76 1.14 0.91 9.1477e-41
3.8 1.14 0.88 9.1477e-41
3.85 1.14 0.88 3.57e-43
3.89 1.14 0.88 3.57e-43
3.93 1.14 0.99 9.1477e-41
3.96 1.14 0.99 3.57e-43
4.01 1.14 0.99 3.57e-43
4.05 1.14 0.99 3.57e-43
4.09 1.14 0.99 3.57e-43
4.14 1.14 0.99 3.57e-43
4.18 1.14 0.99 3.57e-43
4.22 1.14 0.99 9.1477e-41
4.27 1.14 0.99 3.57e-43
4.3 1.14 0.99 3.57e-43
4.34 1.14 0.97 9.1477e-41
4.41 1.14 0.97 3.57e-43
4.42 1.14 0.97 3.57e-43
4.47 1.14 0.97 3.57e-43
4.51 1.14 0.94 9.1477e-41
4.56 1.14 0.94 3.57e-43
4.63 1.14 1.01 9.1477e-41
4.67 1.14 1.01 3.57e-43
2.83 1.16 0.96 9.1477e-41
2.74 1.16 0.96 3.57e-43
2.99 1.16 0.9 9.1477e-41
3.05 1.16 0.9 3.57e-43
3.09 1.16 0.9 3.57e-43
3.15 1.16 1.04 9.1477e-41
3.13 1.16 1.04 3.57e-43
3.27 1.16 1.04 3.57e-43
3.31 1.16 1.04 3.57e-43
3.35 1.16 1.04 3.57e-43
3.39 1.16 1.04 3.57e-43
3.44 1.16 1.04 3.57e-43
3.38 1.16 1.04 3.57e-43
3.52 1.16 1.04 3.57e-43
3.48 1.16 1.04 3.57e-43
3.6 1.16 1.04 3.57e-43
3.64 1.16 1.04 3.57e-43
3.68 1.16 1.04 3.57e-43
3.72 1.16 0.92 9.1477e-41
3.76 1.16 0.89 9.1477e-41
3.8 1.16 0.89 9.1477e-41
3.84 1.16 0.89 3.57e-43
3.89 1.16 0.89 3.57e-43
3.93 1.16 0.99 9.1477e-41
3.97 1.16 0.99 3.57e-43
4.01 1.16 0.99 3.57e-43
4.05 1.16 0.99 3.57e-43
4.09 1.16 0.99 3.57e-43
4.14 1.16 0.99 3.57e-43
4.18 1.16 0.99 3.57e-43
4.22 1.16 0.99 9.1477e-41
4.27 1.16 0.99 3.57e-43
4.3 1.16 0.99 3.57e-43
4.34 1.16 0.99 3.57e-43
4.41 1.16 0.99 3.57e-43
4.42 1.16 0.99 3.57e-43
4.47 1.16 0.99 3.57e-43
4.51 1.16 0.94 9.1477e-41
4.55 1.16 0.94 3.57e-43
4.63 1.16 1.01 9.1477e-41
4.67 1.16 1.01 3.57e-43
2.99 1.18 0.9 9.1477e-41
3.04 1.18 0.9 3.57e-43
3.09 1.18 0.9 3.57e-43
3.15 1.18 1.04 9.1477e-41
3.13 1.18 1.04 3.57e-43
3.27 1.18 1.04 3.57e-43
3.31 1.18 1.04 3.57e-43
3.35 1.18 1.04 3.57e-43
3.39 1.18 1.04 3.57e-43
3.44 1.18 1.04 3.57e-43
3.38 1.18 1.04 3.57e-43
3.52 1.18 1.04 3.57e-43
3.48 1.18 1.04 3.57e-43
3.6 1.18 1.04 3.57e-43
3.64 1.18 1.04 3.57e-43
3.68 1.18 1.04 3.57e-43
3.72 1.18 1.04 3.57e-43
3.76 1.18 0.89 9.1477e-41
3.78 1.18 0.49 9.1477e-41
3.82 1.18 0.49 3.57e-43
3.89 1.18 0.49 3.57e-43
3.93 1.18 0.49 3.57e-43
3.97 1.18 0.49 3.57e-43
4.01 1.18 0.49 3.57e-43
4.05 1.18 0.49 3.57e-43
4.09 1.18 0.49 3.57e-43
4.14 1.18 0.49 3.57e-43
4.18 1.18 0.49 3.57e-43
4.22 1.18 0.99 9.1477e-41
4.27 1.18 0.68 9.1477e-41
4.32 1.18 0.68 3.57e-43
4.34 1.18 0.68 3.57e-43
4.41 1.18 0.68 3.57e-43
4.42 1.18 0.68 3.57e-43
4.47 1.18 0.94 9.1477e-41
4.5 1.18 1.06 9.1477e-41
4.56 1.18 1.06 3.57e-43
4.67 1.18 1.06 3.57e-43
2.99 1.2 0.9 9.1477e-41
3.04 1.2 0.9 3.57e-43
3.09 1.2 0.9 3.57e-43
3.15 1.2 1.04 9.1477e-41
3.12 1.2 1.04 3.57e-43
3.27 1.2 1.04 3.57e-43
3.31 1.2 1.04 3.57e-43
3.35 1.2 1.04 3.57e-43
3.39 1.2 1.04 3.57e-43
3.44 1.2 1.04 3.57e-43
3.38 1.2 1.04 3.57e-43
3.52 1.2 1.04 3.57e-43
3.48 1.2 1.04 3.57e-43
3.6 1.2 1.04 3.57e-43
3.64 1.2 1.04 3.57e-43
3.68 1.2 1.04 3.57e-43
3.72 1.2 1.04 3.57e-43
3.76 1.2 0.89 9.1477e-41
3.78 1.2 0.48 9.1477e-41
3.82 1.2 0.48 3.57e-43
3.89 1.2 0.48 3.57e-43
3.93 1.2 0.48 3.57e-43
3.97 1.2 0.48 3.57e-43
4.01 1.2 0.48 3.57e-43
4.05 1.2 0.48 3.57e-43
4.09 1.2 0.48 3.57e-43
4.14 1.2 0.48 3.57e-43
4.18 1.2 1.04 9.1477e-41
4.22 1.2 1.04 3.57e-43
4.27 1.2 1.04 3.57e-43
4.32 1.2 1.04 3.57e-43
4.34 1.2 1.04 3.57e-43
4.41 1.2 1.04 3.57e-43
4.42 1.2 1.04 3.57e-43
4.47 1.2 0.94 9.1477e-41
4.51 1.2 0.96 9.1477e-41
4.56 1.2 0.89 9.1477e-41
4.72 1.2 0.94 9.1477e-41
2.99 1.22 0.9 9.1477e-41
3.04 1.22 0.9 3.57e-43
3.09 1.22 0.9 3.57e-43
3.15 1.22 1.04 9.1477e-41
3.12 1.22 1.04 3.57e-43
3.27 1.22 1.04 3.57e-43
3.31 1.22 1.04 3.57e-43
3.35 1.22 1.04 3.57e-43
3.39 1.22 1.04 3.57e-43
3.44 1.22 1.04 3.57e-43
3.38 1.22 1.04 3.57e-43
3.52 1.22 1.04 3.57e-43
3.64 1.22 1.04 3.57e-43
3.64 1.22 1.04 3.57e-43
3.68 1.22 1.04 3.57e-43
3.72 1.22 1.04 3.57e-43
3.76 1.22 1.04 3.57e-43
3.78 1.22 1.04 3.57e-43
3.82 1.22 1.04 3.57e-43
3.89 1.22 0.97 9.1477e-41
3.92 1.22 0.8 9.1477e-41
3.97 1.22 0.8 3.57e-43
4.01 1.22 0.8 3.57e-43
4.05 1.22 0.8 3.57e-43
4.09 1.22 0.8 3.57e-43
4.14 1.22 0.8 3.57e-43
4.18 1.22 0.8 3.57e-43
4.22 1.22 0.77 9.1477e-41
4.27 1.22 0.77 3.57e-43
4.32 1.22 0.77 3.57e-43
4.34 1.22 0.77 3.57e-43
4.41 1.22 0.77 3.57e-43
4.42 1.22 0.77 3.57e-43
4.47 1.22 0.94 9.1477e-41
4.51 1.22 0.91 9.1477e-41
4.56 1.22 0.88 9.1477e-41
2.99 1.24 0.9 9.1477e-41
3.04 1.24 0.9 3.57e-43
3.09 1.24 0.9 3.57e-43
3.15 1.24 1.04 9.1477e-41
3.12 1.24 1.04 3.57e-43
3.27 1.24 1.04 3.57e-43
3.31 1.24 1.04 3.57e-43
3.35 1.24 1.04 3.57e-43
3.39 1.24 1.04 3.57e-43
3.44 1.24 1.04 3.57e-43
3.38 1.24 1.04 3.57e-43
3.52 1.24 1 9.1477e-41
3.6 1.24 1.31 9.1477e-41
3.64 1.24 1.31 3.57e-43
3.64 1.24 1.31 3.57e-43
3.68 1.24 1.31 3.57e-43
3.72 1.24 1.31 3.57e-43
3.76 1.24 1.31 3.57e-43
3.78 1.24 1.31 3.57e-43
3.82 1.24 1.31 3.57e-43
3.89 1.24 0.97 9.1477e-41
3.94 1.24 0.97 3.57e-43
3.97 1.24 0.97 3.57e-43
4.01 1.24 0.97 3.57e-43
4.05 1.24 0.97 3.57e-43
4.09 1.24 0.97 3.57e-43
4.14 1.24 0.97 3.57e-43
4.18 1.24 0.97 3.57e-43
4.22 1.24 0.97 3.57e-43
4.27 1.24 0.97 3.57e-43
4.32 1.24 0.97 3.57e-43
4.34 1.24 0.97 3.57e-43
4.41 1.24 0.97 3.57e-43
4.42 1.24 0.97 3.57e-43
4.47 1.24 0.94 9.1477e-41
4.51 1.24 0.9 9.1477e-41
4.56 1.24 0.87 9.1477e-41
2.99 1.26 0.9 9.1477e-41
3.04 1.26 0.9 3.57e-43
3.09 1.26 0.9 3.57e-43
3.15 1.26 0.9 3.57e-43
3.12 1.26 0.9 3.57e-43
3.27 1.26 0.9 3.57e-43
3.31 1.26 0.9 3.57e-43
3.35 1.26 0.9 3.57e-43
3.39 1.26 0.9 3.57e-43
3.44 1.26 0.9 3.57e-43
3.56 1.26 1.34 9.1477e-41
3.6 1.26 1.34 3.57e-43
3.64 1.26 1.34 3.57e-43
3.64 1.26 1.34 3.57e-43
3.68 1.26 1.34 3.57e-43
3.72 1.26 1.34 3.57e-43
3.76 1.26 1.34 3.57e-43
3.78 1.26 1.34 3.57e-43
3.82 1.26 1.34 3.57e-43
3.89 1.26 0.97 9.1477e-41
3.94 1.26 0.97 3.57e-43
3.97 1.26 0.97 3.57e-43
4.01 1.26 0.97 3.57e-43
4.05 1.26 0.97 3.57e-43
4.09 1.26 0.97 3.57e-43
4.14 1.26 0.97 3.57e-43
4.18 1.26 0.97 3.57e-43
4.22 1.26 0.97 3.57e-43
4.27 1.26 0.97 3.57e-43
4.32 1.26 0.97 3.57e-43
4.34 1.26 0.97 3.57e-43
4.41 1.26 0.97 3.57e-43
4.42 1.26 0.97 3.57e-43
4.47 1.26 0.94 9.1477e-41
4.52 1.26 0.88 9.1477e-41
4.56 1.26 0.89 9.1477e-41
2.99 1.28 0.9 9.1477e-41
3.04 1.28 0.9 3.57e-43
3.09 1.28 0.9 3.57e-43
3.15 1.28 0.9 3.57e-43
3.07 1.28 0.9 3.57e-43
3.12 1.28 0.43 9.1477e-41
3.33 1.28 0.43 3.57e-43
3.31 1.28 0.43 3.57e-43
3.35 1.28 0.43 3.57e-43
3.39 1.28 0.43 3.57e-43
3.44 1.28 0.43 3.57e-43
3.56 1.28 1.32 9.1477e-41
3.6 1.28 1.32 3.57e-43
3.64 1.28 1.32 3.57e-43
3.64 1.28 1.32 3.57e-43
3.68 1.28 1.32 3.57e-43
3.72 1.28 1.32 3.57e-43
3.76 1.28 1.32 3.57e-43
3.78 1.28 1.32 3.57e-43
3.82 1.28 1.32 3.57e-43
3.89 1.28 1.32 3.57e-43
3.94 1.28 1.32 3.57e-43
3.97 1.28 1.32 3.57e-43
4.01 1.28 1.32 3.57e-43
4.05 1.28 1.32 3.57e-43
4.09 1.28 1.32 3.57e-43
4.14 1.28 1.32 3.57e-43
4.18 1.28 1.32 3.57e-43
4.22 1.28 1.32 3.57e-43
4.27 1.28 0.73 9.1477e-41
4.3 1.28 1.02 9.1477e-41
4.33 1.28 1.02 3.57e-43
4.41 1.28 1.02 3.57e-43
4.42 1.28 1.02 3.57e-43
4.47 1.28 0.94 9.1477e-41
4.52 1.28 0.88 9.1477e-41
4.56 1.28 0.89 9.1477e-41
2.99 1.3 0.9 9.1477e-41
3.04 1.3 0.9 3.57e-43
3.09 1.3 0.9 3.57e-43
3.15 1.3 0.9 3.57e-43
3.29 1.3 1.33 9.1477e-41
3.33 1.3 1.33 9.1477e-41
3.23 1.3 1.33 3.57e-43
3.35 1.3 1.33 3.57e-43
3.39 1.3 1.33 3.57e-43
3.44 1.3 1.33 3.57e-43
3.38 1.3 1.33 3.57e-43
3.56 1.3 1.33 3.57e-43
3.6 1.3 1.33 3.57e-43
3.64 1.3 1.33 3.57e-43
3.64 1.3 1.33 3.57e-43
3.68 1.3 1.33 3.57e-43
3.72 1.3 1.33 3.57e-43
3.76 1.3 1.33 3.57e-43
3.78 1.3 1.33 3.57e-43
3.82 1.3 1.33 3.57e-43
3.89 1.3 1.33 3.57e-43
3.94 1.3 1.33 3.57e-43
3.97 1.3 1.33 3.57e-43
4.01 1.3 1.33 3.57e-43
4.05 1.3 1.33 3.57e-43
4.09 1.3 1.33 3.57e-43
4.14 1.3 1.33 3.57e-43
4.18 1.3 1.33 3.57e-43
4.22 1.3 0.77 9.1477e-41
4.26 1.3 1.02 9.1477e-41
4.3 1.3 1.02 9.1477e-41
4.33 1.3 1.02 3.57e-43
4.41 1.3 1.02 3.57e-43
4.42 1.3 1.02 3.57e-43
4.47 1.3 0.94 9.1477e-41
4.52 1.3 0.88 9.1477e-41
4.56 1.3 0.89 9.1477e-41
2.99 1.32 0.9 9.1477e-41
3.04 1.32 0.92 9.1477e-41
3.1 1.32 0.92 3.57e-43
3.15 1.32 0.92 3.57e-43
3.07 1.32 0.92 3.57e-43
3.29 1.32 0.92 3.57e-43
3.33 1.32 0.92 3.57e-43
3.23 1.32 0.92 3.57e-43
3.35 1.32 0.92 3.57e-43
3.39 1.32 0.92 3.57e-43
3.44 1.32 0.92 3.57e-43
3.38 1.32 0.92 3.57e-43
3.56 1.32 0.92 3.57e-43
3.6 1.32 0.92 3.57e-43
3.64 1.32 0.92 3.57e-43
3.64 1.32 0.92 3.57e-43
3.68 1.32 0.92 3.57e-43
3.72 1.32 0.92 3.57e-43
3.76 1.32 0.92 3.57e-43
3.78 1.32 0.92 3.57e-43
3.82 1.32 0.92 3.57e-43
3.89 1.32 0.92 3.57e-43
3.94 1.32 0.92 3.57e-43
3.97 1.32 0.92 3.57e-43
4.01 1.32 0.92 3.57e-43
4.05 1.32 0.92 3.57e-43
4.09 1.32 0.92 3.57e-43
4.14 1.32 0.92 3.57e-43
4.18 1.32 0.92 3.57e-43
4.22 1.32 0.92 3.57e-43
4.26 1.32 1.02 9.1477e-41
4.3 1.32 1.02 3.57e-43
4.33 1.32 1.02 3.57e-43
4.41 1.32 1.02 3.57e-43
4.42 1.32 1.02 3.57e-43
4.47 1.32 0.94 9.1477e-41
4.51 1.32 0.89 9.1477e-41
4.56 1.32 0.89 9.1477e-41
2.99 1.34 0.9 9.1477e-41
3.04 1.34 0.93 9.1477e-41
3.1 1.34 0.93 3.57e-43
3.15 1.34 0.93 3.57e-43
3.07 1.34 0.93 3.57e-43
3.29 1.34 0.93 3.57e-43
3.33 1.34 0.93 3.57e-43
3.23 1.34 0.93 3.57e-43
3.35 1.34 0.93 3.57e-43
3.39 1.34 0.93 3.57e-43
3.44 1.34 0.93 3.57e-43
3.38 1.34 0.93 3.57e-43
3.56 1.34 0.93 3.57e-43
3.6 1.34 0.93 3.57e-43
3.64 1.34 1.34 9.1477e-41
3.68 1.34 1.38 9.1477e-41
3.72 1.34 1.38 3.57e-43
3.72 1.34 1.38 3.57e-43
3.76 1.34 0.89 9.1477e-41
3.83 1.34 1.39 9.1477e-41
3.87 1.34 1.37 9.1477e-41
3.91 1.34 1.37 3.57e-43
3.94 1.34 1.37 3.57e-43
3.97 1.34 1.37 3.57e-43
4.01 1.34 1.37 3.57e-43
4.05 1.34 1.37 3.57e-43
4.09 1.34 1.37 3.57e-43
4.14 1.34 1.37 3.57e-43
4.18 1.34 1.37 3.57e-43
4.22 1.34 1.37 3.57e-43
4.26 1.34 1.02 9.1477e-41
4.3 1.34 1.02 3.57e-43
4.33 1.34 1.02 3.57e-43
4.41 1.34 1.02 3.57e-43
4.42 1.34 1.02 3.57e-43
4.47 1.34 0.94 9.1477e-41
4.51 1.34 0.89 9.1477e-41
4.56 1.34 0.88 9.1477e-41
2.99 1.36 0.9 9.1477e-41
3.04 1.36 0.93 9.1477e-41
3.1 1.36 0.93 3.57e-43
3.15 1.36 1.04 9.1477e-41
3.26 1.36 1.04 3.57e-43
3.29 1.36 1.04 3.57e-43
3.33 1.36 1.04 3.57e-43
3.23 1.36 0.52 9.1477e-41
3.41 1.36 0.52 3.57e-43
3.39 1.36 0.52 3.57e-43
3.44 1.36 0.52 3.57e-43
3.57 1.36 1.39 9.1477e-41
3.61 1.36 1.39 9.1477e-41
3.65 1.36 1.4 9.1477e-41
3.68 1.36 1.39 9.1477e-41
3.72 1.36 1.4 9.1477e-41
3.76 1.36 1.39 9.1477e-41
3.8 1.36 1.39 9.1477e-41
3.83 1.36 1.39 9.1477e-41
3.87 1.36 1.4 9.1477e-41
3.91 1.36 1.4 9.1477e-41
3.95 1.36 1.39 9.1477e-41
3.98 1.36 1.39 9.1477e-41
4.02 1.36 1.38 9.1477e-41
4.06 1.36 1.38 9.1477e-41
4.09 1.36 1.38 3.57e-43
4.14 1.36 1.38 3.57e-43
4.18 1.36 1.38 3.57e-43
4.22 1.36 1.38 3.57e-43
4.26 1.36 1.38 3.57e-43
4.3 1.36 1.38 3.57e-43
4.33 1.36 1.38 3.57e-43
4.41 1.36 1.38 3.57e-43
4.42 1.36 1.38 3.57e-43
4.47 1.36 0.94 9.1477e-41
4.51 1.36 0.89 9.1477e-41
4.56 1.36 0.89 9.1477e-41
2.99 1.38 0.9 9.1477e-41
3.05 1.38 0.94 9.1477e-41
3.1 1.38 0.94 3.57e-43
3.15 1.38 1.04 9.1477e-41
3.26 1.38 1.38 9.1477e-41
3.3 1.38 1.38 3.57e-43
3.33 1.38 1.38 3.57e-43
3.23 1.38 1.38 3.57e-43
3.41 1.38 1.38 3.57e-43
3.39 1.38 1.38 3.57e-43
3.44 1.38 0.99 9.1477e-41
3.53 1.38 1.4 9.1477e-41
3.57 1.38 1.41 9.1477e-41
3.61 1.38 1.4 9.1477e-41
3.65 1.38 1.4 9.1477e-41
3.68 1.38 1.41 9.1477e-41
3.72 1.38 1.4 9.1477e-41
3.76 1.38 1.41 9.1477e-41
3.8 1.38 1.4 9.1477e-41
3.83 1.38 1.4 9.1477e-41
3.87 1.38 1.4 9.1477e-41
3.91 1.38 1.4 9.1477e-41
3.95 1.38 1.39 9.1477e-41
3.98 1.38 1.39 9.1477e-41
4.02 1.38 1.39 9.1477e-41
4.06 1.38 1.39 3.57e-43
4.09 1.38 1.39 3.57e-43
4.14 1.38 1.39 3.57e-43
4.18 1.38 1.04 9.1477e-41
4.21 1.38 1.36 9.1477e-41
4.25 1.38 1.36 3.57e-43
4.3 1.38 1.36 3.57e-43
4.33 1.38 1.36 3.57e-43
4.41 1.38 1.36 3.57e-43
4.42 1.38 1.36 3.57e-43
4.47 1.38 0.94 9.1477e-41
4.51 1.38 0.89 9.1477e-41
4.56 1.38 0.89 3.57e-43
2.99 1.4 0.9 9.1477e-41
3.05 1.4 0.94 9.1477e-41
3.09 1.4 0.94 3.57e-43
3.15 1.4 1.04 9.1477e-41
3.26 1.4 1.04 3.57e-43
3.3 1.4 1.04 3.57e-43
3.33 1.4 1.04 3.57e-43
3.23 1.4 1.04 3.57e-43
3.41 1.4 1.04 3.57e-43
3.39 1.4 0.99 9.1477e-41
3.5 1.4 1.41 9.1477e-41
3.53 1.4 1.4 9.1477e-41
3.57 1.4 1.42 9.1477e-41
3.61 1.4 1.4 9.1477e-41
3.65 1.4 1.41 9.1477e-41
3.68 1.4 1.41 9.1477e-41
3.72 1.4 1.41 9.1477e-41
3.76 1.4 1.42 9.1477e-41
3.8 1.4 1.41 9.1477e-41
3.83 1.4 1.41 9.1477e-41
3.87 1.4 1.41 9.1477e-41
3.91 1.4 1.41 9.1477e-41
3.95 1.4 1.41 9.1477e-41
3.98 1.4 1.4 9.1477e-41
4.02 1.4 1.41 9.1477e-41
4.06 1.4 1.41 9.1477e-41
4.09 1.4 1.41 3.57e-43
4.14 1.4 1.41 3.57e-43
4.18 1.4 1.41 3.57e-43
4.21 1.4 1.41 3.57e-43
4.25 1.4 1.41 3.57e-43
4.3 1.4 1 9.1477e-41
4.32 1.4 1.35 9.1477e-41
4.36 1.4 1.35 3.57e-43
4.42 1.4 0.98 9.1477e-41
4.47 1.4 0.9 9.1477e-41
4.51 1.4 0.9 9.1477e-41
4.56 1.4 0.9 3.57e-43
3 1.42 0.92 9.1477e-41
3.05 1.42 0.95 9.1477e-41
3.09 1.42 0.95 3.57e-43
3.15 1.42 1.04 9.1477e-41
3.26 1.42 1.39 9.1477e-41
3.3 1.42 1.39 3.57e-43
3.33 1.42 1.39 3.57e-43
3.23 1.42 1.39 3.57e-43
3.41 1.42 1.39 3.57e-43
3.39 1.42 0.99 9.1477e-41
3.5 1.42 1.42 9.1477e-41
3.53 1.42 1.41 9.1477e-41
3.57 1.42 1.42 9.1477e-41
3.61 1.42 1.41 9.1477e-41
3.65 1.42 1.42 9.1477e-41
3.68 1.42 1.4 9.1477e-41
3.72 1.42 1.41 9.1477e-41
3.76 1.42 1.41 9.1477e-41
3.8 1.42 1.42 9.1477e-41
3.83 1.42 1.41 9.1477e-41
3.87 1.42 1.41 9.1477e-41
3.91 1.42 1.41 9.1477e-41
3.95 1.42 1.42 9.1477e-41
3.98 1.42 1.41 9.1477e-41
4.02 1.42 1.4 9.1477e-41
4.06 1.42 1.41 9.1477e-41
4.09 1.42 1.39 9.1477e-41
4.17 1.42 1.39 3.57e-43
4.21 1.42 1.39 3.57e-43
4.25 1.42 1.39 3.57e-43
4.3 1.42 1 9.1477e-41
4.32 1.42 1.36 9.1477e-41
4.36 1.42 1.36 3.57e-43
4.42 1.42 0.98 9.1477e-41
4.47 1.42 0.88 9.1477e-41
4.51 1.42 0.89 9.1477e-41
4.56 1.42 0.9 9.1477e-41
3 1.44 0.92 9.1477e-41
3.05 1.44 0.94 9.1477e-41
3.1 1.44 0.94 3.57e-43
3.15 1.44 1.04 9.1477e-41
3.26 1.44 1.4 9.1477e-41
3.3 1.44 1.4 3.57e-43
3.33 1.44 1.4 3.57e-43
3.23 1.44 1.4 3.57e-43
3.41 1.44 1.4 3.57e-43
3.39 1.44 0.99 9.1477e-41
3.5 1.44 1.43 9.1477e-41
3.53 1.44 1.41 9.1477e-41
3.57 1.44 1.42 9.1477e-41
3.61 1.44 1.42 9.1477e-41
3.65 1.44 1.42 9.1477e-41
3.69 1.44 1.42 9.1477e-41
3.72 1.44 1.41 9.1477e-41
3.76 1.44 1.43 9.1477e-41
3.8 1.44 1.43 9.1477e-41
3.83 1.44 1.4 9.1477e-41
3.87 1.44 1.42 9.1477e-41
3.91 1.44 1.41 9.1477e-41
3.95 1.44 1.42 9.1477e-41
3.98 1.44 1.41 9.1477e-41
4.02 1.44 1.41 9.1477e-41
4.06 1.44 1.41 9.1477e-41
4.09 1.44 1.4 9.1477e-41
4.17 1.44 1.4 3.57e-43
4.21 1.44 1.4 3.57e-43
4.25 1.44 1.4 3.57e-43
4.3 1.44 1 9.1477e-41
4.32 1.44 1.36 9.1477e-41
4.36 1.44 1.36 3.57e-43
4.42 1.44 0.98 9.1477e-41
4.47 1.44 0.91 9.1477e-41
4.51 1.44 0.89 9.1477e-41
4.56 1.44 0.89 3.57e-43
3 1.46 0.93 9.1477e-41
3.05 1.46 0.94 9.1477e-41
3.09 1.46 0.94 3.57e-43
3.15 1.46 1.04 9.1477e-41
3.26 1.46 1.4 9.1477e-41
3.3 1.46 1.4 3.57e-43
3.33 1.46 1.4 3.57e-43
3.23 1.46 1.4 3.57e-43
3.41 1.46 1.38 9.1477e-41
3.46 1.46 1.42 9.1477e-41
3.5 1.46 1.43 9.1477e-41
3.54 1.46 1.42 9.1477e-41
3.57 1.46 1.43 9.1477e-41
3.61 1.46 1.42 9.1477e-41
3.65 1.46 1.43 9.1477e-41
3.69 1.46 1.42 9.1477e-41
3.72 1.46 1.42 9.1477e-41
3.76 1.46 1.43 9.1477e-41
3.8 1.46 1.42 9.1477e-41
3.84 1.46 1.43 9.1477e-41
3.87 1.46 1.42 9.1477e-41
3.91 1.46 1.42 9.1477e-41
3.95 1.46 1.43 9.1477e-41
3.98 1.46 1.42 9.1477e-41
4.02 1.46 1.42 9.1477e-41
4.06 1.46 1.4 9.1477e-41
4.09 1.46 1.42 9.1477e-41
4.17 1.46 1.4 9.1477e-41
4.21 1.46 1.4 3.57e-43
4.25 1.46 1.4 3.57e-43
4.3 1.46 1 9.1477e-41
4.32 1.46 1.37 9.1477e-41
4.36 1.46 1.35 9.1477e-41
4.41 1.46 1.14 9.1477e-41
4.47 1.46 0.95 9.1477e-41
4.51 1.46 0.9 9.1477e-41
4.56 1.46 0.9 3.57e-43
3 1.48 0.95 9.1477e-41
3.05 1.48 0.94 9.1477e-41
3.09 1.48 0.94 3.57e-43
3.15 1.48 1.04 9.1477e-41
3.26 1.48 1.4 9.1477e-41
3.3 1.48 1.4 3.57e-43
3.33 1.48 1.33 9.1477e-41
3.38 1.48 1.33 3.57e-43
3.41 1.48 1.38 9.1477e-41
3.46 1.48 1.41 9.1477e-41
3.5 1.48 1.43 9.1477e-41
3.54 1.48 1.43 9.1477e-41
3.57 1.48 1.43 9.1477e-41
3.61 1.48 1.42 9.1477e-41
3.65 1.48 1.44 9.1477e-41
3.69 1.48 1.43 9.1477e-41
3.72 1.48 1.43 9.1477e-41
3.76 1.48 1.42 9.1477e-41
3.8 1.48 1.43 9.1477e-41
3.83 1.48 1.42 9.1477e-41
3.87 1.48 1.43 9.1477e-41
3.91 1.48 1.42 9.1477e-41
3.95 1.48 1.42 9.1477e-41
3.98 1.48 1.42 9.1477e-41
4.02 1.48 1.42 9.1477e-41
4.06 1.48 1.42 9.1477e-41
4.09 1.48 1.42 9.1477e-41
4.17 1.48 1.41 9.1477e-41
4.21 1.48 1.4 9.1477e-41
4.24 1.48 1.4 3.57e-43
4.3 1.48 1 9.1477e-41
4.32 1.48 1 3.57e-43
4.36 1.48 1.35 9.1477e-41
4.42 1.48 1.03 9.1477e-41
4.47 1.48 0.96 9.1477e-41
4.51 1.48 0.9 9.1477e-41
4.56 1.48 0.9 3.57e-43
3 1.5 0.95 9.1477e-41
3.05 1.5 0.95 9.1477e-41
3.1 1.5 0.95 3.57e-43
3.15 1.5 1.04 9.1477e-41
3.27 1.5 1.41 9.1477e-41
3.3 1.5 1.41 3.57e-43
3.33 1.5 1.41 3.57e-43
3.38 1.5 1.4 9.1477e-41
3.42 1.5 1.43 9.1477e-41
3.46 1.5 1.42 9.1477e-41
3.5 1.5 1.42 9.1477e-41
3.54 1.5 1.43 9.1477e-41
3.57 1.5 1.43 9.1477e-41
3.61 1.5 1.43 9.1477e-41
3.65 1.5 1.43 9.1477e-41
3.69 1.5 1.43 9.1477e-41
3.72 1.5 1.43 9.1477e-41
3.76 1.5 1.43 9.1477e-41
3.8 1.5 1.43 9.1477e-41
3.83 1.5 1.42 9.1477e-41
3.87 1.5 1.42 9.1477e-41
3.91 1.5 1.43 9.1477e-41
3.95 1.5 1.43 9.1477e-41
