# .PCD v.7 - Point Cloud Data file format
VERSION .7
FIELDS x y z rgb
SIZE 4 4 4 4
TYPE F F F F
WIDTH 1986
HEIGHT 1
POINTS 1986
DATA ascii
6.74 0.32 0.75 3.57e-43
6.79 0.32 0.75 3.57e-43
6.89 0.32 0.75 3.57e-43
7.12 0.32 0.75 3.57e-43
6.79 0.32 0.75 3.57e-43
6.84 0.32 0.75 3.57e-43
6.9 0.32 0.75 3.57e-43
6.97 0.32 0.75 3.57e-43
7.45 0.32 0.75 3.57e-43
7.52 0.32 0.75 3.57e-43
7.59 0.32 0.75 3.57e-43
7.42 0.32 0.75 3.57e-43
7.31 0.32 0.75 3.57e-43
7.35 0.32 0.75 3.57e-43
7.41 0.32 0.72 9.1477e-41
7.49 0.32 0.69 9.1477e-41
7.57 0.32 0.66 9.1477e-41
7.62 0.32 0.68 9.1477e-41
6.13 0.36 0.72 9.1477e-41
6.15 0.36 0.78 9.1477e-41
6.2 0.36 0.79 9.1477e-41
6.26 0.36 0.79 3.57e-43
6.33 0.36 0.79 3.57e-43
6.41 0.36 0.79 3.57e-43
6.48 0.36 0.79 3.57e-43
6.59 0.36 0.79 3.57e-43
6.74 0.36 0.79 3.57e-43
6.79 0.36 0.79 3.57e-43
6.89 0.36 0.79 3.57e-43
7.12 0.36 0.79 3.57e-43
6.79 0.36 0.79 3.57e-43
6.84 0.36 0.79 3.57e-43
6.9 0.36 0.79 3.57e-43
6.97 0.36 0.79 3.57e-43
7.45 0.36 0.79 3.57e-43
7.52 0.36 0.79 3.57e-43
7.59 0.36 0.79 3.57e-43
7.42 0.36 0.79 3.57e-43
7.31 0.36 0.79 3.57e-43
7.35 0.36 0.79 3.57e-43
7.41 0.36 0.79 3.57e-43
7.49 0.36 0.69 9.1477e-41
7.56 0.36 0.67 9.1477e-41
7.62 0.36 0.68 9.1477e-41
7.73 0.36 0.64 9.1477e-41
6.09 0.4 0.7 9.1477e-41
6.12 0.4 0.74 9.1477e-41
6.15 0.4 0.79 9.1477e-41
6.2 0.4 0.8 9.1477e-41
6.26 0.4 0.8 3.57e-43
6.33 0.4 0.8 3.57e-43
6.41 0.4 0.8 3.57e-43
6.48 0.4 0.8 3.57e-43
6.59 0.4 0.8 3.57e-43
6.74 0.4 0.8 3.57e-43
6.79 0.4 0.8 3.57e-43
6.89 0.4 0.8 3.57e-43
7.12 0.4 0.8 3.57e-43
6.79 0.4 0.8 3.57e-43
6.84 0.4 0.8 3.57e-43
6.9 0.4 0.8 3.57e-43
6.97 0.4 0.8 3.57e-43
7.45 0.4 0.8 3.57e-43
7.52 0.4 0.8 3.57e-43
7.59 0.4 0.8 3.57e-43
7.42 0.4 0.8 3.57e-43
7.31 0.4 0.8 3.57e-43
7.35 0.4 0.8 3.57e-43
7.41 0.4 0.8 3.57e-43
7.49 0.4 0.69 9.1477e-41
7.5 0.4 0.77 9.1477e-41
7.56 0.4 0.78 9.1477e-41
6.09 0.44 0.7 9.1477e-41
6.12 0.44 0.75 9.1477e-41
6.16 0.44 0.79 9.1477e-41
6.2 0.44 0.79 3.57e-43
6.26 0.44 0.79 3.57e-43
6.33 0.44 0.79 3.57e-43
6.41 0.44 0.79 3.57e-43
6.48 0.44 0.79 3.57e-43
6.59 0.44 0.79 3.57e-43
6.74 0.44 0.79 3.57e-43
6.79 0.44 0.79 3.57e-43
6.89 0.44 0.79 3.57e-43
7.12 0.44 0.79 3.57e-43
6.79 0.44 0.79 3.57e-43
6.84 0.44 0.79 3.57e-43
6.9 0.44 0.79 3.57e-43
6.97 0.44 0.79 3.57e-43
7.45 0.44 0.79 3.57e-43
7.52 0.44 0.79 3.57e-43
7.59 0.44 0.79 3.57e-43
7.42 0.44 0.79 3.57e-43
7.31 0.44 0.79 3.57e-43
7.35 0.44 0.79 3.57e-43
7.41 0.44 0.79 3.57e-43
7.49 0.44 0.79 3.57e-43
7.5 0.44 0.77 9.1477e-41
7.54 0.44 0.8 9.1477e-41
6.03 0.48 0.43 9.1477e-41
6.06 0.48 0.43 3.57e-43
6.25 0.48 0.43 3.57e-43
6.09 0.48 0.7 9.1477e-41
6.12 0.48 0.75 9.1477e-41
6.15 0.48 0.8 9.1477e-41
6.2 0.48 0.8 3.57e-43
6.26 0.48 0.8 3.57e-43
6.33 0.48 0.8 3.57e-43
6.41 0.48 0.8 3.57e-43
6.48 0.48 0.8 3.57e-43
6.59 0.48 0.8 3.57e-43
6.74 0.48 0.8 3.57e-43
6.79 0.48 0.8 3.57e-43
6.89 0.48 0.8 3.57e-43
7.12 0.48 0.8 3.57e-43
6.79 0.48 0.8 3.57e-43
6.84 0.48 0.8 3.57e-43
6.9 0.48 0.8 3.57e-43
6.97 0.48 0.8 3.57e-43
7.45 0.48 0.8 3.57e-43
7.52 0.48 0.8 3.57e-43
7.59 0.48 0.8 3.57e-43
7.42 0.48 0.8 3.57e-43
7.31 0.48 0.8 3.57e-43
7.35 0.48 0.8 3.57e-43
7.41 0.48 0.8 3.57e-43
7.49 0.48 0.8 3.57e-43
7.5 0.48 0.8 3.57e-43
7.54 0.48 0.8 9.1477e-41
7.65 0.48 0.74 9.1477e-41
6.03 0.52 0.44 9.1477e-41
6.06 0.52 0.44 3.57e-43
6.25 0.52 0.44 3.57e-43
6.09 0.52 0.7 9.1477e-41
6.1 0.52 0.79 9.1477e-41
6.15 0.52 0.8 9.1477e-41
6.2 0.52 0.8 3.57e-43
6.26 0.52 0.8 3.57e-43
6.33 0.52 0.8 3.57e-43
6.41 0.52 0.8 3.57e-43
6.48 0.52 0.8 3.57e-43
6.59 0.52 0.8 3.57e-43
6.74 0.52 0.8 3.57e-43
6.79 0.52 0.8 3.57e-43
6.89 0.52 0.8 3.57e-43
7.12 0.52 0.8 3.57e-43
6.79 0.52 0.8 3.57e-43
6.84 0.52 0.8 3.57e-43
6.9 0.52 0.8 3.57e-43
6.97 0.52 0.8 3.57e-43
7.45 0.52 0.8 3.57e-43
7.52 0.52 0.8 3.57e-43
7.59 0.52 0.8 3.57e-43
7.42 0.52 0.8 3.57e-43
7.31 0.52 0.8 3.57e-43
7.35 0.52 0.8 3.57e-43
7.41 0.52 0.8 3.57e-43
7.49 0.52 0.8 3.57e-43
7.5 0.52 0.8 3.57e-43
7.54 0.52 0.8 9.1477e-41
7.62 0.52 0.78 9.1477e-41
6.03 0.56 0.43 9.1477e-41
6.05 0.56 0.43 3.57e-43
6.25 0.56 0.43 3.57e-43
6.09 0.56 0.7 9.1477e-41
6.1 0.56 0.8 9.1477e-41
6.13 0.56 0.83 9.1477e-41
6.18 0.56 0.83 3.57e-43
6.26 0.56 0.83 3.57e-43
6.33 0.56 0.83 3.57e-43
6.41 0.56 0.83 3.57e-43
6.48 0.56 0.83 3.57e-43
6.59 0.56 0.83 3.57e-43
6.74 0.56 0.83 3.57e-43
6.79 0.56 0.83 3.57e-43
6.89 0.56 0.83 3.57e-43
7.12 0.56 0.83 3.57e-43
6.79 0.56 0.83 3.57e-43
6.84 0.56 0.83 3.57e-43
6.9 0.56 0.83 3.57e-43
6.97 0.56 0.83 3.57e-43
7.45 0.56 0.83 3.57e-43
7.52 0.56 0.83 3.57e-43
7.59 0.56 0.83 3.57e-43
7.42 0.56 0.83 3.57e-43
7.31 0.56 0.83 3.57e-43
7.35 0.56 0.83 3.57e-43
7.41 0.56 0.83 3.57e-43
7.49 0.56 0.83 3.57e-43
7.5 0.56 0.83 3.57e-43
7.54 0.56 0.8 9.1477e-41
7.61 0.56 0.8 9.1477e-41
6.04 0.6 0.4 9.1477e-41
6.05 0.6 0.4 3.57e-43
6.25 0.6 0.4 3.57e-43
6.09 0.6 0.7 9.1477e-41
6.09 0.6 0.82 9.1477e-41
6.13 0.6 0.82 3.57e-43
6.18 0.6 0.82 3.57e-43
6.26 0.6 0.82 3.57e-43
6.33 0.6 0.82 3.57e-43
6.41 0.6 0.82 3.57e-43
6.48 0.6 0.82 3.57e-43
6.59 0.6 0.82 3.57e-43
6.74 0.6 0.82 3.57e-43
6.79 0.6 0.82 3.57e-43
6.89 0.6 0.82 3.57e-43
7.12 0.6 0.82 3.57e-43
6.79 0.6 0.82 3.57e-43
6.84 0.6 0.82 3.57e-43
6.9 0.6 0.82 3.57e-43
6.97 0.6 0.82 3.57e-43
7.45 0.6 0.82 3.57e-43
7.52 0.6 0.82 3.57e-43
7.59 0.6 0.82 3.57e-43
7.42 0.6 0.82 3.57e-43
7.31 0.6 0.82 3.57e-43
7.35 0.6 0.82 3.57e-43
7.41 0.6 0.82 3.57e-43
7.49 0.6 0.82 3.57e-43
7.5 0.6 0.82 3.57e-43
7.54 0.6 0.8 9.1477e-41
7.58 0.6 0.83 9.1477e-41
6.03 0.64 0.44 9.1477e-41
6.05 0.64 0.44 3.57e-43
6.25 0.64 0.44 3.57e-43
6.09 0.64 0.44 3.57e-43
6.09 0.64 0.82 9.1477e-41
6.13 0.64 0.82 3.57e-43
6.18 0.64 0.82 3.57e-43
6.26 0.64 0.82 3.57e-43
6.33 0.64 0.82 3.57e-43
6.41 0.64 0.82 3.57e-43
6.48 0.64 0.82 3.57e-43
6.59 0.64 0.82 3.57e-43
6.74 0.64 0.82 3.57e-43
6.79 0.64 0.82 3.57e-43
6.89 0.64 0.82 3.57e-43
7.12 0.64 0.82 3.57e-43
6.79 0.64 0.82 3.57e-43
6.84 0.64 0.82 3.57e-43
6.9 0.64 0.82 3.57e-43
6.97 0.64 0.82 3.57e-43
7.45 0.64 0.82 3.57e-43
7.52 0.64 0.82 3.57e-43
7.59 0.64 0.82 3.57e-43
7.42 0.64 0.82 3.57e-43
7.31 0.64 0.82 3.57e-43
7.35 0.64 0.82 3.57e-43
7.41 0.64 0.82 3.57e-43
7.49 0.64 0.82 3.57e-43
7.5 0.64 0.82 3.57e-43
7.54 0.64 0.82 3.57e-43
7.58 0.64 0.83 9.1477e-41
6.04 0.68 0.4 9.1477e-41
6.05 0.68 0.4 3.57e-43
6.25 0.68 0.4 3.57e-43
6.09 0.68 0.4 3.57e-43
6.09 0.68 0.82 9.1477e-41
6.12 0.68 0.82 3.57e-43
6.18 0.68 0.82 3.57e-43
6.26 0.68 0.82 3.57e-43
6.33 0.68 0.82 3.57e-43
6.41 0.68 0.82 3.57e-43
6.48 0.68 0.82 3.57e-43
6.59 0.68 0.82 3.57e-43
6.74 0.68 0.82 3.57e-43
6.79 0.68 0.82 3.57e-43
6.89 0.68 0.82 3.57e-43
7.12 0.68 0.82 3.57e-43
6.79 0.68 0.82 3.57e-43
6.84 0.68 0.82 3.57e-43
6.9 0.68 0.82 3.57e-43
6.97 0.68 0.72 9.1477e-41
6.9 0.68 0.72 3.57e-43
7.52 0.68 0.72 3.57e-43
7.59 0.68 0.72 3.57e-43
7.42 0.68 0.72 3.57e-43
7.31 0.68 0.72 3.57e-43
7.35 0.68 0.72 3.57e-43
7.41 0.68 0.72 3.57e-43
7.49 0.68 0.72 3.57e-43
7.5 0.68 0.72 3.57e-43
7.54 0.68 0.72 3.57e-43
7.58 0.68 0.83 9.1477e-41
6.03 0.72 0.43 9.1477e-41
6.05 0.72 0.43 3.57e-43
6.25 0.72 0.43 3.57e-43
6.09 0.72 0.43 3.57e-43
6.09 0.72 0.43 3.57e-43
6.12 0.72 0.43 3.57e-43
6.18 0.72 0.43 3.57e-43
6.26 0.72 0.43 3.57e-43
6.33 0.72 0.43 3.57e-43
6.41 0.72 0.43 3.57e-43
6.48 0.72 0.43 3.57e-43
6.59 0.72 0.43 3.57e-43
6.51 0.72 0.94 9.1477e-41
6.56 0.72 0.94 9.1477e-41
6.62 0.72 0.93 9.1477e-41
6.67 0.72 0.95 9.1477e-41
6.72 0.72 0.94 9.1477e-41
6.78 0.72 0.94 9.1477e-41
6.84 0.72 0.95 9.1477e-41
6.9 0.72 0.94 9.1477e-41
6.95 0.72 0.94 9.1477e-41
7.01 0.72 0.94 9.1477e-41
7.07 0.72 0.94 9.1477e-41
7.13 0.72 0.94 9.1477e-41
7.21 0.72 0.94 3.57e-43
7.41 0.72 0.94 3.57e-43
7.49 0.72 0.94 3.57e-43
7.5 0.72 0.94 3.57e-43
7.54 0.72 0.94 3.57e-43
7.58 0.72 0.83 9.1477e-41
6.04 0.76 0.41 9.1477e-41
6.05 0.76 0.41 3.57e-43
6.25 0.76 0.41 3.57e-43
6.09 0.76 0.41 3.57e-43
6.09 0.76 0.82 9.1477e-41
6.11 0.76 0.82 3.57e-43
6.18 0.76 0.82 3.57e-43
6.26 0.76 0.82 3.57e-43
6.33 0.76 0.82 3.57e-43
6.41 0.76 0.69 9.1477e-41
6.35 0.76 0.93 9.1477e-41
6.4 0.76 0.93 9.1477e-41
6.46 0.76 0.93 9.1477e-41
6.51 0.76 0.93 9.1477e-41
6.56 0.76 0.95 9.1477e-41
6.61 0.76 0.95 9.1477e-41
6.66 0.76 0.95 9.1477e-41
6.71 0.76 0.96 9.1477e-41
6.77 0.76 0.97 9.1477e-41
6.83 0.76 0.96 9.1477e-41
6.89 0.76 0.96 9.1477e-41
6.94 0.76 0.97 9.1477e-41
6.99 0.76 0.97 9.1477e-41
7.06 0.76 0.95 9.1477e-41
7.13 0.76 0.94 9.1477e-41
7.2 0.76 0.92 9.1477e-41
7.25 0.76 0.94 9.1477e-41
7.35 0.76 0.89 9.1477e-41
7.41 0.76 0.89 3.57e-43
7.54 0.76 0.89 3.57e-43
7.58 0.76 0.83 9.1477e-41
6.04 0.8 0.41 9.1477e-41
6.05 0.8 0.41 3.57e-43
6.25 0.8 0.41 3.57e-43
6.09 0.8 0.41 3.57e-43
6.09 0.8 0.41 3.57e-43
6.11 0.8 0.89 9.1477e-41
6.15 0.8 0.89 3.57e-43
6.26 0.8 0.89 3.57e-43
6.33 0.8 0.75 9.1477e-41
6.3 0.8 0.92 9.1477e-41
6.35 0.8 0.93 9.1477e-41
6.4 0.8 0.94 9.1477e-41
6.45 0.8 0.94 9.1477e-41
6.5 0.8 0.95 9.1477e-41
6.55 0.8 0.95 3.57e-43
6.61 0.8 0.95 3.57e-43
6.66 0.8 0.95 3.57e-43
6.71 0.8 0.96 9.1477e-41
6.76 0.8 0.98 9.1477e-41
6.81 0.8 0.98 3.57e-43
6.89 0.8 0.98 3.57e-43
6.94 0.8 0.97 9.1477e-41
6.98 0.8 0.97 3.57e-43
7.06 0.8 0.97 3.57e-43
7.13 0.8 0.97 3.57e-43
7.2 0.8 0.92 9.1477e-41
7.25 0.8 0.95 9.1477e-41
7.32 0.8 0.94 9.1477e-41
7.41 0.8 0.9 9.1477e-41
7.48 0.8 0.9 3.57e-43
7.58 0.8 0.9 3.57e-43
6.04 0.84 0.42 9.1477e-41
6.05 0.84 0.42 3.57e-43
6.25 0.84 0.42 3.57e-43
6.09 0.84 0.42 3.57e-43
6.09 0.84 0.42 3.57e-43
6.11 0.84 0.89 9.1477e-41
6.15 0.84 0.89 3.57e-43
6.26 0.84 0.79 9.1477e-41
6.25 0.84 0.93 9.1477e-41
6.3 0.84 0.93 9.1477e-41
6.34 0.84 0.94 9.1477e-41
6.39 0.84 0.94 3.57e-43
6.45 0.84 0.94 9.1477e-41
6.48 0.84 0.94 3.57e-43
6.55 0.84 0.94 3.57e-43
6.61 0.84 0.94 3.57e-43
6.66 0.84 0.94 3.57e-43
6.71 0.84 0.94 3.57e-43
6.76 0.84 0.94 3.57e-43
6.81 0.84 0.94 3.57e-43
6.89 0.84 0.94 3.57e-43
6.94 0.84 0.94 3.57e-43
6.98 0.84 0.94 3.57e-43
7.06 0.84 0.94 3.57e-43
7.13 0.84 0.94 3.57e-43
7.2 0.84 0.94 3.57e-43
7.25 0.84 0.94 3.57e-43
7.32 0.84 0.94 9.1477e-41
7.37 0.84 0.95 9.1477e-41
7.44 0.84 0.93 9.1477e-41
7.52 0.84 0.93 3.57e-43
6.04 0.88 0.42 9.1477e-41
6.05 0.88 0.42 3.57e-43
6.25 0.88 0.42 3.57e-43
6.09 0.88 0.42 3.57e-43
6.09 0.88 0.42 3.57e-43
6.11 0.88 0.42 3.57e-43
6.15 0.88 0.9 9.1477e-41
6.19 0.88 0.94 9.1477e-41
6.25 0.88 0.93 9.1477e-41
6.29 0.88 0.93 3.57e-43
6.34 0.88 0.94 9.1477e-41
6.38 0.88 0.98 9.1477e-41
6.41 0.88 0.98 3.57e-43
6.48 0.88 0.98 3.57e-43
6.55 0.88 0.98 3.57e-43
6.61 0.88 0.98 3.57e-43
6.66 0.88 0.98 3.57e-43
6.71 0.88 0.98 3.57e-43
6.76 0.88 0.98 3.57e-43
6.81 0.88 0.98 3.57e-43
6.89 0.88 0.98 3.57e-43
6.94 0.88 0.98 3.57e-43
6.98 0.88 0.98 3.57e-43
7.06 0.88 0.98 3.57e-43
7.13 0.88 0.98 3.57e-43
7.2 0.88 0.98 3.57e-43
7.25 0.88 0.98 3.57e-43
7.32 0.88 0.98 3.57e-43
7.37 0.88 0.98 3.57e-43
7.44 0.88 0.93 9.1477e-41
7.52 0.88 0.93 3.57e-43
6.03 0.92 0.43 9.1477e-41
6.05 0.92 0.43 3.57e-43
6.25 0.92 0.43 3.57e-43
6.09 0.92 0.43 3.57e-43
6.09 0.92 0.43 3.57e-43
6.11 0.92 0.43 3.57e-43
6.15 0.92 0.9 9.1477e-41
6.19 0.92 0.9 3.57e-43
6.25 0.92 0.9 3.57e-43
6.29 0.92 0.9 3.57e-43
6.34 0.92 0.94 9.1477e-41
6.38 0.92 0.94 3.57e-43
6.41 0.92 0.94 3.57e-43
6.48 0.92 0.94 3.57e-43
6.55 0.92 0.94 3.57e-43
6.61 0.92 0.94 3.57e-43
6.66 0.92 0.94 3.57e-43
6.71 0.92 0.94 3.57e-43
6.76 0.92 0.94 3.57e-43
6.81 0.92 0.94 3.57e-43
6.89 0.92 0.94 3.57e-43
6.94 0.92 0.94 3.57e-43
6.98 0.92 0.94 3.57e-43
7.06 0.92 0.94 3.57e-43
7.13 0.92 0.94 3.57e-43
7.2 0.92 0.94 3.57e-43
7.25 0.92 0.94 3.57e-43
7.32 0.92 0.94 3.57e-43
7.37 0.92 0.94 3.57e-43
7.44 0.92 0.93 9.1477e-41
7.52 0.92 0.92 9.1477e-41
7.59 0.92 0.92 9.1477e-41
6.04 0.96 0.42 9.1477e-41
6.03 0.96 0.42 3.57e-43
6.25 0.96 0.42 3.57e-43
6.09 0.96 0.42 3.57e-43
6.09 0.96 0.42 3.57e-43
6.11 0.96 0.42 3.57e-43
6.15 0.96 0.42 3.57e-43
6.19 0.96 0.42 3.57e-43
6.25 0.96 0.42 3.57e-43
6.29 0.96 0.42 3.57e-43
6.34 0.96 0.94 9.1477e-41
6.37 0.96 0.94 3.57e-43
6.41 0.96 0.94 3.57e-43
6.48 0.96 0.94 3.57e-43
6.55 0.96 0.94 3.57e-43
6.61 0.96 0.94 3.57e-43
6.66 0.96 0.94 3.57e-43
6.71 0.96 0.94 3.57e-43
6.76 0.96 0.94 3.57e-43
6.81 0.96 0.94 3.57e-43
6.89 0.96 0.94 3.57e-43
6.94 0.96 0.94 3.57e-43
6.98 0.96 0.94 3.57e-43
7.06 0.96 0.94 3.57e-43
7.13 0.96 0.94 3.57e-43
7.2 0.96 0.94 3.57e-43
7.25 0.96 0.94 3.57e-43
7.32 0.96 0.94 3.57e-43
7.37 0.96 0.94 3.57e-43
7.44 0.96 0.94 3.57e-43
7.52 0.96 0.92 9.1477e-41
7.57 0.96 0.94 9.1477e-41
7.13 1 0.94 3.57e-43
7.14 1 1.02 9.1477e-41
7.18 1 1.05 9.1477e-41
7.25 1 1.05 3.57e-43
7.37 1 1.05 3.57e-43
7.44 1 1.05 3.57e-43
7.52 1 0.92 9.1477e-41
7.57 1 0.94 9.1477e-41
6.03 1.04 0.45 9.1477e-41
6.03 1.04 0.45 3.57e-43
6.25 1.04 0.45 3.57e-43
6.09 1.04 0.45 3.57e-43
6.09 1.04 0.45 3.57e-43
6.11 1.04 0.45 3.57e-43
6.15 1.04 0.45 3.57e-43
6.19 1.04 0.45 3.57e-43
6.25 1.04 0.45 3.57e-43
6.29 1.04 0.45 3.57e-43
6.34 1.04 0.45 3.57e-43
6.37 1.04 0.45 3.57e-43
6.41 1.04 0.45 3.57e-43
6.48 1.04 0.45 3.57e-43
6.55 1.04 0.45 3.57e-43
6.61 1.04 0.45 3.57e-43
6.66 1.04 0.45 3.57e-43
6.71 1.04 0.45 3.57e-43
6.76 1.04 0.45 3.57e-43
6.81 1.04 0.45 3.57e-43
6.89 1.04 0.45 3.57e-43
6.94 1.04 0.45 3.57e-43
6.98 1.04 0.45 3.57e-43
7.06 1.04 0.45 3.57e-43
7.13 1.04 0.94 9.1477e-41
7.14 1.04 1.02 9.1477e-41
7.17 1.04 1.06 9.1477e-41
7.25 1.04 1.06 3.57e-43
7.37 1.04 1.06 3.57e-43
7.44 1.04 1.06 3.57e-43
7.52 1.04 0.92 9.1477e-41
7.54 1.04 0.98 9.1477e-41
6.01 1.08 0.49 9.1477e-41
6.03 1.08 0.49 3.57e-43
6.25 1.08 0.49 3.57e-43
6.09 1.08 0.49 3.57e-43
6.09 1.08 0.82 9.1477e-41
6.11 1.08 0.82 3.57e-43
6.15 1.08 0.82 3.57e-43
6.19 1.08 0.82 3.57e-43
6.25 1.08 0.82 3.57e-43
6.29 1.08 0.82 3.57e-43
6.34 1.08 0.82 3.57e-43
6.37 1.08 0.82 3.57e-43
6.41 1.08 0.82 3.57e-43
6.48 1.08 0.82 3.57e-43
6.55 1.08 0.82 3.57e-43
6.61 1.08 0.82 3.57e-43
6.66 1.08 0.82 3.57e-43
6.71 1.08 0.82 3.57e-43
6.76 1.08 0.82 3.57e-43
6.81 1.08 0.82 3.57e-43
6.89 1.08 0.82 3.57e-43
6.94 1.08 0.82 3.57e-43
6.98 1.08 0.82 3.57e-43
7.06 1.08 0.82 3.57e-43
7.13 1.08 0.82 3.57e-43
7.14 1.08 0.82 3.57e-43
7.17 1.08 0.82 3.57e-43
7.25 1.08 0.82 3.57e-43
7.37 1.08 0.82 3.57e-43
7.44 1.08 0.82 3.57e-43
7.52 1.08 0.92 9.1477e-41
7.53 1.08 1 9.1477e-41
6.01 1.12 0.48 9.1477e-41
6.03 1.12 0.48 3.57e-43
6.25 1.12 0.48 3.57e-43
6.09 1.12 0.7 9.1477e-41
6.07 1.12 0.86 9.1477e-41
6.11 1.12 0.86 3.57e-43
6.15 1.12 0.86 3.57e-43
6.19 1.12 0.86 3.57e-43
6.25 1.12 0.86 3.57e-43
6.29 1.12 0.86 3.57e-43
6.34 1.12 0.86 3.57e-43
6.37 1.12 0.86 3.57e-43
6.41 1.12 0.86 3.57e-43
6.48 1.12 0.86 3.57e-43
6.55 1.12 0.86 3.57e-43
6.61 1.12 0.86 3.57e-43
6.66 1.12 0.86 3.57e-43
6.71 1.12 0.96 9.1477e-41
6.74 1.12 0.96 3.57e-43
6.81 1.12 0.96 3.57e-43
6.89 1.12 0.96 3.57e-43
6.94 1.12 0.96 3.57e-43
6.98 1.12 0.96 3.57e-43
7.06 1.12 0.96 3.57e-43
7.13 1.12 0.96 3.57e-43
7.14 1.12 0.96 3.57e-43
7.17 1.12 0.96 3.57e-43
7.25 1.12 0.96 3.57e-43
7.37 1.12 0.96 3.57e-43
7.44 1.12 0.96 3.57e-43
7.52 1.12 0.92 9.1477e-41
7.52 1.12 0.92 3.57e-43
6.01 1.16 0.48 9.1477e-41
6.04 1.16 0.48 3.57e-43
6.25 1.16 0.48 3.57e-43
6.09 1.16 0.7 9.1477e-41
6.08 1.16 0.85 9.1477e-41
6.12 1.16 0.85 3.57e-43
6.15 1.16 0.85 3.57e-43
6.19 1.16 0.85 3.57e-43
6.25 1.16 0.85 3.57e-43
6.29 1.16 0.85 3.57e-43
6.34 1.16 0.85 3.57e-43
6.37 1.16 0.85 3.57e-43
6.41 1.16 0.85 3.57e-43
6.48 1.16 0.85 3.57e-43
6.55 1.16 0.85 3.57e-43
6.61 1.16 0.85 3.57e-43
6.66 1.16 0.85 3.57e-43
6.71 1.16 0.96 9.1477e-41
6.75 1.16 0.99 9.1477e-41
6.82 1.16 0.99 3.57e-43
6.89 1.16 0.99 3.57e-43
6.94 1.16 0.99 3.57e-43
6.98 1.16 0.99 3.57e-43
7.06 1.16 0.99 3.57e-43
7.13 1.16 0.99 3.57e-43
7.14 1.16 0.99 3.57e-43
7.17 1.16 0.99 3.57e-43
7.25 1.16 0.99 3.57e-43
7.37 1.16 0.99 3.57e-43
7.44 1.16 0.99 3.57e-43
7.52 1.16 0.99 3.57e-43
7.52 1.16 0.99 3.57e-43
6.03 1.2 0.48 3.57e-43
6.08 1.2 0.85 9.1477e-41
6.12 1.2 0.85 3.57e-43
6.15 1.2 0.85 3.57e-43
6.19 1.2 0.85 3.57e-43
6.25 1.2 0.85 3.57e-43
6.29 1.2 0.85 3.57e-43
6.34 1.2 0.85 3.57e-43
6.37 1.2 0.85 3.57e-43
6.41 1.2 0.85 3.57e-43
6.48 1.2 0.85 3.57e-43
6.55 1.2 0.85 3.57e-43
6.61 1.2 0.85 3.57e-43
6.66 1.2 0.85 3.57e-43
6.71 1.2 0.96 9.1477e-41
6.76 1.2 0.97 9.1477e-41
6.84 1.2 0.94 9.1477e-41
6.91 1.2 0.93 9.1477e-41
6.96 1.2 0.93 3.57e-43
6.98 1.2 0.93 3.57e-43
7.06 1.2 0.93 3.57e-43
7.13 1.2 0.93 3.57e-43
7.14 1.2 0.93 3.57e-43
7.17 1.2 0.93 3.57e-43
7.25 1.2 0.93 3.57e-43
7.37 1.2 0.93 3.57e-43
7.44 1.2 0.93 3.57e-43
7.52 1.2 0.93 3.57e-43
7.52 1.2 1.01 9.1477e-41
7.52 1.2 1.1 9.1477e-41
6.01 1.24 0.48 9.1477e-41
6.02 1.24 0.48 3.57e-43
6.03 1.24 0.48 3.57e-43
6.08 1.24 0.85 9.1477e-41
6.12 1.24 0.85 3.57e-43
6.15 1.24 0.85 3.57e-43
6.19 1.24 0.85 3.57e-43
6.25 1.24 0.85 3.57e-43
6.29 1.24 0.85 3.57e-43
6.34 1.24 0.85 3.57e-43
6.37 1.24 0.85 3.57e-43
6.41 1.24 0.85 3.57e-43
6.48 1.24 0.85 3.57e-43
6.55 1.24 0.85 3.57e-43
6.61 1.24 0.85 3.57e-43
6.66 1.24 0.85 3.57e-43
6.71 1.24 0.96 9.1477e-41
6.78 1.24 0.95 9.1477e-41
6.84 1.24 0.94 9.1477e-41
6.9 1.24 0.95 9.1477e-41
6.95 1.24 0.95 3.57e-43
6.98 1.24 0.95 3.57e-43
7.06 1.24 0.95 3.57e-43
7.13 1.24 0.95 3.57e-43
7.14 1.24 0.95 3.57e-43
7.17 1.24 0.95 3.57e-43
7.25 1.24 0.95 3.57e-43
7.37 1.24 0.95 3.57e-43
7.44 1.24 0.95 3.57e-43
7.52 1.24 0.95 3.57e-43
7.52 1.24 1.01 9.1477e-41
7.51 1.24 1.11 9.1477e-41
6.01 1.28 0.5 9.1477e-41
6.03 1.28 0.5 3.57e-43
6.25 1.28 0.5 3.57e-43
6.03 1.28 0.5 3.57e-43
6.08 1.28 0.5 3.57e-43
6.12 1.28 0.5 3.57e-43
6.15 1.28 0.5 3.57e-43
6.19 1.28 0.5 3.57e-43
6.25 1.28 0.5 3.57e-43
6.29 1.28 0.5 3.57e-43
6.34 1.28 0.5 3.57e-43
6.37 1.28 0.5 3.57e-43
6.41 1.28 0.5 3.57e-43
6.48 1.28 0.5 3.57e-43
6.55 1.28 0.5 3.57e-43
6.61 1.28 0.5 3.57e-43
6.66 1.28 0.5 3.57e-43
6.71 1.28 0.5 3.57e-43
6.78 1.28 0.5 3.57e-43
6.84 1.28 0.5 3.57e-43
6.9 1.28 0.5 3.57e-43
6.95 1.28 0.5 3.57e-43
6.98 1.28 0.5 3.57e-43
7.06 1.28 0.5 3.57e-43
7.13 1.28 0.5 3.57e-43
7.14 1.28 0.5 3.57e-43
7.17 1.28 0.5 3.57e-43
7.25 1.28 0.5 3.57e-43
7.37 1.28 0.5 3.57e-43
7.44 1.28 0.5 3.57e-43
7.52 1.28 0.5 3.57e-43
7.52 1.28 1.01 9.1477e-41
7.5 1.28 1.13 9.1477e-41
6.02 1.32 0.99 3.57e-43
6.1 1.32 0.92 9.1477e-41
6.13 1.32 0.92 3.57e-43
6.19 1.32 0.92 3.57e-43
6.25 1.32 0.93 9.1477e-41
6.2 1.32 0.93 3.57e-43
6.34 1.32 0.93 3.57e-43
6.37 1.32 0.93 3.57e-43
6.41 1.32 0.93 3.57e-43
6.48 1.32 0.93 3.57e-43
6.55 1.32 0.93 3.57e-43
6.61 1.32 0.93 3.57e-43
6.66 1.32 0.93 3.57e-43
6.71 1.32 0.93 3.57e-43
6.78 1.32 0.93 3.57e-43
6.84 1.32 0.93 3.57e-43
6.9 1.32 0.93 3.57e-43
6.95 1.32 0.93 3.57e-43
6.98 1.32 0.93 3.57e-43
7.06 1.32 0.93 3.57e-43
7.13 1.32 0.93 3.57e-43
7.14 1.32 0.93 3.57e-43
7.17 1.32 0.93 3.57e-43
7.25 1.32 0.93 3.57e-43
7.37 1.32 0.93 3.57e-43
7.44 1.32 0.93 3.57e-43
7.52 1.32 0.93 3.57e-43
7.52 1.32 1.01 9.1477e-41
7.47 1.32 1.01 3.57e-43
8.74 1.32 1.01 3.57e-43
6.01 1.36 0.58 3.57e-43
5.92 1.36 1 9.1477e-41
5.96 1.36 1.01 9.1477e-41
6.02 1.36 0.99 9.1477e-41
6.11 1.36 0.9 9.1477e-41
6.19 1.36 0.83 9.1477e-41
6.18 1.36 1.08 9.1477e-41
6.2 1.36 1.08 3.57e-43
6.34 1.36 1.08 3.57e-43
6.37 1.36 1.08 3.57e-43
6.41 1.36 1.08 3.57e-43
6.48 1.36 1.08 3.57e-43
6.55 1.36 1.08 3.57e-43
6.61 1.36 1.08 3.57e-43
6.66 1.36 0.95 9.1477e-41
6.82 1.36 0.95 3.57e-43
6.78 1.36 0.95 3.57e-43
6.84 1.36 0.93 9.1477e-41
6.94 1.36 0.93 3.57e-43
6.95 1.36 0.93 3.57e-43
6.98 1.36 0.93 3.57e-43
7.06 1.36 0.93 3.57e-43
7.13 1.36 0.93 3.57e-43
7.14 1.36 0.93 3.57e-43
7.17 1.36 0.93 3.57e-43
7.25 1.36 0.93 3.57e-43
7.37 1.36 0.93 3.57e-43
7.44 1.36 0.93 3.57e-43
7.52 1.36 0.93 3.57e-43
7.52 1.36 0.93 3.57e-43
7.47 1.36 0.93 3.57e-43
7.72 1.36 1.24 9.1477e-41
6.02 1.4 0.99 3.57e-43
6.11 1.4 0.9 3.57e-43
6.19 1.4 0.83 9.1477e-41
6.65 1.4 0.83 3.57e-43
6.34 1.4 0.83 3.57e-43
6.37 1.4 0.83 3.57e-43
6.41 1.4 0.83 3.57e-43
6.48 1.4 0.83 3.57e-43
6.55 1.4 0.83 3.57e-43
6.61 1.4 0.95 9.1477e-41
6.92 1.4 0.95 3.57e-43
6.82 1.4 0.95 3.57e-43
6.78 1.4 0.95 9.1477e-41
7 1.4 0.66 9.1477e-41
7.03 1.4 0.66 3.57e-43
6.95 1.4 0.66 3.57e-43
6.98 1.4 0.66 3.57e-43
7.06 1.4 0.66 3.57e-43
7.13 1.4 0.66 3.57e-43
7.14 1.4 0.66 3.57e-43
7.17 1.4 0.66 3.57e-43
7.25 1.4 0.66 3.57e-43
7.37 1.4 0.66 3.57e-43
7.44 1.4 0.66 3.57e-43
7.52 1.4 0.66 3.57e-43
7.52 1.4 0.66 3.57e-43
7.47 1.4 0.66 3.57e-43
7.75 1.4 1.2 9.1477e-41
6.02 1.44 0.99 3.57e-43
6.11 1.44 0.9 3.57e-43
6.19 1.44 0.83 9.1477e-41
6.62 1.44 0.83 3.57e-43
6.34 1.44 0.83 3.57e-43
6.37 1.44 0.83 3.57e-43
6.41 1.44 0.83 3.57e-43
6.48 1.44 0.83 3.57e-43
6.55 1.44 0.83 3.57e-43
6.61 1.44 0.83 3.57e-43
6.92 1.44 0.48 9.1477e-41
6.88 1.44 0.66 9.1477e-41
6.95 1.44 0.64 9.1477e-41
6.99 1.44 0.68 9.1477e-41
7.02 1.44 0.68 3.57e-43
6.95 1.44 0.68 3.57e-43
6.98 1.44 0.68 3.57e-43
7.06 1.44 0.68 3.57e-43
7.13 1.44 0.68 3.57e-43
7.14 1.44 0.68 3.57e-43
7.17 1.44 0.68 3.57e-43
7.25 1.44 0.68 3.57e-43
7.37 1.44 0.68 3.57e-43
7.44 1.44 0.68 3.57e-43
7.52 1.44 0.68 3.57e-43
7.52 1.44 0.68 3.57e-43
7.47 1.44 1.16 9.1477e-41
7.47 1.44 1.25 9.1477e-41
6.02 1.48 0.99 3.57e-43
6.11 1.48 0.9 9.1477e-41
6.19 1.48 0.83 9.1477e-41
6.38 1.48 0.5 9.1477e-41
6.42 1.48 0.55 9.1477e-41
6.48 1.48 0.55 3.57e-43
6.34 1.48 0.55 3.57e-43
6.37 1.48 0.55 3.57e-43
6.41 1.48 0.55 3.57e-43
6.48 1.48 0.55 3.57e-43
6.55 1.48 0.55 3.57e-43
6.61 1.48 0.55 3.57e-43
6.92 1.48 0.48 9.1477e-41
6.88 1.48 0.66 9.1477e-41
6.93 1.48 0.68 9.1477e-41
6.99 1.48 0.68 9.1477e-41
6.7 1.48 1.28 9.1477e-41
6.72 1.48 1.28 3.57e-43
6.98 1.48 1.28 3.57e-43
7.06 1.48 1.28 3.57e-43
7.13 1.48 1.28 3.57e-43
7.14 1.48 1.28 3.57e-43
7.17 1.48 1.28 3.57e-43
7.25 1.48 1.28 3.57e-43
7.37 1.48 1.28 3.57e-43
7.44 1.48 1.28 3.57e-43
7.52 1.48 1.28 3.57e-43
7.52 1.48 1.28 3.57e-43
7.47 1.48 1.16 9.1477e-41
7.46 1.48 1.27 9.1477e-41
6.02 1.52 0.99 3.57e-43
6.11 1.52 0.9 9.1477e-41
6.26 1.52 0.67 9.1477e-41
6.36 1.52 0.56 9.1477e-41
6.42 1.52 0.55 9.1477e-41
6.48 1.52 0.55 9.1477e-41
6.53 1.52 0.55 3.57e-43
6.37 1.52 0.55 3.57e-43
6.41 1.52 0.55 3.57e-43
6.48 1.52 0.55 3.57e-43
6.55 1.52 0.96 9.1477e-41
6.41 1.52 0.96 3.57e-43
6.92 1.52 0.48 9.1477e-41
6.87 1.52 0.69 9.1477e-41
6.93 1.52 0.69 9.1477e-41
7 1.52 0.67 9.1477e-41
7.03 1.52 0.67 3.57e-43
6.72 1.52 0.67 3.57e-43
6.98 1.52 0.67 3.57e-43
7.06 1.52 0.67 3.57e-43
7.13 1.52 0.67 3.57e-43
7.14 1.52 0.67 3.57e-43
7.17 1.52 0.67 3.57e-43
7.25 1.52 0.67 3.57e-43
7.37 1.52 0.67 3.57e-43
7.44 1.52 0.67 3.57e-43
7.52 1.52 0.67 3.57e-43
7.52 1.52 0.67 3.57e-43
7.47 1.52 1.16 9.1477e-41
7.45 1.52 1.28 9.1477e-41
6.02 1.56 0.99 3.57e-43
6.11 1.56 0.89 9.1477e-41
6.25 1.56 0.69 9.1477e-41
6.36 1.56 0.56 9.1477e-41
6.43 1.56 0.54 9.1477e-41
6.48 1.56 0.54 9.1477e-41
6.53 1.56 0.55 9.1477e-41
6.6 1.56 0.55 3.57e-43
6.41 1.56 1.02 9.1477e-41
6.31 1.56 1.02 3.57e-43
6.55 1.56 1.02 3.57e-43
6.41 1.56 1.02 3.57e-43
6.92 1.56 1.02 3.57e-43
6.87 1.56 1.02 3.57e-43
6.93 1.56 1.02 3.57e-43
7 1.56 1.02 3.57e-43
7.03 1.56 1.02 3.57e-43
6.72 1.56 1.02 3.57e-43
6.98 1.56 1.02 3.57e-43
7.06 1.56 1.02 3.57e-43
7.13 1.56 1.02 3.57e-43
7.14 1.56 1.02 3.57e-43
7.17 1.56 1.02 3.57e-43
7.25 1.56 1.02 3.57e-43
7.37 1.56 1.02 3.57e-43
7.44 1.56 1.02 3.57e-43
7.52 1.56 1.02 3.57e-43
7.52 1.56 1.02 3.57e-43
7.47 1.56 1.02 3.57e-43
7.45 1.56 1.28 9.1477e-41
6.02 1.6 0.99 3.57e-43
6.11 1.6 0.9 9.1477e-41
6.24 1.6 0.7 9.1477e-41
6.37 1.6 0.54 9.1477e-41
6.43 1.6 0.54 9.1477e-41
6.48 1.6 0.54 9.1477e-41
6.54 1.6 0.54 9.1477e-41
6.59 1.6 0.54 3.57e-43
6.41 1.6 1.02 9.1477e-41
6.31 1.6 1.33 9.1477e-41
6.35 1.6 1.33 3.57e-43
6.41 1.6 1.33 3.57e-43
6.92 1.6 1.33 3.57e-43
6.87 1.6 1.33 3.57e-43
6.93 1.6 1.33 3.57e-43
7 1.6 1.33 3.57e-43
7.03 1.6 1.33 3.57e-43
6.72 1.6 1.33 3.57e-43
6.98 1.6 1.33 3.57e-43
7.06 1.6 1.33 3.57e-43
7.13 1.6 1.33 3.57e-43
7.14 1.6 1.33 3.57e-43
7.17 1.6 1.33 3.57e-43
7.25 1.6 1.33 3.57e-43
7.37 1.6 1.33 3.57e-43
7.44 1.6 1.33 3.57e-43
7.52 1.6 1.33 3.57e-43
7.52 1.6 1.33 3.57e-43
7.47 1.6 1.33 3.57e-43
7.45 1.6 1.28 9.1477e-41
6.02 1.64 0.99 3.57e-43
6.11 1.64 0.9 9.1477e-41
6.23 1.64 0.74 9.1477e-41
6.37 1.64 0.53 9.1477e-41
6.43 1.64 0.52 9.1477e-41
6.48 1.64 0.53 9.1477e-41
6.54 1.64 0.53 9.1477e-41
6.6 1.64 0.53 9.1477e-41
6.68 1.64 0.49 9.1477e-41
6.3 1.64 1.35 9.1477e-41
6.34 1.64 1.35 9.1477e-41
6.39 1.64 1.35 3.57e-43
6.92 1.64 1.35 3.57e-43
6.87 1.64 1.35 3.57e-43
6.93 1.64 1.35 3.57e-43
7 1.64 1.35 3.57e-43
7.03 1.64 1.35 3.57e-43
6.72 1.64 1.35 3.57e-43
6.98 1.64 1.35 3.57e-43
7.06 1.64 1.35 3.57e-43
7.13 1.64 1.35 3.57e-43
7.14 1.64 1.35 3.57e-43
7.17 1.64 1.35 3.57e-43
7.25 1.64 1.35 3.57e-43
7.37 1.64 1.35 3.57e-43
7.44 1.64 1.35 3.57e-43
7.52 1.64 1.35 3.57e-43
7.52 1.64 1.35 3.57e-43
7.47 1.64 1.16 9.1477e-41
7.4 1.64 1.35 9.1477e-41
6.02 1.68 0.99 3.57e-43
6.1 1.68 0.9 9.1477e-41
6.23 1.68 0.74 9.1477e-41
6.38 1.68 0.5 9.1477e-41
6.44 1.68 0.51 9.1477e-41
6.49 1.68 0.52 9.1477e-41
6.55 1.68 0.52 9.1477e-41
6.6 1.68 0.52 9.1477e-41
6.68 1.68 0.52 3.57e-43
6.3 1.68 1.35 9.1477e-41
6.34 1.68 1.36 9.1477e-41
6.38 1.68 1.36 3.57e-43
6.92 1.68 1.36 3.57e-43
6.87 1.68 1.36 3.57e-43
6.93 1.68 1.36 3.57e-43
7 1.68 1.36 3.57e-43
7.03 1.68 1.36 3.57e-43
6.72 1.68 1.36 3.57e-43
6.98 1.68 1.36 3.57e-43
7.06 1.68 1.36 3.57e-43
7.13 1.68 1.36 3.57e-43
7.14 1.68 1.36 3.57e-43
7.17 1.68 1.36 3.57e-43
7.25 1.68 1.36 3.57e-43
7.37 1.68 1.36 3.57e-43
7.44 1.68 1.36 3.57e-43
7.52 1.68 1.36 3.57e-43
7.52 1.68 1.36 3.57e-43
7.47 1.68 1.36 3.57e-43
7.4 1.68 1.35 9.1477e-41
6.02 1.72 0.99 3.57e-43
6.1 1.72 0.9 9.1477e-41
6.19 1.72 0.82 9.1477e-41
6.38 1.72 0.5 9.1477e-41
6.44 1.72 0.5 9.1477e-41
6.5 1.72 0.5 9.1477e-41
6.55 1.72 0.51 9.1477e-41
6.61 1.72 0.5 9.1477e-41
6.69 1.72 0.5 3.57e-43
6.3 1.72 1.35 9.1477e-41
6.34 1.72 1.36 9.1477e-41
6.38 1.72 1.36 3.57e-43
6.92 1.72 1.36 3.57e-43
6.87 1.72 1.36 3.57e-43
6.93 1.72 1.36 3.57e-43
7 1.72 1.36 3.57e-43
7.03 1.72 1.36 3.57e-43
6.72 1.72 1.36 3.57e-43
6.98 1.72 1.36 3.57e-43
7.06 1.72 1.36 3.57e-43
7.13 1.72 1.36 3.57e-43
7.14 1.72 1.36 3.57e-43
7.17 1.72 1.36 3.57e-43
7.25 1.72 1.36 3.57e-43
7.37 1.72 1.36 3.57e-43
7.44 1.72 1.36 3.57e-43
7.52 1.72 1.36 3.57e-43
7.52 1.72 1.36 3.57e-43
7.47 1.72 1.36 3.57e-43
7.4 1.72 1.35 9.1477e-41
6.02 1.76 0.99 3.57e-43
6.1 1.76 0.91 9.1477e-41
6.16 1.76 0.9 9.1477e-41
6.39 1.76 0.49 9.1477e-41
6.45 1.76 0.49 9.1477e-41
6.51 1.76 0.48 9.1477e-41
6.56 1.76 0.49 9.1477e-41
6.62 1.76 0.5 9.1477e-41
6.68 1.76 0.5 3.57e-43
6.3 1.76 1.35 9.1477e-41
6.33 1.76 1.37 9.1477e-41
6.37 1.76 1.4 9.1477e-41
6.42 1.76 1.4 3.57e-43
6.87 1.76 1.4 3.57e-43
6.93 1.76 1.4 3.57e-43
7 1.76 1.4 3.57e-43
7.03 1.76 1.4 3.57e-43
6.72 1.76 1.4 3.57e-43
6.98 1.76 1.4 3.57e-43
7.06 1.76 1.4 3.57e-43
7.13 1.76 1.4 3.57e-43
7.14 1.76 1.4 3.57e-43
7.17 1.76 1.4 3.57e-43
7.25 1.76 1.4 3.57e-43
7.37 1.76 1.4 3.57e-43
7.44 1.76 1.4 3.57e-43
7.52 1.76 1.4 3.57e-43
7.52 1.76 1.4 3.57e-43
7.47 1.76 1.4 3.57e-43
7.4 1.76 1.4 3.57e-43
6.02 1.8 0.99 3.57e-43
6.1 1.8 0.91 3.57e-43
6.16 1.8 0.9 9.1477e-41
6.39 1.8 0.49 9.1477e-41
6.45 1.8 0.48 9.1477e-41
6.51 1.8 0.48 9.1477e-41
6.57 1.8 0.47 9.1477e-41
6.62 1.8 0.5 9.1477e-41
6.68 1.8 0.5 3.57e-43
6.3 1.8 1.35 9.1477e-41
6.33 1.8 1.37 9.1477e-41
6.38 1.8 1.39 9.1477e-41
6.41 1.8 1.39 3.57e-43
6.87 1.8 1.39 3.57e-43
6.93 1.8 1.39 3.57e-43
7 1.8 1.39 3.57e-43
7.03 1.8 1.39 3.57e-43
6.72 1.8 1.39 3.57e-43
6.98 1.8 1.39 3.57e-43
7.06 1.8 1.39 3.57e-43
7.13 1.8 1.39 3.57e-43
7.14 1.8 1.39 3.57e-43
7.17 1.8 1.39 3.57e-43
7.25 1.8 1.39 3.57e-43
7.37 1.8 1.39 3.57e-43
7.44 1.8 1.39 3.57e-43
7.52 1.8 1.39 3.57e-43
7.52 1.8 1.39 3.57e-43
7.47 1.8 1.39 3.57e-43
7.4 1.8 1.35 9.1477e-41
6.01 1.84 0.58 3.57e-43
6.01 1.84 0.58 3.57e-43
5.96 1.84 0.58 3.57e-43
6.02 1.84 0.99 9.1477e-41
6.1 1.84 0.91 9.1477e-41
6.14 1.84 0.94 9.1477e-41
6.3 1.84 0.69 9.1477e-41
6.43 1.84 0.51 9.1477e-41
6.52 1.84 0.45 9.1477e-41
6.58 1.84 0.45 9.1477e-41
6.63 1.84 0.48 9.1477e-41
6.68 1.84 0.48 3.57e-43
6.3 1.84 1.35 9.1477e-41
6.33 1.84 1.37 9.1477e-41
6.37 1.84 1.41 9.1477e-41
6.41 1.84 1.41 3.57e-43
6.87 1.84 1.41 3.57e-43
6.93 1.84 1.41 3.57e-43
7 1.84 1.41 3.57e-43
7.03 1.84 1.41 3.57e-43
6.72 1.84 1.41 3.57e-43
6.98 1.84 1.41 3.57e-43
7.06 1.84 1.41 3.57e-43
7.13 1.84 1.41 3.57e-43
7.14 1.84 1.41 3.57e-43
7.17 1.84 1.41 3.57e-43
7.25 1.84 1.41 3.57e-43
7.37 1.84 1.41 3.57e-43
7.44 1.84 1.41 3.57e-43
7.52 1.84 1.41 3.57e-43
7.52 1.84 1.41 3.57e-43
7.47 1.84 1.41 3.57e-43
7.4 1.84 1.35 9.1477e-41
7.42 1.84 1.41 9.1477e-41
6.01 1.88 0.99 3.57e-43
6.1 1.88 0.91 9.1477e-41
6.13 1.88 0.96 9.1477e-41
6.27 1.88 0.76 9.1477e-41
6.32 1.88 0.78 9.1477e-41
6.45 1.88 0.6 9.1477e-41
6.55 1.88 0.5 9.1477e-41
6.59 1.88 0.55 9.1477e-41
6.65 1.88 0.55 3.57e-43
6.3 1.88 1.35 9.1477e-41
6.33 1.88 1.37 9.1477e-41
6.37 1.88 1.4 9.1477e-41
6.41 1.88 1.4 3.57e-43
6.87 1.88 1.4 3.57e-43
6.93 1.88 1.4 3.57e-43
7 1.88 1.4 3.57e-43
7.03 1.88 1.4 3.57e-43
6.72 1.88 1.4 3.57e-43
6.98 1.88 1.4 3.57e-43
7.06 1.88 1.4 3.57e-43
7.13 1.88 1.4 3.57e-43
7.14 1.88 1.4 3.57e-43
7.17 1.88 1.4 3.57e-43
7.25 1.88 1.4 3.57e-43
7.37 1.88 1.4 3.57e-43
7.44 1.88 1.4 3.57e-43
7.52 1.88 1.4 3.57e-43
7.52 1.88 1.4 3.57e-43
7.47 1.88 1.4 3.57e-43
7.4 1.88 1.35 9.1477e-41
7.46 1.88 1.35 9.1477e-41
6.01 1.92 0.99 3.57e-43
6.1 1.92 0.92 3.57e-43
6.13 1.92 0.96 9.1477e-41
6.15 1.92 1.02 9.1477e-41
6.2 1.92 1.03 9.1477e-41
6.28 1.92 0.97 9.1477e-41
6.47 1.92 0.68 9.1477e-41
6.53 1.92 0.68 9.1477e-41
6.58 1.92 0.68 3.57e-43
6.3 1.92 1.35 9.1477e-41
6.32 1.92 1.39 9.1477e-41
6.37 1.92 1.41 9.1477e-41
6.41 1.92 1.41 3.57e-43
6.87 1.92 1.41 3.57e-43
6.93 1.92 1.41 3.57e-43
7 1.92 1.41 3.57e-43
7.03 1.92 1.41 3.57e-43
6.72 1.92 1.41 3.57e-43
6.98 1.92 1.41 3.57e-43
7.06 1.92 1.41 3.57e-43
7.13 1.92 1.41 3.57e-43
7.14 1.92 1.41 3.57e-43
7.17 1.92 1.41 3.57e-43
7.25 1.92 1.41 3.57e-43
7.37 1.92 1.41 3.57e-43
7.44 1.92 1.41 3.57e-43
7.52 1.92 1.41 3.57e-43
7.52 1.92 1.41 3.57e-43
7.47 1.92 1.41 3.57e-43
7.4 1.92 1.35 9.1477e-41
7.42 1.92 1.41 9.1477e-41
6.01 1.96 0.99 3.57e-43
6.1 1.96 0.92 3.57e-43
6.13 1.96 0.92 3.57e-43
6.15 1.96 0.92 3.57e-43
6.2 1.96 0.92 3.57e-43
6.28 1.96 0.97 9.1477e-41
6.22 1.96 1.2 9.1477e-41
6.26 1.96 1.22 9.1477e-41
6.29 1.96 1.26 9.1477e-41
6.31 1.96 1.32 9.1477e-41
6.33 1.96 1.37 9.1477e-41
6.37 1.96 1.4 9.1477e-41
6.41 1.96 1.4 3.57e-43
6.87 1.96 1.4 3.57e-43
6.93 1.96 1.4 3.57e-43
7 1.96 1.4 3.57e-43
7.03 1.96 1.4 3.57e-43
6.72 1.96 1.4 3.57e-43
6.98 1.96 1.4 3.57e-43
7.06 1.96 1.4 3.57e-43
7.13 1.96 1.4 3.57e-43
7.14 1.96 1.4 3.57e-43
7.17 1.96 1.4 3.57e-43
7.25 1.96 1.4 3.57e-43
7.37 1.96 1.4 3.57e-43
7.44 1.96 1.4 3.57e-43
7.52 1.96 1.4 3.57e-43
7.52 1.96 1.4 3.57e-43
7.47 1.96 1.4 3.57e-43
7.4 1.96 1.35 9.1477e-41
6.01 2 0.99 3.57e-43
6.1 2 0.92 3.57e-43
6.13 2 0.92 3.57e-43
6.15 2 0.92 3.57e-43
6.2 2 0.92 3.57e-43
6.28 2 0.92 3.57e-43
6.22 2 0.92 3.57e-43
6.26 2 1.22 3.57e-43
6.61 2 1.22 3.57e-43
6.31 2 1.32 9.1477e-41
6.33 2 1.37 9.1477e-41
6.36 2 1.41 9.1477e-41
6.41 2 1.41 9.1477e-41
6.45 2 1.41 3.57e-43
6.93 2 1.41 3.57e-43
7 2 1.41 3.57e-43
7.03 2 1.41 3.57e-43
6.72 2 1.41 3.57e-43
6.98 2 1.41 3.57e-43
7.06 2 1.41 3.57e-43
7.13 2 1.41 3.57e-43
7.14 2 1.41 3.57e-43
7.17 2 1.41 3.57e-43
7.25 2 1.41 3.57e-43
7.37 2 1.41 3.57e-43
7.44 2 1.41 3.57e-43
7.52 2 1.41 3.57e-43
7.52 2 1.41 3.57e-43
7.47 2 1.41 3.57e-43
7.4 2 1.41 3.57e-43
6.01 2.04 0.99 3.57e-43
6.1 2.04 0.92 3.57e-43
6.13 2.04 0.92 3.57e-43
6.15 2.04 0.92 3.57e-43
6.2 2.04 0.92 3.57e-43
6.28 2.04 0.92 3.57e-43
6.22 2.04 0.92 3.57e-43
6.26 2.04 1.22 3.57e-43
6.61 2.04 1.22 3.57e-43
6.31 2.04 1.32 9.1477e-41
6.33 2.04 1.37 9.1477e-41
6.37 2.04 1.4 9.1477e-41
6.41 2.04 1.41 9.1477e-41
6.46 2.04 1.41 3.57e-43
6.93 2.04 1.41 3.57e-43
7 2.04 1.41 3.57e-43
7.03 2.04 1.41 3.57e-43
6.72 2.04 1.41 3.57e-43
6.98 2.04 1.41 3.57e-43
7.06 2.04 1.41 3.57e-43
7.13 2.04 1.41 3.57e-43
7.14 2.04 1.41 3.57e-43
7.17 2.04 1.41 3.57e-43
7.25 2.04 1.41 3.57e-43
7.37 2.04 1.41 3.57e-43
7.44 2.04 1.41 3.57e-43
7.52 2.04 1.41 3.57e-43
7.52 2.04 1.41 3.57e-43
7.47 2.04 1.41 3.57e-43
7.4 2.04 1.35 9.1477e-41
7.4 2.04 1.42 9.1477e-41
6.01 2.08 0.99 3.57e-43
6.1 2.08 0.92 9.1477e-41
6.13 2.08 0.92 3.57e-43
6.15 2.08 0.92 3.57e-43
6.2 2.08 0.92 3.57e-43
6.28 2.08 0.92 3.57e-43
6.22 2.08 0.92 3.57e-43
6.26 2.08 1.22 9.1477e-41
6.61 2.08 1.22 3.57e-43
6.31 2.08 1.33 9.1477e-41
6.33 2.08 1.37 9.1477e-41
6.37 2.08 1.41 9.1477e-41
6.41 2.08 1.41 9.1477e-41
6.45 2.08 1.41 3.57e-43
6.93 2.08 1.41 3.57e-43
7 2.08 1.41 3.57e-43
7.03 2.08 1.41 3.57e-43
6.72 2.08 1.41 3.57e-43
6.98 2.08 1.41 3.57e-43
7.06 2.08 1.41 3.57e-43
7.13 2.08 1.41 3.57e-43
7.14 2.08 1.41 3.57e-43
7.17 2.08 1.41 3.57e-43
7.25 2.08 1.41 3.57e-43
7.37 2.08 1.41 3.57e-43
7.44 2.08 1.41 3.57e-43
7.52 2.08 1.41 3.57e-43
7.52 2.08 1.41 3.57e-43
7.47 2.08 1.41 3.57e-43
7.4 2.08 1.35 9.1477e-41
7.4 2.08 1.43 9.1477e-41
6.01 2.12 0.99 3.57e-43
6.09 2.12 0.93 9.1477e-41
6.14 2.12 0.93 3.57e-43
6.15 2.12 1.03 9.1477e-41
6.38 2.12 0.62 9.1477e-41
6.42 2.12 0.68 9.1477e-41
6.47 2.12 0.69 9.1477e-41
6.53 2.12 0.68 9.1477e-41
6.58 2.12 0.69 9.1477e-41
6.62 2.12 0.72 9.1477e-41
6.33 2.12 1.38 9.1477e-41
6.37 2.12 1.4 9.1477e-41
6.41 2.12 1.42 9.1477e-41
6.46 2.12 1.42 3.57e-43
6.93 2.12 1.42 3.57e-43
7 2.12 1.42 3.57e-43
7.03 2.12 1.42 3.57e-43
6.72 2.12 1.42 3.57e-43
6.98 2.12 1.42 3.57e-43
7.06 2.12 1.42 3.57e-43
7.13 2.12 1.42 3.57e-43
7.14 2.12 1.42 3.57e-43
7.17 2.12 1.42 3.57e-43
7.25 2.12 1.42 3.57e-43
7.37 2.12 1.42 3.57e-43
7.44 2.12 1.42 3.57e-43
7.52 2.12 1.42 3.57e-43
7.52 2.12 1.42 3.57e-43
7.47 2.12 1.42 3.57e-43
7.4 2.12 1.35 9.1477e-41
6.01 2.16 0.99 3.57e-43
6.09 2.16 0.94 9.1477e-41
6.13 2.16 0.94 3.57e-43
6.15 2.16 1.02 9.1477e-41
6.36 2.16 0.69 9.1477e-41
6.41 2.16 0.7 9.1477e-41
6.45 2.16 0.73 9.1477e-41
6.49 2.16 0.75 9.1477e-41
6.57 2.16 0.71 9.1477e-41
6.62 2.16 0.72 9.1477e-41
6.33 2.16 1.38 9.1477e-41
6.37 2.16 1.4 9.1477e-41
6.4 2.16 1.43 9.1477e-41
6.45 2.16 1.43 3.57e-43
6.93 2.16 1.43 3.57e-43
7 2.16 1.43 3.57e-43
7.03 2.16 1.43 3.57e-43
6.72 2.16 1.43 3.57e-43
6.98 2.16 1.43 3.57e-43
7.06 2.16 1.43 3.57e-43
7.13 2.16 1.43 3.57e-43
7.14 2.16 1.43 3.57e-43
7.17 2.16 1.43 3.57e-43
7.25 2.16 1.43 3.57e-43
7.37 2.16 1.43 3.57e-43
7.44 2.16 1.43 3.57e-43
7.52 2.16 1.43 3.57e-43
7.52 2.16 1.43 3.57e-43
7.47 2.16 1.43 3.57e-43
7.4 2.16 1.35 9.1477e-41
6.01 2.2 0.99 3.57e-43
6.09 2.2 0.93 9.1477e-41
6.13 2.2 0.95 9.1477e-41
6.29 2.2 0.71 9.1477e-41
6.34 2.2 0.73 9.1477e-41
6.38 2.2 0.75 9.1477e-41
6.43 2.2 0.77 9.1477e-41
6.48 2.2 0.77 9.1477e-41
6.55 2.2 0.77 3.57e-43
6.62 2.2 0.72 9.1477e-41
6.33 2.2 1.38 9.1477e-41
6.37 2.2 1.4 9.1477e-41
6.41 2.2 1.41 9.1477e-41
6.46 2.2 1.41 3.57e-43
6.93 2.2 1.41 3.57e-43
7 2.2 1.41 3.57e-43
7.03 2.2 1.41 3.57e-43
6.72 2.2 1.41 3.57e-43
6.98 2.2 1.41 3.57e-43
7.06 2.2 1.41 3.57e-43
7.13 2.2 1.41 3.57e-43
7.14 2.2 1.41 3.57e-43
7.17 2.2 1.41 3.57e-43
7.25 2.2 1.41 3.57e-43
7.37 2.2 1.41 3.57e-43
7.44 2.2 1.41 3.57e-43
7.52 2.2 1.41 3.57e-43
7.52 2.2 1.41 3.57e-43
7.47 2.2 1.16 9.1477e-41
7.36 2.2 1.39 9.1477e-41
6.01 2.24 0.99 3.57e-43
6.09 2.24 0.93 9.1477e-41
6.13 2.24 0.93 3.57e-43
6.29 2.24 0.71 9.1477e-41
6.34 2.24 0.73 9.1477e-41
6.39 2.24 0.73 9.1477e-41
6.44 2.24 0.74 9.1477e-41
6.48 2.24 0.78 9.1477e-41
6.54 2.24 0.78 3.57e-43
6.62 2.24 0.71 9.1477e-41
6.33 2.24 1.38 9.1477e-41
6.37 2.24 1.39 9.1477e-41
6.41 2.24 1.42 9.1477e-41
6.46 2.24 1.42 3.57e-43
6.93 2.24 1.42 3.57e-43
7 2.24 1.42 3.57e-43
7.03 2.24 1.42 3.57e-43
6.72 2.24 1.42 3.57e-43
6.98 2.24 1.42 3.57e-43
7.06 2.24 1.42 3.57e-43
7.13 2.24 1.42 3.57e-43
7.14 2.24 1.42 3.57e-43
7.17 2.24 1.42 3.57e-43
7.25 2.24 1.42 3.57e-43
7.37 2.24 1.42 3.57e-43
7.44 2.24 1.42 3.57e-43
7.52 2.24 1.42 3.57e-43
7.52 2.24 1.42 3.57e-43
7.47 2.24 1.16 9.1477e-41
7.36 2.24 1.39 9.1477e-41
6.09 2.28 0.93 3.57e-43
6.12 2.28 0.98 3.57e-43
6.29 2.28 0.71 9.1477e-41
6.36 2.28 0.68 9.1477e-41
6.4 2.28 0.71 9.1477e-41
6.44 2.28 0.74 9.1477e-41
6.48 2.28 0.77 9.1477e-41
6.54 2.28 0.77 3.57e-43
6.62 2.28 0.71 9.1477e-41
6.35 2.28 1.36 9.1477e-41
6.37 2.28 1.39 9.1477e-41
6.41 2.28 1.41 9.1477e-41
6.46 2.28 1.41 3.57e-43
6.93 2.28 1.41 3.57e-43
7 2.28 1.41 3.57e-43
7.03 2.28 1.41 3.57e-43
6.72 2.28 1.41 3.57e-43
6.98 2.28 1.41 3.57e-43
7.06 2.28 1.41 3.57e-43
7.13 2.28 1.41 3.57e-43
7.14 2.28 1.41 3.57e-43
7.17 2.28 1.41 3.57e-43
7.25 2.28 1.41 3.57e-43
7.37 2.28 1.41 3.57e-43
7.44 2.28 1.41 3.57e-43
7.52 2.28 1.41 3.57e-43
7.52 2.28 1.41 3.57e-43
7.47 2.28 1.16 9.1477e-41
7.36 2.28 1.39 9.1477e-41
6.09 2.32 0.93 3.57e-43
6.12 2.32 0.98 9.1477e-41
6.32 2.32 0.66 9.1477e-41
6.36 2.32 0.67 9.1477e-41
6.41 2.32 0.69 9.1477e-41
6.45 2.32 0.73 9.1477e-41
6.49 2.32 0.76 9.1477e-41
6.55 2.32 0.73 9.1477e-41
6.66 2.32 0.64 9.1477e-41
6.34 2.32 1.37 9.1477e-41
6.37 2.32 1.39 9.1477e-41
6.41 2.32 1.41 9.1477e-41
6.46 2.32 1.41 3.57e-43
6.93 2.32 1.41 3.57e-43
7 2.32 1.41 3.57e-43
7.03 2.32 1.41 3.57e-43
6.72 2.32 1.41 3.57e-43
6.98 2.32 1.41 3.57e-43
7.06 2.32 1.41 3.57e-43
7.13 2.32 1.41 3.57e-43
7.14 2.32 1.41 3.57e-43
7.17 2.32 1.41 3.57e-43
7.25 2.32 1.41 3.57e-43
7.37 2.32 1.41 3.57e-43
7.44 2.32 1.41 3.57e-43
7.52 2.32 1.41 3.57e-43
7.52 2.32 1.41 3.57e-43
7.47 2.32 1.16 9.1477e-41
7.44 2.32 1.16 3.57e-43
6.09 2.36 0.93 3.57e-43
6.13 2.36 0.97 9.1477e-41
6.31 2.36 0.67 9.1477e-41
6.38 2.36 0.64 9.1477e-41
6.42 2.36 0.68 9.1477e-41
6.46 2.36 0.71 9.1477e-41
6.49 2.36 0.76 9.1477e-41
6.58 2.36 0.76 3.57e-43
6.66 2.36 0.64 9.1477e-41
6.33 2.36 1.38 9.1477e-41
6.38 2.36 1.38 9.1477e-41
6.42 2.36 1.38 3.57e-43
6.46 2.36 1.38 3.57e-43
6.93 2.36 1.38 3.57e-43
7 2.36 1.38 3.57e-43
7.03 2.36 1.38 3.57e-43
6.72 2.36 1.38 3.57e-43
6.98 2.36 1.38 3.57e-43
7.06 2.36 1.38 3.57e-43
7.13 2.36 1.38 3.57e-43
7.14 2.36 1.38 3.57e-43
7.17 2.36 1.38 3.57e-43
7.25 2.36 1.38 3.57e-43
7.37 2.36 1.38 3.57e-43
7.44 2.36 1.38 3.57e-43
7.52 2.36 1.38 3.57e-43
7.52 2.36 1.38 3.57e-43
7.47 2.36 1.16 9.1477e-41
7.43 2.36 1.16 3.57e-43
6.09 2.4 0.93 3.57e-43
6.12 2.4 0.93 3.57e-43
6.31 2.4 0.67 9.1477e-41
6.38 2.4 0.64 9.1477e-41
6.43 2.4 0.66 9.1477e-41
6.46 2.4 0.71 9.1477e-41
6.51 2.4 0.71 9.1477e-41
6.62 2.4 0.71 3.57e-43
6.66 2.4 0.64 9.1477e-41
6.34 2.4 1.36 9.1477e-41
6.38 2.4 1.38 9.1477e-41
6.42 2.4 1.4 9.1477e-41
6.46 2.4 1.4 3.57e-43
6.93 2.4 1.4 3.57e-43
7 2.4 1.4 3.57e-43
7.03 2.4 1.4 3.57e-43
6.72 2.4 1.4 3.57e-43
6.98 2.4 1.4 3.57e-43
7.06 2.4 1.4 3.57e-43
7.13 2.4 1.4 3.57e-43
7.14 2.4 1.4 3.57e-43
7.17 2.4 1.4 3.57e-43
7.25 2.4 1.4 3.57e-43
7.37 2.4 1.4 3.57e-43
7.44 2.4 1.4 3.57e-43
7.52 2.4 1.4 3.57e-43
7.52 2.4 1.4 3.57e-43
7.47 2.4 1.16 9.1477e-41
7.4 2.4 1.35 9.1477e-41
6.01 2.44 0.49 9.1477e-41
6.02 2.44 0.49 3.57e-43
6.01 2.44 0.49 3.57e-43
5.96 2.44 0.49 3.57e-43
6.02 2.44 0.49 3.57e-43
6.09 2.44 0.93 9.1477e-41
6.12 2.44 0.93 3.57e-43
6.31 2.44 0.67 9.1477e-41
6.39 2.44 0.61 9.1477e-41
6.43 2.44 0.66 9.1477e-41
6.45 2.44 0.72 9.1477e-41
6.6 2.44 0.53 9.1477e-41
6.64 2.44 0.57 9.1477e-41
6.7 2.44 0.57 9.1477e-41
6.34 2.44 1.37 9.1477e-41
6.38 2.44 1.38 9.1477e-41
6.42 2.44 1.38 3.57e-43
6.46 2.44 1.38 3.57e-43
6.93 2.44 1.38 3.57e-43
7 2.44 1.38 3.57e-43
7.03 2.44 1.38 3.57e-43
6.72 2.44 1.38 3.57e-43
6.98 2.44 1.38 3.57e-43
7.06 2.44 1.38 3.57e-43
7.13 2.44 1.38 3.57e-43
7.14 2.44 1.38 3.57e-43
7.17 2.44 1.38 3.57e-43
7.25 2.44 1.38 3.57e-43
7.37 2.44 1.38 3.57e-43
7.44 2.44 1.38 3.57e-43
7.52 2.44 1.38 3.57e-43
7.52 2.44 1.38 3.57e-43
7.47 2.44 1.16 9.1477e-41
7.37 2.44 1.38 9.1477e-41
6.01 2.48 0.49 9.1477e-41
6.02 2.48 0.49 3.57e-43
6.01 2.48 0.49 3.57e-43
5.96 2.48 0.49 3.57e-43
6.02 2.48 0.49 3.57e-43
6.09 2.48 0.49 3.57e-43
6.12 2.48 0.49 3.57e-43
6.31 2.48 0.49 3.57e-43
6.39 2.48 0.61 9.1477e-41
6.41 2.48 0.69 9.1477e-41
6.46 2.48 0.7 9.1477e-41
6.55 2.48 0.63 9.1477e-41
6.66 2.48 0.53 9.1477e-41
6.72 2.48 0.52 9.1477e-41
6.34 2.48 1.36 9.1477e-41
6.38 2.48 1.37 9.1477e-41
6.42 2.48 1.37 3.57e-43
6.46 2.48 1.37 3.57e-43
6.93 2.48 1.37 3.57e-43
7 2.48 1.37 3.57e-43
7.03 2.48 1.37 3.57e-43
6.72 2.48 1.37 3.57e-43
6.98 2.48 1.37 3.57e-43
7.06 2.48 1.37 3.57e-43
7.13 2.48 1.37 3.57e-43
7.14 2.48 1.37 3.57e-43
7.17 2.48 1.37 3.57e-43
7.25 2.48 1.37 3.57e-43
7.37 2.48 1.37 3.57e-43
7.44 2.48 1.37 3.57e-43
7.52 2.48 1.37 3.57e-43
7.52 2.48 1.37 3.57e-43
7.47 2.48 1.16 9.1477e-41
7.37 2.48 1.38 9.1477e-41
6.12 2.52 0.77 3.57e-43
6.16 2.52 0.77 3.57e-43
6.39 2.52 0.6 9.1477e-41
6.44 2.52 0.62 9.1477e-41
6.49 2.52 0.64 9.1477e-41
6.55 2.52 0.64 3.57e-43
6.66 2.52 0.64 3.57e-43
6.72 2.52 0.52 9.1477e-41
6.34 2.52 1.36 9.1477e-41
6.38 2.52 1.37 9.1477e-41
6.42 2.52 1.37 3.57e-43
6.46 2.52 1.37 3.57e-43
6.93 2.52 1.37 3.57e-43
7 2.52 1.37 3.57e-43
7.03 2.52 1.37 3.57e-43
6.72 2.52 1.37 3.57e-43
6.98 2.52 1.37 3.57e-43
7.06 2.52 1.37 3.57e-43
7.13 2.52 1.37 3.57e-43
7.14 2.52 1.37 3.57e-43
7.17 2.52 1.37 3.57e-43
7.25 2.52 1.37 3.57e-43
7.37 2.52 1.37 3.57e-43
7.44 2.52 1.37 3.57e-43
7.52 2.52 1.37 3.57e-43
7.52 2.52 1.37 3.57e-43
7.47 2.52 1.16 9.1477e-41
7.37 2.52 1.38 9.1477e-41
6.02 2.56 0.77 3.57e-43
6.04 2.56 0.77 3.57e-43
6.02 2.56 0.77 3.57e-43
6.09 2.56 0.77 3.57e-43
6.12 2.56 0.77 3.57e-43
6.16 2.56 0.77 3.57e-43
6.39 2.56 0.6 9.1477e-41
6.44 2.56 0.62 9.1477e-41
6.49 2.56 0.62 3.57e-43
6.55 2.56 0.62 3.57e-43
6.66 2.56 0.62 3.57e-43
6.72 2.56 0.52 9.1477e-41
6.35 2.56 1.36 9.1477e-41
6.38 2.56 1.37 9.1477e-41
6.42 2.56 1.37 3.57e-43
6.46 2.56 1.37 3.57e-43
6.93 2.56 1.37 3.57e-43
7 2.56 1.37 3.57e-43
7.03 2.56 1.37 3.57e-43
6.72 2.56 1.37 3.57e-43
6.98 2.56 1.37 3.57e-43
7.06 2.56 1.37 3.57e-43
7.13 2.56 1.37 3.57e-43
7.14 2.56 1.37 3.57e-43
7.17 2.56 1.37 3.57e-43
7.25 2.56 1.37 3.57e-43
7.37 2.56 1.37 3.57e-43
7.44 2.56 1.37 3.57e-43
7.52 2.56 1.37 3.57e-43
7.52 2.56 1.37 3.57e-43
7.47 2.56 1.16 9.1477e-41
7.37 2.56 1.38 9.1477e-41
6.32 2.6 1.31 3.57e-43
6.35 2.6 1.36 9.1477e-41
6.39 2.6 1.37 9.1477e-41
6.44 2.6 1.37 3.57e-43
6.46 2.6 1.37 3.57e-43
6.93 2.6 1.37 3.57e-43
7 2.6 1.37 3.57e-43
7.03 2.6 1.37 3.57e-43
6.72 2.6 1.37 3.57e-43
6.98 2.6 1.37 3.57e-43
7.06 2.6 1.37 3.57e-43
7.13 2.6 0.94 9.1477e-41
6.88 2.6 0.94 3.57e-43
7.17 2.6 0.94 3.57e-43
7.25 2.6 0.94 3.57e-43
7.37 2.6 0.94 3.57e-43
7.44 2.6 0.94 3.57e-43
7.52 2.6 0.94 3.57e-43
7.52 2.6 0.94 3.57e-43
7.47 2.6 0.94 3.57e-43
7.37 2.6 1.38 9.1477e-41
6.03 2.64 0.45 9.1477e-41
6.05 2.64 0.45 3.57e-43
6.01 2.64 0.45 3.57e-43
6.04 2.64 0.45 3.57e-43
6.02 2.64 0.45 3.57e-43
6.09 2.64 0.45 3.57e-43
6.12 2.64 0.45 3.57e-43
6.16 2.64 0.45 3.57e-43
6.39 2.64 0.45 3.57e-43
6.44 2.64 0.45 3.57e-43
6.49 2.64 0.45 3.57e-43
6.55 2.64 0.45 3.57e-43
6.66 2.64 0.53 9.1477e-41
6.32 2.64 1.31 9.1477e-41
6.35 2.64 1.34 9.1477e-41
6.39 2.64 1.36 9.1477e-41
6.43 2.64 1.36 3.57e-43
6.46 2.64 1.36 3.57e-43
6.93 2.64 1.36 3.57e-43
7 2.64 1.36 3.57e-43
7.03 2.64 1.36 3.57e-43
6.72 2.64 1.36 3.57e-43
6.98 2.64 1.36 3.57e-43
7.06 2.64 1.36 3.57e-43
7.13 2.64 0.94 9.1477e-41
6.88 2.64 0.94 3.57e-43
7.17 2.64 0.94 3.57e-43
7.25 2.64 0.94 3.57e-43
7.37 2.64 0.94 3.57e-43
7.44 2.64 0.94 3.57e-43
7.52 2.64 0.94 3.57e-43
7.52 2.64 0.94 3.57e-43
7.47 2.64 0.94 3.57e-43
7.37 2.64 1.38 9.1477e-41
6.32 2.68 1.31 3.57e-43
6.36 2.68 1.33 9.1477e-41
6.4 2.68 1.35 9.1477e-41
6.44 2.68 1.35 3.57e-43
6.46 2.68 1.35 3.57e-43
6.93 2.68 1.35 3.57e-43
7 2.68 1.35 3.57e-43
7.03 2.68 1.35 3.57e-43
6.72 2.68 1.35 3.57e-43
6.98 2.68 1.35 3.57e-43
7.06 2.68 1.35 3.57e-43
7.13 2.68 1.35 3.57e-43
6.88 2.68 1.35 3.57e-43
7.17 2.68 1.35 3.57e-43
7.25 2.68 1.35 3.57e-43
7.37 2.68 1.35 3.57e-43
7.44 2.68 1.35 3.57e-43
7.52 2.68 1.35 3.57e-43
7.52 2.68 1.35 3.57e-43
7.47 2.68 1.35 3.57e-43
7.37 2.68 1.38 9.1477e-41
6.03 2.72 0.43 9.1477e-41
6.04 2.72 0.43 3.57e-43
6.01 2.72 0.43 3.57e-43
6.04 2.72 0.43 3.57e-43
6.02 2.72 0.43 3.57e-43
6.09 2.72 0.43 3.57e-43
6.12 2.72 0.43 3.57e-43
6.16 2.72 0.43 3.57e-43
6.39 2.72 0.43 3.57e-43
6.44 2.72 0.43 3.57e-43
6.49 2.72 0.43 3.57e-43
6.55 2.72 0.43 3.57e-43
6.66 2.72 0.43 3.57e-43
6.32 2.72 1.31 9.1477e-41
6.36 2.72 1.32 9.1477e-41
6.4 2.72 1.34 9.1477e-41
6.45 2.72 1.34 3.57e-43
6.46 2.72 1.34 3.57e-43
6.93 2.72 1.34 3.57e-43
7 2.72 1.34 3.57e-43
7.03 2.72 1.34 3.57e-43
6.72 2.72 1.34 3.57e-43
6.98 2.72 1.34 3.57e-43
7.06 2.72 1.34 3.57e-43
7.13 2.72 1.34 3.57e-43
6.88 2.72 1.34 3.57e-43
7.17 2.72 1.34 3.57e-43
7.25 2.72 1.34 3.57e-43
7.37 2.72 1.34 3.57e-43
7.44 2.72 1.34 3.57e-43
7.52 2.72 1.34 3.57e-43
7.52 2.72 1.01 9.1477e-41
7.34 2.72 1.34 9.1477e-41
6.04 2.76 0.42 9.1477e-41
6.04 2.76 0.42 3.57e-43
6.01 2.76 0.42 3.57e-43
6.04 2.76 0.42 3.57e-43
6.02 2.76 0.42 3.57e-43
6.09 2.76 0.93 9.1477e-41
6.13 2.76 0.93 3.57e-43
6.16 2.76 0.93 3.57e-43
6.39 2.76 0.93 3.57e-43
6.44 2.76 0.93 3.57e-43
6.49 2.76 0.93 3.57e-43
6.55 2.76 0.93 3.57e-43
6.66 2.76 0.53 9.1477e-41
6.33 2.76 1.29 9.1477e-41
6.36 2.76 1.32 9.1477e-41
6.4 2.76 1.32 3.57e-43
6.45 2.76 1.32 3.57e-43
6.46 2.76 1.32 3.57e-43
6.93 2.76 1.32 3.57e-43
7 2.76 0.67 9.1477e-41
6.67 2.76 0.67 3.57e-43
6.72 2.76 0.67 3.57e-43
6.98 2.76 0.67 3.57e-43
7.06 2.76 0.67 3.57e-43
7.13 2.76 0.67 3.57e-43
6.88 2.76 0.67 3.57e-43
7.17 2.76 0.67 3.57e-43
7.25 2.76 0.67 3.57e-43
7.37 2.76 0.67 3.57e-43
7.44 2.76 0.67 3.57e-43
7.52 2.76 0.67 3.57e-43
7.52 2.76 0.67 3.57e-43
7.34 2.76 1.34 9.1477e-41
6.04 2.8 0.41 9.1477e-41
6.05 2.8 0.41 3.57e-43
6.01 2.8 0.41 3.57e-43
6.04 2.8 0.41 3.57e-43
6.02 2.8 0.41 3.57e-43
6.09 2.8 0.93 9.1477e-41
6.13 2.8 0.93 3.57e-43
6.16 2.8 0.93 3.57e-43
6.39 2.8 0.93 3.57e-43
6.44 2.8 0.93 3.57e-43
6.49 2.8 0.93 3.57e-43
6.55 2.8 0.93 3.57e-43
6.66 2.8 0.93 3.57e-43
6.33 2.8 0.93 3.57e-43
6.36 2.8 1.32 9.1477e-41
6.42 2.8 1.31 9.1477e-41
6.47 2.8 1.32 9.1477e-41
6.51 2.8 1.32 3.57e-43
6.93 2.8 1.32 3.57e-43
7 2.8 1.32 3.57e-43
6.67 2.8 1.32 3.57e-43
6.72 2.8 1.32 3.57e-43
6.98 2.8 1.32 3.57e-43
7.06 2.8 1.32 3.57e-43
7.13 2.8 1.32 3.57e-43
6.88 2.8 1.32 3.57e-43
7.17 2.8 1.32 3.57e-43
7.25 2.8 1.32 3.57e-43
7.37 2.8 1.32 3.57e-43
7.44 2.8 1.32 3.57e-43
7.52 2.8 1.32 3.57e-43
7.52 2.8 1.32 3.57e-43
7.34 2.8 1.34 9.1477e-41
6.04 2.84 0.42 9.1477e-41
6.04 2.84 0.42 3.57e-43
6.01 2.84 0.42 3.57e-43
6.04 2.84 0.42 3.57e-43
6.02 2.84 0.42 3.57e-43
6.09 2.84 0.93 9.1477e-41
6.13 2.84 0.93 3.57e-43
6.16 2.84 0.93 3.57e-43
6.39 2.84 0.93 3.57e-43
6.44 2.84 0.93 3.57e-43
6.49 2.84 0.93 3.57e-43
6.55 2.84 0.93 3.57e-43
6.66 2.84 0.93 3.57e-43
6.33 2.84 0.93 3.57e-43
6.36 2.84 0.93 3.57e-43
6.42 2.84 0.93 3.57e-43
6.47 2.84 0.93 3.57e-43
6.51 2.84 0.93 3.57e-43
6.93 2.84 0.93 3.57e-43
7 2.84 0.93 3.57e-43
6.67 2.84 0.93 3.57e-43
6.72 2.84 0.93 3.57e-43
6.98 2.84 0.98 9.1477e-41
6.84 2.84 0.98 3.57e-43
7.13 2.84 0.98 3.57e-43
6.88 2.84 0.98 3.57e-43
7.17 2.84 0.98 3.57e-43
7.25 2.84 0.98 3.57e-43
7.37 2.84 0.98 3.57e-43
7.44 2.84 0.98 3.57e-43
7.52 2.84 0.98 3.57e-43
7.52 2.84 1.01 9.1477e-41
6.04 2.88 0.42 9.1477e-41
6.04 2.88 0.42 3.57e-43
6.01 2.88 0.42 3.57e-43
6.04 2.88 0.42 3.57e-43
6.02 2.88 0.42 3.57e-43
6.09 2.88 0.93 9.1477e-41
6.13 2.88 0.93 3.57e-43
6.16 2.88 0.93 3.57e-43
6.39 2.88 0.93 3.57e-43
6.44 2.88 0.93 3.57e-43
6.49 2.88 0.93 3.57e-43
6.55 2.88 0.93 3.57e-43
6.66 2.88 0.93 3.57e-43
6.33 2.88 0.93 3.57e-43
6.36 2.88 0.93 3.57e-43
6.42 2.88 0.93 3.57e-43
6.47 2.88 0.93 3.57e-43
6.51 2.88 0.93 3.57e-43
6.93 2.88 0.93 3.57e-43
7 2.88 0.93 3.57e-43
6.67 2.88 0.93 3.57e-43
6.72 2.88 1.32 9.1477e-41
6.84 2.88 1.22 9.1477e-41
6.89 2.88 1.22 3.57e-43
7.13 2.88 0.94 9.1477e-41
6.97 2.88 0.94 3.57e-43
7.17 2.88 0.94 3.57e-43
7.25 2.88 0.94 3.57e-43
7.37 2.88 0.94 3.57e-43
7.44 2.88 0.94 3.57e-43
7.52 2.88 0.94 3.57e-43
7.52 2.88 1.01 9.1477e-41
6.04 2.92 0.42 9.1477e-41
6.04 2.92 0.42 3.57e-43
6.01 2.92 0.42 3.57e-43
6.04 2.92 0.82 9.1477e-41
6.08 2.92 0.85 9.1477e-41
6.1 2.92 0.9 9.1477e-41
6.13 2.92 0.96 9.1477e-41
6.17 2.92 0.96 3.57e-43
6.39 2.92 0.96 3.57e-43
6.44 2.92 0.96 3.57e-43
6.49 2.92 0.96 3.57e-43
6.55 2.92 0.96 3.57e-43
6.66 2.92 0.96 3.57e-43
6.33 2.92 0.96 3.57e-43
6.36 2.92 0.96 3.57e-43
6.42 2.92 0.96 3.57e-43
6.47 2.92 0.96 3.57e-43
6.51 2.92 0.96 3.57e-43
6.93 2.92 0.96 3.57e-43
7 2.92 0.96 3.57e-43
6.67 2.92 0.96 3.57e-43
6.72 2.92 1.32 9.1477e-41
6.85 2.92 1.2 9.1477e-41
6.91 2.92 1.2 9.1477e-41
6.95 2.92 1.23 9.1477e-41
6.99 2.92 1.23 3.57e-43
7.17 2.92 1.23 3.57e-43
7.25 2.92 1.23 3.57e-43
7.37 2.92 1.23 3.57e-43
7.44 2.92 1.23 3.57e-43
7.52 2.92 1.23 3.57e-43
7.52 2.92 1.01 9.1477e-41
6.03 2.96 0.44 9.1477e-41
6.05 2.96 0.44 3.57e-43
6.01 2.96 0.44 3.57e-43
6.04 2.96 0.82 9.1477e-41
6.08 2.96 0.83 9.1477e-41
6.1 2.96 0.9 9.1477e-41
6.13 2.96 0.95 9.1477e-41
6.17 2.96 0.95 3.57e-43
6.39 2.96 0.95 3.57e-43
6.44 2.96 0.95 3.57e-43
6.49 2.96 0.95 3.57e-43
