# .PCD v.7 - Point Cloud Data file format
VERSION .7
FIELDS x y z rgb
SIZE 4 4 4 4
TYPE F F F F
WIDTH 1738
HEIGHT 1
POINTS 1738
DATA ascii
1.99 0 0.47 9.1477e-41
2.06 0 0.47 3.57e-43
1.93 0 0.47 3.57e-43
1.99 0 0.47 3.57e-43
2.04 0 0.47 3.57e-43
2.1 0 0.47 3.57e-43
2.15 0 0.47 3.57e-43
2.42 0 0.53 9.1477e-41
2.45 0 0.47 9.1477e-41
2.49 0 0.42 9.1477e-41
2.26 0.06 0.78 3.57e-43
2.29 0.06 0.7 9.1477e-41
2.34 0.06 0.71 9.1477e-41
2.38 0.06 0.71 3.57e-43
2.21 0.06 0.71 3.57e-43
2.42 0.06 0.71 3.57e-43
2.45 0.06 0.71 3.57e-43
2.49 0.06 0.71 3.57e-43
2.63 0.06 0.58 9.1477e-41
2.68 0.06 0.57 9.1477e-41
2.73 0.06 0.57 9.1477e-41
2.77 0.06 0.54 9.1477e-41
2.79 0.06 0.44 9.1477e-41
1.82 0.12 0.69 9.1477e-41
1.87 0.12 0.69 3.57e-43
1.65 0.12 0.69 3.57e-43
1.72 0.12 0.69 3.57e-43
1.76 0.12 0.69 3.57e-43
1.99 0.12 0.69 3.57e-43
2.06 0.12 0.52 9.1477e-41
2.21 0.12 0.76 9.1477e-41
2.26 0.12 0.78 9.1477e-41
2.31 0.12 0.76 9.1477e-41
2.36 0.12 0.76 9.1477e-41
2.39 0.12 0.76 3.57e-43
2.21 0.12 0.76 3.57e-43
2.42 0.12 0.76 3.57e-43
2.45 0.12 0.76 3.57e-43
2.49 0.12 0.76 3.57e-43
2.53 0.12 0.76 3.57e-43
2.63 0.12 0.58 9.1477e-41
2.71 0.12 0.66 9.1477e-41
2.75 0.12 0.66 3.57e-43
2.77 0.12 0.54 9.1477e-41
2.83 0.12 0.59 9.1477e-41
2.87 0.12 0.59 3.57e-43
1.73 0.18 0.72 9.1477e-41
1.77 0.18 0.68 9.1477e-41
1.83 0.18 0.68 3.57e-43
1.87 0.18 0.68 3.57e-43
1.65 0.18 0.68 3.57e-43
1.72 0.18 0.68 3.57e-43
1.76 0.18 0.68 3.57e-43
1.99 0.18 0.68 3.57e-43
2.06 0.18 0.68 3.57e-43
2.21 0.18 0.68 3.57e-43
2.26 0.18 0.68 3.57e-43
2.31 0.18 0.68 3.57e-43
2.36 0.18 0.68 3.57e-43
2.39 0.18 0.68 3.57e-43
2.21 0.18 0.68 3.57e-43
2.42 0.18 0.68 3.57e-43
2.45 0.18 0.68 3.57e-43
2.49 0.18 0.68 3.57e-43
2.53 0.18 0.68 3.57e-43
2.63 0.18 0.68 3.57e-43
2.71 0.18 0.66 9.1477e-41
2.75 0.18 0.66 9.1477e-41
2.8 0.18 0.65 9.1477e-41
2.85 0.18 0.65 3.57e-43
2.87 0.18 0.65 3.57e-43
2.8 0.18 0.65 3.57e-43
3 0.18 0.5 9.1477e-41
1.6 0.24 0.66 9.1477e-41
1.68 0.24 0.73 9.1477e-41
1.72 0.24 0.7 9.1477e-41
1.76 0.24 0.7 3.57e-43
1.83 0.24 0.7 3.57e-43
1.87 0.24 0.7 3.57e-43
1.65 0.24 0.7 3.57e-43
1.72 0.24 0.7 3.57e-43
1.76 0.24 0.7 3.57e-43
1.99 0.24 0.7 3.57e-43
2.06 0.24 0.7 3.57e-43
2.21 0.24 0.7 3.57e-43
2.26 0.24 0.7 3.57e-43
2.31 0.24 0.7 3.57e-43
2.36 0.24 0.7 3.57e-43
2.39 0.24 0.7 3.57e-43
2.21 0.24 0.7 3.57e-43
2.42 0.24 0.7 3.57e-43
2.45 0.24 0.7 3.57e-43
2.49 0.24 0.7 3.57e-43
2.53 0.24 0.7 3.57e-43
2.63 0.24 0.7 3.57e-43
2.71 0.24 0.7 3.57e-43
2.75 0.24 0.66 9.1477e-41
2.8 0.24 0.65 9.1477e-41
2.83 0.24 0.62 9.1477e-41
2.89 0.24 0.65 9.1477e-41
2.94 0.24 0.65 3.57e-43
2.91 0.24 0.65 3.57e-43
3 0.24 0.5 9.1477e-41
3.05 0.24 0.53 9.1477e-41
1.57 0.3 0.71 9.1477e-41
1.62 0.3 0.71 9.1477e-41
1.67 0.3 0.7 9.1477e-41
1.76 0.3 0.7 3.57e-43
1.76 0.3 0.7 3.57e-43
1.83 0.3 0.7 3.57e-43
1.87 0.3 0.7 3.57e-43
1.65 0.3 0.7 3.57e-43
1.72 0.3 0.7 3.57e-43
1.76 0.3 0.7 3.57e-43
1.99 0.3 0.7 3.57e-43
2.06 0.3 0.7 3.57e-43
2.21 0.3 0.7 3.57e-43
2.26 0.3 0.7 3.57e-43
2.31 0.3 0.7 3.57e-43
2.36 0.3 0.7 3.57e-43
2.39 0.3 0.7 3.57e-43
2.21 0.3 0.7 3.57e-43
2.42 0.3 0.7 3.57e-43
2.45 0.3 0.7 3.57e-43
2.49 0.3 0.7 3.57e-43
2.53 0.3 0.7 3.57e-43
2.63 0.3 0.7 3.57e-43
2.71 0.3 0.7 3.57e-43
2.75 0.3 0.66 9.1477e-41
2.8 0.3 0.68 9.1477e-41
2.86 0.3 0.74 9.1477e-41
2.9 0.3 0.69 9.1477e-41
2.94 0.3 0.69 9.1477e-41
2.99 0.3 0.69 3.57e-43
3 0.3 0.69 3.57e-43
3.05 0.3 0.69 3.57e-43
1.49 0.36 0.66 9.1477e-41
1.58 0.36 0.73 9.1477e-41
1.64 0.36 0.74 9.1477e-41
1.68 0.36 0.74 3.57e-43
1.76 0.36 0.74 3.57e-43
1.76 0.36 0.74 3.57e-43
1.83 0.36 0.74 3.57e-43
1.87 0.36 0.74 3.57e-43
1.65 0.36 0.74 3.57e-43
1.72 0.36 0.74 3.57e-43
1.76 0.36 0.74 3.57e-43
1.99 0.36 0.74 3.57e-43
2.06 0.36 0.74 3.57e-43
2.21 0.36 0.74 3.57e-43
2.26 0.36 0.74 3.57e-43
2.31 0.36 0.74 3.57e-43
2.36 0.36 0.74 3.57e-43
2.39 0.36 0.74 3.57e-43
2.21 0.36 0.74 3.57e-43
2.42 0.36 0.74 3.57e-43
2.45 0.36 0.74 3.57e-43
2.49 0.36 0.74 3.57e-43
2.53 0.36 0.74 3.57e-43
2.63 0.36 0.74 3.57e-43
2.71 0.36 0.74 3.57e-43
2.75 0.36 0.74 3.57e-43
2.8 0.36 0.68 9.1477e-41
2.88 0.36 0.78 9.1477e-41
2.9 0.36 0.69 9.1477e-41
2.94 0.36 0.67 9.1477e-41
2.99 0.36 0.68 9.1477e-41
3.03 0.36 0.68 3.57e-43
3.05 0.36 0.68 3.57e-43
1.55 0.42 0.79 9.1477e-41
1.63 0.42 0.85 9.1477e-41
1.69 0.42 0.85 3.57e-43
1.68 0.42 0.85 3.57e-43
1.76 0.42 0.85 3.57e-43
1.76 0.42 0.85 3.57e-43
1.83 0.42 0.85 3.57e-43
1.87 0.42 0.85 3.57e-43
1.65 0.42 0.85 3.57e-43
1.72 0.42 0.85 3.57e-43
1.76 0.42 0.85 3.57e-43
1.99 0.42 0.85 3.57e-43
2.06 0.42 0.85 3.57e-43
2.21 0.42 0.85 3.57e-43
2.26 0.42 0.85 3.57e-43
2.31 0.42 0.85 3.57e-43
2.36 0.42 0.85 3.57e-43
2.39 0.42 0.85 3.57e-43
2.21 0.42 0.85 3.57e-43
2.42 0.42 0.85 3.57e-43
2.45 0.42 0.85 3.57e-43
2.49 0.42 0.85 3.57e-43
2.53 0.42 0.85 3.57e-43
2.63 0.42 0.85 3.57e-43
2.71 0.42 0.85 3.57e-43
2.75 0.42 0.85 3.57e-43
2.8 0.42 0.85 3.57e-43
2.88 0.42 0.78 9.1477e-41
2.93 0.42 0.81 9.1477e-41
2.97 0.42 0.8 9.1477e-41
3.01 0.42 0.79 9.1477e-41
3.05 0.42 0.79 3.57e-43
3.05 0.42 0.79 3.57e-43
1.58 0.48 0.84 9.1477e-41
1.63 0.48 0.84 3.57e-43
1.69 0.48 0.84 3.57e-43
1.68 0.48 0.84 3.57e-43
1.76 0.48 0.84 3.57e-43
1.76 0.48 0.84 3.57e-43
1.83 0.48 0.84 3.57e-43
1.87 0.48 0.84 3.57e-43
1.65 0.48 0.84 3.57e-43
1.72 0.48 0.84 3.57e-43
1.76 0.48 0.84 3.57e-43
1.99 0.48 0.84 3.57e-43
2.06 0.48 0.84 3.57e-43
2.21 0.48 0.84 3.57e-43
2.26 0.48 0.84 3.57e-43
2.31 0.48 0.84 3.57e-43
2.36 0.48 0.84 3.57e-43
2.39 0.48 0.84 3.57e-43
2.21 0.48 0.84 3.57e-43
2.42 0.48 0.84 3.57e-43
2.45 0.48 0.84 3.57e-43
2.49 0.48 0.84 3.57e-43
2.53 0.48 0.84 3.57e-43
2.63 0.48 0.84 3.57e-43
2.71 0.48 0.84 3.57e-43
2.75 0.48 0.84 3.57e-43
2.8 0.48 0.84 3.57e-43
2.88 0.48 0.78 9.1477e-41
2.93 0.48 0.84 9.1477e-41
2.98 0.48 0.83 9.1477e-41
3.02 0.48 0.82 9.1477e-41
3.05 0.48 0.77 9.1477e-41
3.09 0.48 0.77 3.57e-43
2.93 0.54 0.84 3.57e-43
2.98 0.54 0.84 9.1477e-41
3.05 0.54 0.97 9.1477e-41
3.05 0.54 0.97 3.57e-43
3.09 0.54 0.97 3.57e-43
3.13 0.54 0.44 9.1477e-41
2.93 0.6 0.84 3.57e-43
2.99 0.6 0.87 9.1477e-41
3.03 0.6 0.85 9.1477e-41
3.07 0.6 0.85 3.57e-43
3.09 0.6 0.85 3.57e-43
3.13 0.6 0.45 9.1477e-41
2.57 0.66 0.97 3.57e-43
2.62 0.66 0.97 3.57e-43
2.49 0.66 0.97 3.57e-43
2.53 0.66 0.97 3.57e-43
2.63 0.66 0.58 9.1477e-41
2.79 0.66 0.58 3.57e-43
2.75 0.66 0.58 3.57e-43
2.8 0.66 0.58 3.57e-43
2.88 0.66 0.58 3.57e-43
2.93 0.66 0.84 9.1477e-41
2.99 0.66 0.9 9.1477e-41
3.03 0.66 0.87 9.1477e-41
3.07 0.66 0.87 3.57e-43
3.09 0.66 0.87 3.57e-43
3.12 0.66 0.43 9.1477e-41
1.95 0.72 0.97 3.57e-43
2 0.72 0.98 9.1477e-41
2.05 0.72 0.98 9.1477e-41
2.1 0.72 0.98 9.1477e-41
2.15 0.72 0.98 9.1477e-41
2.2 0.72 0.97 9.1477e-41
2.25 0.72 0.99 9.1477e-41
2.29 0.72 0.98 9.1477e-41
2.34 0.72 0.97 9.1477e-41
2.39 0.72 0.97 3.57e-43
2.36 0.72 0.97 3.57e-43
2.39 0.72 0.97 3.57e-43
2.21 0.72 0.97 3.57e-43
2.57 0.72 0.97 3.57e-43
2.62 0.72 0.97 3.57e-43
2.49 0.72 0.97 3.57e-43
2.53 0.72 0.97 3.57e-43
2.63 0.72 0.97 3.57e-43
2.79 0.72 0.97 3.57e-43
2.75 0.72 0.66 9.1477e-41
2.88 0.72 0.66 3.57e-43
2.88 0.72 0.66 3.57e-43
2.93 0.72 0.84 9.1477e-41
2.99 0.72 0.91 9.1477e-41
3.03 0.72 0.89 9.1477e-41
3.07 0.72 0.89 3.57e-43
3.09 0.72 0.89 3.57e-43
1.69 0.78 0.96 3.57e-43
1.75 0.78 0.97 9.1477e-41
1.8 0.78 0.97 9.1477e-41
1.85 0.78 0.97 9.1477e-41
1.91 0.78 0.98 9.1477e-41
1.95 0.78 0.97 9.1477e-41
2.02 0.78 1.01 9.1477e-41
2.06 0.78 1 9.1477e-41
2.11 0.78 0.99 9.1477e-41
2.15 0.78 0.99 9.1477e-41
2.21 0.78 1 9.1477e-41
2.26 0.78 1 9.1477e-41
2.3 0.78 1.01 9.1477e-41
2.35 0.78 1.01 9.1477e-41
2.39 0.78 1 9.1477e-41
2.44 0.78 1 9.1477e-41
2.49 0.78 1 9.1477e-41
2.52 0.78 0.98 9.1477e-41
2.57 0.78 0.98 9.1477e-41
2.61 0.78 0.97 9.1477e-41
2.66 0.78 0.97 9.1477e-41
2.7 0.78 0.96 9.1477e-41
2.74 0.78 0.96 3.57e-43
2.79 0.78 0.96 3.57e-43
2.75 0.78 0.96 3.57e-43
2.88 0.78 0.96 9.1477e-41
2.92 0.78 0.96 3.57e-43
2.93 0.78 0.96 3.57e-43
2.99 0.78 0.91 9.1477e-41
3.04 0.78 0.9 9.1477e-41
3.08 0.78 0.9 3.57e-43
3.09 0.78 0.9 3.57e-43
1.6 0.84 0.88 9.1477e-41
1.69 0.84 0.96 9.1477e-41
1.75 0.84 0.98 9.1477e-41
1.8 0.84 0.97 9.1477e-41
1.86 0.84 0.98 9.1477e-41
1.91 0.84 1 9.1477e-41
1.97 0.84 1 3.57e-43
2.02 0.84 1 3.57e-43
2.06 0.84 1 3.57e-43
2.11 0.84 1 3.57e-43
2.15 0.84 1 3.57e-43
2.21 0.84 1 3.57e-43
2.26 0.84 1 3.57e-43
2.3 0.84 1 3.57e-43
2.35 0.84 1.01 9.1477e-41
2.4 0.84 1.01 3.57e-43
2.44 0.84 1.01 3.57e-43
2.49 0.84 1 9.1477e-41
2.54 0.84 1 3.57e-43
2.57 0.84 0.98 9.1477e-41
2.62 0.84 1.01 9.1477e-41
2.66 0.84 0.99 9.1477e-41
2.71 0.84 1 9.1477e-41
2.75 0.84 0.98 9.1477e-41
2.79 0.84 0.98 9.1477e-41
2.83 0.84 0.97 9.1477e-41
2.87 0.84 0.97 3.57e-43
2.92 0.84 0.97 3.57e-43
2.93 0.84 0.97 3.57e-43
2.99 0.84 0.91 9.1477e-41
3.04 0.84 0.91 3.57e-43
3.08 0.84 0.91 3.57e-43
3.09 0.84 0.91 3.57e-43
3.12 0.84 0.42 9.1477e-41
1.65 0.9 0.98 9.1477e-41
1.69 0.9 0.98 3.57e-43
1.75 0.9 0.98 9.1477e-41
1.84 0.9 0.98 3.57e-43
1.86 0.9 0.98 3.57e-43
1.91 0.9 0.98 3.57e-43
1.97 0.9 0.98 3.57e-43
2.02 0.9 0.98 3.57e-43
2.06 0.9 0.98 3.57e-43
2.11 0.9 0.98 3.57e-43
2.15 0.9 0.98 3.57e-43
2.21 0.9 0.98 3.57e-43
2.26 0.9 0.98 3.57e-43
2.3 0.9 0.98 3.57e-43
2.35 0.9 0.98 3.57e-43
2.4 0.9 0.98 3.57e-43
2.44 0.9 0.98 3.57e-43
2.49 0.9 0.98 3.57e-43
2.54 0.9 0.98 3.57e-43
2.57 0.9 0.98 3.57e-43
2.62 0.9 0.98 3.57e-43
2.66 0.9 0.98 3.57e-43
2.71 0.9 0.98 3.57e-43
2.75 0.9 0.98 3.57e-43
2.79 0.9 0.98 3.57e-43
2.83 0.9 0.97 9.1477e-41
2.88 0.9 0.97 9.1477e-41
2.92 0.9 0.95 9.1477e-41
2.96 0.9 0.95 3.57e-43
2.99 0.9 0.91 9.1477e-41
3.04 0.9 0.91 3.57e-43
3.08 0.9 0.91 3.57e-43
3.09 0.9 0.91 3.57e-43
3.12 0.9 0.43 9.1477e-41
1.65 0.96 0.96 3.57e-43
1.78 0.96 1.04 9.1477e-41
1.83 0.96 1.04 3.57e-43
1.86 0.96 1.04 3.57e-43
1.91 0.96 1.04 3.57e-43
1.97 0.96 1.04 3.57e-43
2.02 0.96 1.04 3.57e-43
2.06 0.96 1.04 3.57e-43
2.11 0.96 1.04 3.57e-43
2.15 0.96 1.04 3.57e-43
2.21 0.96 1.04 3.57e-43
2.26 0.96 1.04 3.57e-43
2.3 0.96 1.04 3.57e-43
2.35 0.96 1.04 3.57e-43
2.4 0.96 1.04 3.57e-43
2.44 0.96 1.04 3.57e-43
2.49 0.96 1.04 3.57e-43
2.54 0.96 1.04 3.57e-43
2.57 0.96 1.04 3.57e-43
2.62 0.96 1.04 3.57e-43
2.66 0.96 1.04 3.57e-43
2.71 0.96 1.04 3.57e-43
2.75 0.96 1.04 3.57e-43
2.79 0.96 1.04 3.57e-43
2.83 0.96 1.04 3.57e-43
2.88 0.96 1.04 3.57e-43
2.92 0.96 0.95 9.1477e-41
2.96 0.96 0.96 9.1477e-41
3.01 0.96 0.96 3.57e-43
3.04 0.96 0.96 3.57e-43
3.08 0.96 0.96 3.57e-43
3.09 0.96 0.96 3.57e-43
3.13 0.96 0.49 9.1477e-41
2.49 1.02 1.08 3.57e-43
2.55 1.02 1.07 9.1477e-41
2.6 1.02 1.08 9.1477e-41
2.65 1.02 1.08 9.1477e-41
2.69 1.02 1.07 9.1477e-41
2.73 1.02 1.07 3.57e-43
2.75 1.02 1.07 3.57e-43
2.79 1.02 1.07 3.57e-43
2.83 1.02 0.97 9.1477e-41
2.89 1.02 0.97 3.57e-43
2.92 1.02 0.97 3.57e-43
2.96 1.02 0.97 3.57e-43
3.01 1.02 0.97 3.57e-43
3.04 1.02 0.97 3.57e-43
3.08 1.02 0.97 3.57e-43
3.09 1.02 0.97 3.57e-43
3.14 1.02 0.5 9.1477e-41
2.49 1.08 1.08 3.57e-43
2.56 1.08 1.08 9.1477e-41
2.6 1.08 1.08 9.1477e-41
2.65 1.08 1.08 9.1477e-41
2.69 1.08 1.08 9.1477e-41
2.73 1.08 1.08 3.57e-43
2.75 1.08 1.08 3.57e-43
2.79 1.08 1.08 3.57e-43
2.83 1.08 1.08 3.57e-43
2.89 1.08 1 9.1477e-41
2.93 1.08 1 3.57e-43
2.96 1.08 1 3.57e-43
3.01 1.08 1 3.57e-43
3.04 1.08 1 3.57e-43
3.08 1.08 1 3.57e-43
3.09 1.08 1 3.57e-43
3.12 1.08 0.43 9.1477e-41
1.65 1.14 1.08 9.1477e-41
1.68 1.14 1.08 3.57e-43
1.69 1.14 1.08 3.57e-43
1.78 1.14 1.08 3.57e-43
1.83 1.14 1.08 3.57e-43
1.86 1.14 1.08 3.57e-43
1.91 1.14 1.08 3.57e-43
1.97 1.14 1.08 3.57e-43
2.02 1.14 1.08 3.57e-43
2.06 1.14 1.08 3.57e-43
2.11 1.14 1.08 3.57e-43
2.15 1.14 1.08 3.57e-43
2.21 1.14 1.08 3.57e-43
2.26 1.14 1.08 3.57e-43
2.3 1.14 1.08 3.57e-43
2.35 1.14 1.08 3.57e-43
2.4 1.14 1.08 3.57e-43
2.44 1.14 1.08 3.57e-43
2.49 1.14 1.08 3.57e-43
2.56 1.14 1.08 3.57e-43
2.6 1.14 1.08 3.57e-43
2.65 1.14 1.08 3.57e-43
2.69 1.14 1.08 3.57e-43
2.73 1.14 1.08 3.57e-43
2.75 1.14 1.08 3.57e-43
2.79 1.14 1.08 3.57e-43
2.83 1.14 1.08 3.57e-43
2.89 1.14 1.08 3.57e-43
2.93 1.14 1.08 3.57e-43
2.96 1.14 1.08 3.57e-43
3.01 1.14 1.08 3.57e-43
3.04 1.14 1.08 3.57e-43
3.08 1.14 1.08 3.57e-43
3.09 1.14 1.08 3.57e-43
3.14 1.14 0.5 9.1477e-41
2.29 1.2 0.96 3.57e-43
2.36 1.2 1.05 9.1477e-41
2.41 1.2 1.05 3.57e-43
2.44 1.2 1.05 3.57e-43
2.49 1.2 1.05 3.57e-43
2.56 1.2 1.05 3.57e-43
2.6 1.2 1.05 3.57e-43
2.65 1.2 1.05 3.57e-43
2.69 1.2 1.05 3.57e-43
2.73 1.2 1.05 3.57e-43
2.75 1.2 1.05 3.57e-43
2.79 1.2 1.05 3.57e-43
2.83 1.2 1.05 3.57e-43
2.89 1.2 1.05 3.57e-43
2.93 1.2 1.05 3.57e-43
2.96 1.2 1.05 3.57e-43
3.01 1.2 1.05 3.57e-43
3.04 1.2 0.92 9.1477e-41
3.09 1.2 0.92 3.57e-43
3.09 1.2 0.92 3.57e-43
3.15 1.2 0.55 9.1477e-41
2.15 1.26 0.46 3.57e-43
2.21 1.26 1.02 9.1477e-41
2.24 1.26 0.96 9.1477e-41
2.29 1.26 0.96 9.1477e-41
2.33 1.26 0.96 9.1477e-41
2.38 1.26 0.96 9.1477e-41
2.44 1.26 0.96 3.57e-43
2.49 1.26 0.96 3.57e-43
2.56 1.26 0.96 3.57e-43
2.6 1.26 0.96 3.57e-43
2.65 1.26 0.96 3.57e-43
2.69 1.26 0.96 3.57e-43
2.73 1.26 0.96 3.57e-43
2.75 1.26 0.96 3.57e-43
2.79 1.26 0.96 3.57e-43
2.83 1.26 0.96 3.57e-43
2.89 1.26 0.96 3.57e-43
2.93 1.26 0.96 3.57e-43
2.96 1.26 0.96 3.57e-43
3.01 1.26 0.96 3.57e-43
3.04 1.26 0.92 9.1477e-41
3.08 1.26 0.92 3.57e-43
3.09 1.26 0.92 3.57e-43
3.15 1.26 0.56 9.1477e-41
2.15 1.32 0.46 3.57e-43
2.21 1.32 1.01 9.1477e-41
2.24 1.32 0.98 9.1477e-41
2.29 1.32 0.97 9.1477e-41
2.34 1.32 0.97 9.1477e-41
2.38 1.32 0.97 9.1477e-41
2.44 1.32 0.97 3.57e-43
2.49 1.32 0.97 3.57e-43
2.56 1.32 0.97 3.57e-43
2.6 1.32 0.97 3.57e-43
2.65 1.32 0.97 3.57e-43
2.69 1.32 0.97 3.57e-43
2.73 1.32 0.97 3.57e-43
2.75 1.32 0.97 3.57e-43
2.79 1.32 0.97 3.57e-43
2.83 1.32 0.97 3.57e-43
2.89 1.32 0.97 3.57e-43
2.93 1.32 0.97 3.57e-43
2.96 1.32 0.97 3.57e-43
3.01 1.32 0.97 3.57e-43
3.04 1.32 0.92 9.1477e-41
3.08 1.32 0.89 9.1477e-41
3.12 1.32 0.89 3.57e-43
3.15 1.32 0.57 9.1477e-41
1.48 1.38 1.05 9.1477e-41
1.51 1.38 1.05 3.57e-43
1.01 1.38 1.05 3.57e-43
1.65 1.38 1.05 3.57e-43
1.68 1.38 1.05 3.57e-43
1.69 1.38 1.05 3.57e-43
1.78 1.38 1.05 3.57e-43
1.83 1.38 1.04 9.1477e-41
1.61 1.38 0.46 9.1477e-41
1.66 1.38 0.46 3.57e-43
1.97 1.38 0.46 3.57e-43
2.02 1.38 0.46 3.57e-43
2.06 1.38 0.46 3.57e-43
2.11 1.38 0.46 3.57e-43
2.15 1.38 0.46 3.57e-43
2.21 1.38 0.46 3.57e-43
2.24 1.38 0.46 3.57e-43
2.29 1.38 0.46 3.57e-43
2.34 1.38 0.46 3.57e-43
2.38 1.38 0.46 3.57e-43
2.44 1.38 0.46 3.57e-43
2.49 1.38 0.46 3.57e-43
2.56 1.38 0.46 3.57e-43
2.6 1.38 0.46 3.57e-43
2.65 1.38 0.46 3.57e-43
2.69 1.38 0.46 3.57e-43
2.73 1.38 0.46 3.57e-43
2.75 1.38 0.46 3.57e-43
2.79 1.38 0.46 3.57e-43
2.83 1.38 0.46 3.57e-43
2.89 1.38 0.46 3.57e-43
2.93 1.38 0.46 3.57e-43
2.96 1.38 0.46 3.57e-43
3.01 1.38 0.46 3.57e-43
3.04 1.38 0.92 9.1477e-41
3.08 1.38 0.92 3.57e-43
3.12 1.38 0.92 3.57e-43
3.01 1.38 0.92 3.57e-43
3.15 1.38 0.57 9.1477e-41
1.45 1.44 1 9.1477e-41
0.94 1.44 1 3.57e-43
1.01 1.44 1 3.57e-43
1.65 1.44 1 3.57e-43
1.68 1.44 1 3.57e-43
1.69 1.44 1 3.57e-43
1.78 1.44 1 3.57e-43
1.83 1.44 1.04 9.1477e-41
1.61 1.44 0.46 9.1477e-41
1.66 1.44 0.46 3.57e-43
1.97 1.44 0.46 3.57e-43
2.02 1.44 1.01 9.1477e-41
1.74 1.44 1.01 3.57e-43
2.11 1.44 1.01 3.57e-43
2.15 1.44 1.01 3.57e-43
2.21 1.44 1.01 3.57e-43
2.24 1.44 0.98 9.1477e-41
2.27 1.44 0.92 9.1477e-41
2.33 1.44 0.92 3.57e-43
2.38 1.44 0.92 3.57e-43
2.44 1.44 0.92 3.57e-43
2.49 1.44 0.92 3.57e-43
2.56 1.44 0.92 3.57e-43
2.6 1.44 0.92 3.57e-43
2.65 1.44 0.92 3.57e-43
2.69 1.44 0.92 3.57e-43
2.73 1.44 0.92 3.57e-43
2.75 1.44 0.92 3.57e-43
2.79 1.44 0.92 3.57e-43
2.83 1.44 0.92 3.57e-43
2.89 1.44 0.92 3.57e-43
2.93 1.44 0.92 3.57e-43
2.96 1.44 0.92 3.57e-43
3.01 1.44 0.92 3.57e-43
3.04 1.44 0.92 9.1477e-41
3.08 1.44 0.92 9.1477e-41
3.15 1.44 1.03 9.1477e-41
3.19 1.44 1.03 3.57e-43
3.15 1.44 0.57 9.1477e-41
1.83 1.5 1.35 3.57e-43
1.61 1.5 1.35 3.57e-43
1.66 1.5 0.46 3.57e-43
2.13 1.5 0.46 3.57e-43
2.02 1.5 0.46 3.57e-43
1.74 1.5 0.46 3.57e-43
2.11 1.5 0.46 3.57e-43
2.15 1.5 0.99 9.1477e-41
1.91 1.5 0.99 3.57e-43
2.24 1.5 0.99 3.57e-43
2.27 1.5 0.99 3.57e-43
2.33 1.5 0.99 3.57e-43
2.38 1.5 0.97 9.1477e-41
2.27 1.5 0.52 9.1477e-41
2.34 1.5 0.52 3.57e-43
2.56 1.5 0.52 3.57e-43
2.6 1.5 0.52 3.57e-43
2.65 1.5 0.52 3.57e-43
2.69 1.5 0.52 3.57e-43
2.73 1.5 0.52 3.57e-43
2.75 1.5 0.52 3.57e-43
2.79 1.5 0.52 3.57e-43
2.83 1.5 0.52 3.57e-43
2.89 1.5 0.52 3.57e-43
2.93 1.5 0.99 9.1477e-41
2.97 1.5 1 9.1477e-41
3 1.5 0.93 9.1477e-41
3.04 1.5 0.91 9.1477e-41
3.08 1.5 0.91 3.57e-43
3.15 1.5 1.03 9.1477e-41
3.19 1.5 1.03 9.1477e-41
3.23 1.5 1.02 9.1477e-41
3.27 1.5 1.02 9.1477e-41
1.83 1.56 1.35 3.57e-43
1.61 1.56 1.35 3.57e-43
1.66 1.56 0.46 9.1477e-41
2.13 1.56 0.46 3.57e-43
2.02 1.56 0.46 3.57e-43
1.74 1.56 0.46 3.57e-43
2.11 1.56 0.46 3.57e-43
2.15 1.56 0.46 3.57e-43
1.91 1.56 0.46 3.57e-43
2.24 1.56 0.46 3.57e-43
2.27 1.56 0.46 3.57e-43
2.33 1.56 0.46 3.57e-43
2.38 1.56 0.46 3.57e-43
2.27 1.56 0.46 3.57e-43
2.34 1.56 0.46 3.57e-43
2.56 1.56 0.46 3.57e-43
2.6 1.56 0.46 3.57e-43
2.65 1.56 0.46 3.57e-43
2.69 1.56 0.46 3.57e-43
2.73 1.56 0.46 3.57e-43
2.75 1.56 0.46 3.57e-43
2.79 1.56 0.46 3.57e-43
2.83 1.56 0.46 3.57e-43
2.89 1.56 1 9.1477e-41
2.87 1.56 0.78 9.1477e-41
2.9 1.56 0.72 9.1477e-41
2.95 1.56 0.71 9.1477e-41
3.04 1.56 0.92 9.1477e-41
3.08 1.56 0.92 3.57e-43
3.15 1.56 0.92 3.57e-43
3.19 1.56 0.92 3.57e-43
3.23 1.56 1.02 9.1477e-41
1.79 1.62 1.35 9.1477e-41
1.85 1.62 1.35 3.57e-43
1.69 1.62 1.35 3.57e-43
1.78 1.62 1.35 3.57e-43
1.83 1.62 1.35 3.57e-43
1.61 1.62 1.35 3.57e-43
1.66 1.62 1.35 3.57e-43
2.13 1.62 1.35 3.57e-43
2.02 1.62 1.35 3.57e-43
1.74 1.62 1.35 3.57e-43
2.11 1.62 1.35 3.57e-43
2.15 1.62 1.35 3.57e-43
1.91 1.62 1.35 3.57e-43
2.24 1.62 1.35 3.57e-43
2.27 1.62 1.35 3.57e-43
2.33 1.62 1.35 3.57e-43
2.38 1.62 1.35 3.57e-43
2.27 1.62 1.35 3.57e-43
2.34 1.62 1.35 3.57e-43
2.56 1.62 1.35 3.57e-43
2.6 1.62 1.35 3.57e-43
2.65 1.62 1.35 3.57e-43
2.69 1.62 1.35 3.57e-43
2.73 1.62 1.35 3.57e-43
2.75 1.62 1.35 3.57e-43
2.79 1.62 1.35 3.57e-43
2.83 1.62 1.35 3.57e-43
2.89 1.62 1 9.1477e-41
2.87 1.62 0.77 9.1477e-41
2.9 1.62 0.72 9.1477e-41
2.95 1.62 0.71 9.1477e-41
3.04 1.62 0.93 9.1477e-41
3.08 1.62 0.93 3.57e-43
3.15 1.62 0.93 3.57e-43
3.19 1.62 0.93 3.57e-43
3.23 1.62 1.02 9.1477e-41
2.83 1.68 0.97 3.57e-43
2.82 1.68 0.75 9.1477e-41
2.86 1.68 0.74 9.1477e-41
2.9 1.68 0.72 9.1477e-41
2.94 1.68 0.69 9.1477e-41
3.04 1.68 0.93 9.1477e-41
3.08 1.68 0.93 3.57e-43
3.15 1.68 0.93 3.57e-43
3.19 1.68 0.93 3.57e-43
3.23 1.68 1.02 9.1477e-41
2.68 1.74 1.45 3.57e-43
2.7 1.74 1.4 3.57e-43
2.65 1.74 1.08 9.1477e-41
2.79 1.74 1.39 9.1477e-41
2.82 1.74 1.38 9.1477e-41
2.86 1.74 1.38 3.57e-43
2.79 1.74 1.38 3.57e-43
2.83 1.74 0.97 9.1477e-41
2.88 1.74 0.98 9.1477e-41
2.9 1.74 0.89 9.1477e-41
2.9 1.74 0.71 9.1477e-41
2.95 1.74 0.71 9.1477e-41
3.04 1.74 0.93 9.1477e-41
3.08 1.74 0.93 3.57e-43
3.15 1.74 0.93 3.57e-43
3.19 1.74 0.93 3.57e-43
3.23 1.74 1.02 9.1477e-41
2.63 1.8 1.43 3.57e-43
2.68 1.8 1.45 3.57e-43
2.7 1.8 1.4 9.1477e-41
2.75 1.8 1.4 9.1477e-41
2.79 1.8 1.41 9.1477e-41
2.83 1.8 1.41 9.1477e-41
2.87 1.8 1.41 3.57e-43
2.79 1.8 1.41 3.57e-43
2.83 1.8 0.97 9.1477e-41
2.84 1.8 0.81 9.1477e-41
2.92 1.8 0.97 9.1477e-41
2.96 1.8 0.95 9.1477e-41
2.99 1.8 0.87 9.1477e-41
3.05 1.8 0.95 9.1477e-41
3.08 1.8 0.95 3.57e-43
3.15 1.8 0.95 3.57e-43
3.19 1.8 0.95 3.57e-43
3.23 1.8 1.02 9.1477e-41
2.27 1.86 0.52 3.57e-43
2.63 1.86 1.43 9.1477e-41
2.68 1.86 1.45 9.1477e-41
2.72 1.86 1.43 9.1477e-41
2.75 1.86 1.42 9.1477e-41
2.79 1.86 1.42 9.1477e-41
2.83 1.86 1.42 9.1477e-41
2.87 1.86 1.42 3.57e-43
2.79 1.86 0.98 9.1477e-41
2.76 1.86 0.69 9.1477e-41
2.81 1.86 0.71 9.1477e-41
2.9 1.86 0.9 9.1477e-41
2.97 1.86 0.99 9.1477e-41
3.01 1.86 0.98 9.1477e-41
3.05 1.86 0.95 9.1477e-41
3.09 1.86 0.95 3.57e-43
3.15 1.86 0.95 3.57e-43
3.19 1.86 0.95 3.57e-43
3.23 1.86 1.02 9.1477e-41
1.8 1.92 1.44 9.1477e-41
1.83 1.92 1.44 3.57e-43
1.85 1.92 1.44 3.57e-43
1.69 1.92 1.44 3.57e-43
1.78 1.92 1.44 3.57e-43
1.83 1.92 1.44 3.57e-43
1.61 1.92 1.44 3.57e-43
1.66 1.92 1.44 3.57e-43
2.13 1.92 1.44 3.57e-43
2.02 1.92 1.44 3.57e-43
1.74 1.92 1.44 3.57e-43
2.11 1.92 1.44 3.57e-43
2.15 1.92 1.44 3.57e-43
1.91 1.92 1.44 3.57e-43
2.24 1.92 0.98 9.1477e-41
2.48 1.92 0.98 3.57e-43
2.33 1.92 0.98 3.57e-43
2.38 1.92 0.98 3.57e-43
2.27 1.92 0.52 9.1477e-41
2.64 1.92 1.45 9.1477e-41
2.68 1.92 1.45 9.1477e-41
2.72 1.92 1.44 9.1477e-41
2.76 1.92 1.45 9.1477e-41
2.8 1.92 1.43 9.1477e-41
2.83 1.92 1.42 9.1477e-41
2.87 1.92 1.42 3.57e-43
2.79 1.92 0.98 9.1477e-41
2.77 1.92 0.73 9.1477e-41
2.83 1.92 0.8 9.1477e-41
2.92 1.92 0.98 9.1477e-41
2.97 1.92 1.01 9.1477e-41
3.01 1.92 0.98 9.1477e-41
3.05 1.92 0.97 9.1477e-41
3.09 1.92 0.97 3.57e-43
3.15 1.92 0.97 3.57e-43
3.19 1.92 0.97 3.57e-43
3.23 1.92 1.02 9.1477e-41
1.81 1.98 1.47 9.1477e-41
1.84 1.98 1.47 3.57e-43
1.85 1.98 1.47 3.57e-43
1.69 1.98 1.47 3.57e-43
1.78 1.98 1.47 3.57e-43
1.83 1.98 1.47 3.57e-43
1.61 1.98 1.47 3.57e-43
1.66 1.98 1.47 3.57e-43
2.13 1.98 1.47 3.57e-43
2.02 1.98 1.47 3.57e-43
1.74 1.98 1.47 3.57e-43
2.11 1.98 1.47 3.57e-43
2.15 1.98 1.47 3.57e-43
1.91 1.98 1.47 3.57e-43
2.24 1.98 1.47 3.57e-43
2.48 1.98 1.47 3.57e-43
2.33 1.98 1.47 3.57e-43
2.38 1.98 0.97 9.1477e-41
2.61 1.98 1.47 9.1477e-41
2.64 1.98 1.46 9.1477e-41
2.68 1.98 1.45 9.1477e-41
2.73 1.98 1.46 9.1477e-41
2.76 1.98 1.44 9.1477e-41
2.8 1.98 1.43 9.1477e-41
2.83 1.98 1.42 9.1477e-41
2.87 1.98 1.42 3.57e-43
2.79 1.98 0.98 9.1477e-41
2.86 1.98 1.06 9.1477e-41
2.9 1.98 1.04 9.1477e-41
2.94 1.98 1.03 9.1477e-41
2.97 1.98 0.99 9.1477e-41
2.99 1.98 0.89 9.1477e-41
3.05 1.98 0.95 9.1477e-41
3.09 1.98 0.95 3.57e-43
3.15 1.98 0.95 3.57e-43
3.19 1.98 1.03 9.1477e-41
3.18 1.98 0.73 9.1477e-41
1.8 2.04 1.46 9.1477e-41
1.85 2.04 1.46 3.57e-43
1.85 2.04 1.46 3.57e-43
1.69 2.04 1.46 3.57e-43
1.78 2.04 1.46 3.57e-43
1.83 2.04 1.46 3.57e-43
1.61 2.04 1.46 3.57e-43
1.66 2.04 1.46 3.57e-43
2.13 2.04 1.46 3.57e-43
2.02 2.04 1.46 3.57e-43
1.74 2.04 1.46 3.57e-43
2.11 2.04 1.46 3.57e-43
2.15 2.04 1.46 3.57e-43
1.91 2.04 1.46 3.57e-43
2.24 2.04 1.46 3.57e-43
2.48 2.04 1.46 3.57e-43
2.33 2.04 1.46 3.57e-43
2.38 2.04 0.97 9.1477e-41
2.61 2.04 0.97 3.57e-43
2.64 2.04 1.46 9.1477e-41
2.68 2.04 1.45 9.1477e-41
2.72 2.04 1.45 9.1477e-41
2.76 2.04 1.44 9.1477e-41
2.8 2.04 1.44 9.1477e-41
2.84 2.04 1.43 9.1477e-41
2.87 2.04 1.42 9.1477e-41
2.86 2.04 1.22 9.1477e-41
2.86 2.04 1.07 9.1477e-41
2.9 2.04 1.04 9.1477e-41
2.93 2.04 1.01 9.1477e-41
2.9 2.04 1.01 3.57e-43
2.99 2.04 0.89 9.1477e-41
3.05 2.04 0.96 9.1477e-41
3.09 2.04 0.96 3.57e-43
3.15 2.04 1.03 9.1477e-41
3.15 2.04 0.82 9.1477e-41
3.19 2.04 0.78 9.1477e-41
1.8 2.1 1.46 9.1477e-41
1.85 2.1 1.46 3.57e-43
1.85 2.1 1.46 3.57e-43
1.69 2.1 1.46 3.57e-43
1.78 2.1 1.46 3.57e-43
1.83 2.1 1.46 3.57e-43
1.61 2.1 1.46 3.57e-43
1.66 2.1 1.46 3.57e-43
2.13 2.1 1.46 3.57e-43
2.02 2.1 1.46 3.57e-43
1.74 2.1 1.46 3.57e-43
2.11 2.1 1.46 3.57e-43
2.15 2.1 1.46 3.57e-43
1.91 2.1 1.46 3.57e-43
2.24 2.1 1.46 3.57e-43
2.48 2.1 1.46 3.57e-43
2.33 2.1 0.94 9.1477e-41
2.57 2.1 1.47 9.1477e-41
2.61 2.1 1.47 9.1477e-41
2.65 2.1 1.47 9.1477e-41
2.69 2.1 1.47 9.1477e-41
2.73 2.1 1.47 9.1477e-41
2.76 2.1 1.45 9.1477e-41
2.8 2.1 1.45 9.1477e-41
2.84 2.1 1.45 3.57e-43
2.87 2.1 1.42 9.1477e-41
2.86 2.1 1.23 9.1477e-41
2.85 2.1 1.04 9.1477e-41
2.87 2.1 0.94 9.1477e-41
2.96 2.1 1.13 9.1477e-41
3.01 2.1 1.14 9.1477e-41
3.04 2.1 1.14 3.57e-43
3.05 2.1 1.14 3.57e-43
3.09 2.1 1.14 3.57e-43
3.15 2.1 1.14 3.57e-43
3.15 2.1 1.14 3.57e-43
3.19 2.1 0.78 9.1477e-41
1.8 2.16 1.45 9.1477e-41
1.85 2.16 1.45 3.57e-43
1.85 2.16 1.45 3.57e-43
1.69 2.16 1.45 3.57e-43
1.78 2.16 1.45 3.57e-43
1.83 2.16 1.45 3.57e-43
1.61 2.16 1.45 3.57e-43
1.66 2.16 1.45 3.57e-43
2.13 2.16 1.45 3.57e-43
2.02 2.16 1.45 3.57e-43
1.74 2.16 1.45 3.57e-43
2.11 2.16 1.45 3.57e-43
2.15 2.16 1.45 3.57e-43
1.91 2.16 1.45 3.57e-43
2.24 2.16 1.45 3.57e-43
2.48 2.16 1.45 3.57e-43
2.33 2.16 0.94 9.1477e-41
2.56 2.16 1.47 9.1477e-41
2.61 2.16 1.47 9.1477e-41
2.65 2.16 1.48 9.1477e-41
2.69 2.16 1.47 9.1477e-41
2.73 2.16 1.47 9.1477e-41
2.77 2.16 1.46 9.1477e-41
2.8 2.16 1.44 9.1477e-41
2.84 2.16 1.45 9.1477e-41
2.87 2.16 1.42 9.1477e-41
2.9 2.16 1.38 9.1477e-41
2.93 2.16 1.38 3.57e-43
2.87 2.16 1.38 3.57e-43
2.96 2.16 1.38 3.57e-43
3.01 2.16 1.38 3.57e-43
3.04 2.16 1.38 3.57e-43
3.05 2.16 1.38 3.57e-43
3.09 2.16 1.38 3.57e-43
3.15 2.16 1.38 3.57e-43
3.15 2.16 1.38 3.57e-43
3.19 2.16 0.78 9.1477e-41
1.81 2.22 1.47 9.1477e-41
1.85 2.22 1.47 3.57e-43
1.85 2.22 1.47 3.57e-43
1.69 2.22 1.47 3.57e-43
1.78 2.22 1.47 3.57e-43
1.83 2.22 1.47 3.57e-43
1.61 2.22 1.47 3.57e-43
1.66 2.22 1.47 3.57e-43
2.13 2.22 1.47 3.57e-43
2.02 2.22 1.47 3.57e-43
1.74 2.22 1.47 3.57e-43
2.11 2.22 1.47 3.57e-43
2.15 2.22 1.47 3.57e-43
2.44 2.22 1.47 3.57e-43
2.48 2.22 1.46 9.1477e-41
2.53 2.22 1.49 9.1477e-41
2.57 2.22 1.47 9.1477e-41
2.61 2.22 1.47 9.1477e-41
2.65 2.22 1.48 9.1477e-41
2.69 2.22 1.46 9.1477e-41
2.73 2.22 1.46 9.1477e-41
2.77 2.22 1.47 9.1477e-41
2.8 2.22 1.45 9.1477e-41
2.84 2.22 1.43 9.1477e-41
2.87 2.22 1.43 3.57e-43
2.9 2.22 1.43 3.57e-43
2.93 2.22 1.43 3.57e-43
2.87 2.22 1.43 3.57e-43
2.96 2.22 1.43 3.57e-43
3.01 2.22 1.43 3.57e-43
3.04 2.22 1.43 3.57e-43
3.05 2.22 0.96 9.1477e-41
3.09 2.22 0.96 3.57e-43
3.15 2.22 0.96 3.57e-43
3.15 2.22 0.96 3.57e-43
3.19 2.22 0.78 9.1477e-41
1.8 2.28 1.44 9.1477e-41
1.86 2.28 1.44 3.57e-43
1.85 2.28 1.44 3.57e-43
1.69 2.28 1.44 3.57e-43
1.78 2.28 1.44 3.57e-43
1.83 2.28 1.44 3.57e-43
1.61 2.28 1.44 3.57e-43
1.66 2.28 1.44 3.57e-43
2.13 2.28 1.44 3.57e-43
2.02 2.28 1.44 3.57e-43
1.74 2.28 1.44 3.57e-43
2.11 2.28 1.44 3.57e-43
2.15 2.28 1.44 3.57e-43
1.91 2.28 1.44 3.57e-43
2.44 2.28 1.48 9.1477e-41
2.48 2.28 1.48 3.57e-43
2.53 2.28 1.49 9.1477e-41
2.57 2.28 1.47 9.1477e-41
2.61 2.28 1.48 9.1477e-41
2.65 2.28 1.47 9.1477e-41
2.69 2.28 1.46 9.1477e-41
2.73 2.28 1.47 9.1477e-41
2.77 2.28 1.46 9.1477e-41
2.8 2.28 1.45 9.1477e-41
2.84 2.28 1.45 3.57e-43
2.87 2.28 1.45 3.57e-43
2.9 2.28 1.45 3.57e-43
2.93 2.28 1.45 3.57e-43
2.87 2.28 1.45 3.57e-43
2.96 2.28 1.45 3.57e-43
3.01 2.28 1.45 3.57e-43
3.04 2.28 1.45 3.57e-43
3.05 2.28 0.96 9.1477e-41
3.09 2.28 0.96 3.57e-43
3.15 2.28 0.96 3.57e-43
3.15 2.28 0.96 3.57e-43
3.19 2.28 0.78 9.1477e-41
1.8 2.34 1.44 9.1477e-41
1.85 2.34 1.44 3.57e-43
1.85 2.34 1.44 3.57e-43
1.69 2.34 1.44 3.57e-43
1.78 2.34 1.44 3.57e-43
1.83 2.34 1.44 3.57e-43
1.61 2.34 1.44 3.57e-43
1.66 2.34 1.44 3.57e-43
2.13 2.34 1.44 3.57e-43
2.02 2.34 1.44 3.57e-43
1.74 2.34 1.44 3.57e-43
2.11 2.34 1.44 3.57e-43
2.15 2.34 1.44 3.57e-43
1.91 2.34 1.44 3.57e-43
2.44 2.34 1.44 3.57e-43
2.48 2.34 1.44 3.57e-43
2.53 2.34 1.49 9.1477e-41
2.57 2.34 1.48 9.1477e-41
2.6 2.34 1.46 9.1477e-41
2.65 2.34 1.47 9.1477e-41
2.69 2.34 1.46 9.1477e-41
2.73 2.34 1.46 9.1477e-41
2.76 2.34 1.45 9.1477e-41
2.8 2.34 1.44 9.1477e-41
2.84 2.34 1.44 3.57e-43
2.87 2.34 1.44 3.57e-43
2.9 2.34 1.44 3.57e-43
2.93 2.34 1.44 3.57e-43
2.87 2.34 1.44 3.57e-43
2.96 2.34 1.44 3.57e-43
3.01 2.34 1.44 3.57e-43
3.04 2.34 1.09 9.1477e-41
3.05 2.34 0.98 9.1477e-41
3.09 2.34 0.98 3.57e-43
3.15 2.34 0.98 3.57e-43
3.15 2.34 0.98 3.57e-43
3.19 2.34 0.78 9.1477e-41
1.78 2.4 1.41 9.1477e-41
1.85 2.4 1.41 3.57e-43
1.85 2.4 1.41 3.57e-43
1.69 2.4 1.41 3.57e-43
1.78 2.4 1.41 3.57e-43
1.83 2.4 1.41 3.57e-43
1.61 2.4 1.41 3.57e-43
1.66 2.4 1.41 3.57e-43
2.13 2.4 1.41 3.57e-43
2.02 2.4 1.41 3.57e-43
1.74 2.4 1.41 3.57e-43
2.11 2.4 1.41 3.57e-43
2.15 2.4 1.41 3.57e-43
1.91 2.4 1.41 3.57e-43
2.44 2.4 1.41 3.57e-43
2.48 2.4 1.41 3.57e-43
2.53 2.4 1.49 9.1477e-41
2.57 2.4 1.47 9.1477e-41
2.61 2.4 1.47 9.1477e-41
2.65 2.4 1.48 9.1477e-41
2.69 2.4 1.46 9.1477e-41
2.73 2.4 1.46 9.1477e-41
2.76 2.4 1.45 9.1477e-41
2.8 2.4 1.45 9.1477e-41
2.84 2.4 1.45 3.57e-43
2.87 2.4 1.45 3.57e-43
2.9 2.4 1.45 3.57e-43
2.93 2.4 1.45 3.57e-43
2.87 2.4 1.45 3.57e-43
2.96 2.4 1.45 3.57e-43
3.01 2.4 1.45 3.57e-43
3.04 2.4 1.09 9.1477e-41
3.06 2.4 0.99 9.1477e-41
3.09 2.4 0.99 3.57e-43
3.15 2.4 0.99 3.57e-43
3.15 2.4 0.99 3.57e-43
3.19 2.4 0.78 9.1477e-41
1.78 2.46 1.41 9.1477e-41
1.86 2.46 1.41 3.57e-43
1.85 2.46 1.41 3.57e-43
1.69 2.46 1.41 3.57e-43
1.78 2.46 1.41 3.57e-43
1.83 2.46 1.41 3.57e-43
1.61 2.46 1.41 3.57e-43
1.66 2.46 1.41 3.57e-43
2.13 2.46 1.41 3.57e-43
2.02 2.46 1.41 3.57e-43
1.74 2.46 1.41 3.57e-43
2.11 2.46 1.41 3.57e-43
2.15 2.46 1.41 3.57e-43
1.91 2.46 1.41 3.57e-43
2.44 2.46 1.41 3.57e-43
2.48 2.46 1.41 3.57e-43
2.53 2.46 1.49 9.1477e-41
2.56 2.46 1.47 9.1477e-41
2.61 2.46 1.47 9.1477e-41
2.65 2.46 1.47 9.1477e-41
2.69 2.46 1.46 9.1477e-41
2.73 2.46 1.46 9.1477e-41
2.76 2.46 1.45 9.1477e-41
2.8 2.46 1.45 3.57e-43
2.84 2.46 1.45 3.57e-43
2.87 2.46 1.45 3.57e-43
2.9 2.46 1.45 3.57e-43
2.93 2.46 1.45 3.57e-43
2.87 2.46 1.45 3.57e-43
2.96 2.46 1.45 3.57e-43
3.01 2.46 1.45 3.57e-43
3.04 2.46 1.09 9.1477e-41
3.06 2.46 0.99 9.1477e-41
3.09 2.46 0.99 3.57e-43
3.15 2.46 0.99 3.57e-43
3.15 2.46 0.99 3.57e-43
3.19 2.46 0.78 9.1477e-41
1.78 2.52 1.41 9.1477e-41
1.85 2.52 1.41 3.57e-43
1.85 2.52 1.41 3.57e-43
1.69 2.52 1.41 3.57e-43
1.78 2.52 1.41 3.57e-43
1.83 2.52 1.41 3.57e-43
1.61 2.52 1.41 3.57e-43
1.66 2.52 1.41 3.57e-43
2.13 2.52 1.41 3.57e-43
2.02 2.52 1.41 3.57e-43
1.74 2.52 1.41 3.57e-43
2.11 2.52 1.41 3.57e-43
2.15 2.52 1.41 3.57e-43
1.91 2.52 1.41 3.57e-43
2.44 2.52 1.41 3.57e-43
2.48 2.52 1.41 3.57e-43
2.53 2.52 1.49 9.1477e-41
2.57 2.52 1.47 9.1477e-41
2.6 2.52 1.46 9.1477e-41
2.65 2.52 1.47 9.1477e-41
2.68 2.52 1.45 9.1477e-41
2.73 2.52 1.46 9.1477e-41
2.76 2.52 1.45 9.1477e-41
2.8 2.52 1.45 3.57e-43
2.84 2.52 1.44 9.1477e-41
2.85 2.52 1.44 3.57e-43
2.9 2.52 1.44 3.57e-43
2.93 2.52 1.44 3.57e-43
2.87 2.52 1.44 3.57e-43
2.96 2.52 1.44 3.57e-43
3.01 2.52 1.44 3.57e-43
3.04 2.52 1.09 9.1477e-41
3.06 2.52 1.09 3.57e-43
3.09 2.52 1.09 3.57e-43
3.15 2.52 1.09 3.57e-43
3.15 2.52 1.09 3.57e-43
3.19 2.52 0.78 9.1477e-41
1.78 2.58 1.41 9.1477e-41
1.85 2.58 1.41 3.57e-43
1.85 2.58 1.41 3.57e-43
1.69 2.58 1.41 3.57e-43
1.78 2.58 1.41 3.57e-43
1.83 2.58 1.41 3.57e-43
1.61 2.58 1.41 3.57e-43
1.66 2.58 1.41 3.57e-43
2.13 2.58 1.41 3.57e-43
2.02 2.58 1.41 3.57e-43
1.74 2.58 1.41 3.57e-43
2.11 2.58 1.41 3.57e-43
2.15 2.58 1.41 3.57e-43
1.91 2.58 1.41 3.57e-43
2.44 2.58 1.41 3.57e-43
2.48 2.58 1.47 9.1477e-41
2.52 2.58 1.47 3.57e-43
2.57 2.58 1.47 9.1477e-41
2.61 2.58 1.47 9.1477e-41
2.64 2.58 1.46 9.1477e-41
2.68 2.58 1.45 9.1477e-41
2.72 2.58 1.45 9.1477e-41
2.76 2.58 1.45 9.1477e-41
2.8 2.58 1.43 9.1477e-41
2.84 2.58 1.44 9.1477e-41
2.87 2.58 1.44 3.57e-43
2.9 2.58 1.44 3.57e-43
2.93 2.58 1.44 3.57e-43
2.87 2.58 1.44 3.57e-43
2.96 2.58 1.44 3.57e-43
3.01 2.58 1.44 3.57e-43
3.04 2.58 1.09 9.1477e-41
3.06 2.58 1.09 3.57e-43
3.09 2.58 1.09 3.57e-43
3.15 2.58 1.09 3.57e-43
3.15 2.58 1.09 3.57e-43
3.19 2.58 0.78 9.1477e-41
1.78 2.64 1.41 9.1477e-41
1.85 2.64 1.41 3.57e-43
1.85 2.64 1.41 3.57e-43
1.69 2.64 1.41 3.57e-43
1.78 2.64 1.41 3.57e-43
1.83 2.64 1.41 3.57e-43
1.61 2.64 1.41 3.57e-43
1.66 2.64 1.41 3.57e-43
2.13 2.64 1.41 3.57e-43
2.02 2.64 1.41 3.57e-43
1.74 2.64 1.41 3.57e-43
2.11 2.64 1.41 3.57e-43
2.15 2.64 1.41 3.57e-43
1.91 2.64 1.41 3.57e-43
2.44 2.64 1.41 3.57e-43
2.48 2.64 1.41 3.57e-43
2.52 2.64 1.47 9.1477e-41
2.56 2.64 1.47 9.1477e-41
2.6 2.64 1.45 9.1477e-41
2.64 2.64 1.46 9.1477e-41
2.68 2.64 1.45 9.1477e-41
2.72 2.64 1.44 9.1477e-41
2.76 2.64 1.44 9.1477e-41
2.8 2.64 1.43 9.1477e-41
2.84 2.64 1.43 3.57e-43
2.87 2.64 1.43 3.57e-43
2.9 2.64 1.43 3.57e-43
2.93 2.64 1.43 3.57e-43
2.87 2.64 1.43 3.57e-43
2.96 2.64 1.43 3.57e-43
3.01 2.64 1.43 3.57e-43
3.04 2.64 1.09 9.1477e-41
3.06 2.64 1.09 3.57e-43
3.09 2.64 1.09 3.57e-43
3.15 2.64 1.09 3.57e-43
3.15 2.64 0.82 9.1477e-41
3.14 2.64 0.53 9.1477e-41
1.78 2.7 1.41 9.1477e-41
1.84 2.7 1.41 3.57e-43
1.85 2.7 1.41 3.57e-43
1.69 2.7 1.41 3.57e-43
1.78 2.7 1.41 3.57e-43
1.83 2.7 1.41 3.57e-43
1.61 2.7 1.41 3.57e-43
1.66 2.7 1.41 3.57e-43
2.13 2.7 1.41 3.57e-43
2.02 2.7 1.41 3.57e-43
1.74 2.7 1.41 3.57e-43
2.11 2.7 1.41 3.57e-43
2.15 2.7 1.41 3.57e-43
1.91 2.7 1.41 3.57e-43
2.44 2.7 1.41 3.57e-43
2.48 2.7 1.41 3.57e-43
2.52 2.7 1.47 9.1477e-41
2.56 2.7 1.46 9.1477e-41
2.6 2.7 1.44 9.1477e-41
2.64 2.7 1.45 9.1477e-41
2.68 2.7 1.44 9.1477e-41
2.72 2.7 1.44 9.1477e-41
2.76 2.7 1.44 9.1477e-41
2.8 2.7 1.44 9.1477e-41
2.83 2.7 1.44 3.57e-43
2.87 2.7 1.44 3.57e-43
2.9 2.7 1.44 3.57e-43
2.93 2.7 1.44 3.57e-43
2.87 2.7 1.44 3.57e-43
2.96 2.7 1.44 3.57e-43
3.01 2.7 1.44 3.57e-43
3.04 2.7 1.09 9.1477e-41
3.06 2.7 1.09 3.57e-43
3.09 2.7 1.09 3.57e-43
3.15 2.7 1.09 3.57e-43
3.15 2.7 0.82 9.1477e-41
3.14 2.7 0.5 9.1477e-41
1.78 2.76 1.41 9.1477e-41
1.84 2.76 1.41 3.57e-43
1.85 2.76 1.41 3.57e-43
1.69 2.76 1.41 3.57e-43
1.78 2.76 1.41 3.57e-43
1.83 2.76 1.41 3.57e-43
1.61 2.76 1.41 3.57e-43
1.66 2.76 1.41 3.57e-43
2.13 2.76 1.41 3.57e-43
2.02 2.76 1.41 3.57e-43
1.74 2.76 1.41 3.57e-43
2.11 2.76 1.41 3.57e-43
2.15 2.76 1.41 3.57e-43
1.91 2.76 1.41 3.57e-43
2.44 2.76 1.41 3.57e-43
2.48 2.76 1.41 3.57e-43
2.52 2.76 1.41 3.57e-43
2.56 2.76 1.46 9.1477e-41
2.6 2.76 1.45 9.1477e-41
2.64 2.76 1.45 9.1477e-41
2.68 2.76 1.45 9.1477e-41
2.72 2.76 1.43 9.1477e-41
2.76 2.76 1.43 9.1477e-41
2.79 2.76 1.42 9.1477e-41
2.83 2.76 1.42 3.57e-43
2.87 2.76 1.42 3.57e-43
2.9 2.76 1.42 3.57e-43
2.93 2.76 1.42 3.57e-43
2.87 2.76 1.42 3.57e-43
2.96 2.76 1.42 3.57e-43
3.01 2.76 1.42 3.57e-43
3.04 2.76 1.42 3.57e-43
3.06 2.76 1.42 3.57e-43
3.09 2.76 1.42 3.57e-43
3.15 2.76 1.42 3.57e-43
3.15 2.76 0.82 9.1477e-41
3.12 2.76 0.41 9.1477e-41
1.83 2.82 1.42 9.1477e-41
1.88 2.82 1.42 3.57e-43
1.69 2.82 1.42 3.57e-43
1.78 2.82 1.42 3.57e-43
1.83 2.82 1.42 3.57e-43
1.61 2.82 1.42 3.57e-43
1.66 2.82 1.42 3.57e-43
2.13 2.82 1.42 3.57e-43
2.02 2.82 1.42 3.57e-43
2.31 2.82 1.48 9.1477e-41
2.35 2.82 1.48 3.57e-43
1.91 2.82 1.48 3.57e-43
2.44 2.82 1.48 3.57e-43
2.48 2.82 1.48 3.57e-43
2.52 2.82 1.48 3.57e-43
2.56 2.82 1.46 9.1477e-41
2.59 2.82 1.43 9.1477e-41
2.63 2.82 1.43 9.1477e-41
2.67 2.82 1.42 9.1477e-41
2.71 2.82 1.41 9.1477e-41
2.76 2.82 1.43 9.1477e-41
2.79 2.82 1.42 9.1477e-41
2.83 2.82 1.42 3.57e-43
2.87 2.82 1.42 3.57e-43
2.9 2.82 1.42 3.57e-43
2.93 2.82 1.42 3.57e-43
2.87 2.82 1.42 3.57e-43
2.96 2.82 1.42 3.57e-43
3.01 2.82 1.42 3.57e-43
3.04 2.82 1.42 3.57e-43
3.06 2.82 1.42 3.57e-43
3.09 2.82 1.42 3.57e-43
3.15 2.82 1.03 9.1477e-41
3.16 2.82 1.03 3.57e-43
3.12 2.82 0.41 9.1477e-41
1.82 2.88 1.4 9.1477e-41
1.87 2.88 1.4 3.57e-43
1.69 2.88 1.4 3.57e-43
1.78 2.88 1.4 3.57e-43
1.83 2.88 1.4 3.57e-43
1.61 2.88 1.4 3.57e-43
1.66 2.88 1.4 3.57e-43
2.13 2.88 1.4 3.57e-43
2.02 2.88 1.4 3.57e-43
2.31 2.88 1.4 3.57e-43
2.35 2.88 1.4 3.57e-43
1.91 2.88 1.4 3.57e-43
2.44 2.88 1.4 3.57e-43
2.48 2.88 1.4 3.57e-43
2.52 2.88 1.4 3.57e-43
2.56 2.88 1.46 9.1477e-41
2.59 2.88 1.46 3.57e-43
2.63 2.88 1.43 9.1477e-41
2.67 2.88 1.43 9.1477e-41
2.71 2.88 1.41 9.1477e-41
2.75 2.88 1.41 9.1477e-41
2.79 2.88 1.4 9.1477e-41
2.83 2.88 1.4 3.57e-43
2.87 2.88 1.4 3.57e-43
2.9 2.88 1.4 3.57e-43
2.93 2.88 1.4 3.57e-43
2.87 2.88 1.4 3.57e-43
2.96 2.88 1.4 3.57e-43
3.01 2.88 1.4 3.57e-43
3.04 2.88 1.4 3.57e-43
3.06 2.88 1.4 3.57e-43
3.09 2.88 1.4 3.57e-43
3.15 2.88 1.4 3.57e-43
3.16 2.88 0.85 9.1477e-41
3.12 2.88 0.42 9.1477e-41
1.82 2.94 1.4 9.1477e-41
1.87 2.94 1.4 3.57e-43
1.69 2.94 1.4 3.57e-43
1.78 2.94 1.4 3.57e-43
1.83 2.94 1.4 3.57e-43
1.61 2.94 1.4 3.57e-43
1.66 2.94 1.4 3.57e-43
2.13 2.94 1.4 3.57e-43
2.02 2.94 1.4 3.57e-43
1.74 2.94 1.4 3.57e-43
2.31 2.94 1.4 3.57e-43
2.35 2.94 1.4 3.57e-43
1.91 2.94 1.4 3.57e-43
2.44 2.94 1.4 3.57e-43
2.48 2.94 1.4 3.57e-43
2.52 2.94 1.4 3.57e-43
2.56 2.94 1.4 3.57e-43
2.59 2.94 1.42 9.1477e-41
2.63 2.94 1.41 9.1477e-41
2.67 2.94 1.41 9.1477e-41
2.71 2.94 1.41 9.1477e-41
2.75 2.94 1.4 9.1477e-41
2.79 2.94 1.39 9.1477e-41
2.82 2.94 1.39 3.57e-43
2.87 2.94 1.39 3.57e-43
2.9 2.94 1.39 3.57e-43
2.93 2.94 1.39 3.57e-43
2.87 2.94 1.39 3.57e-43
2.96 2.94 1.39 3.57e-43
3.01 2.94 1.39 3.57e-43
3.04 2.94 1.39 3.57e-43
3.06 2.94 1.39 3.57e-43
3.09 2.94 1.39 3.57e-43
3.15 2.94 1.39 3.57e-43
3.16 2.94 0.85 9.1477e-41
1.82 3 1.04 3.57e-43
2.05 3 1.4 9.1477e-41
2.1 3 1.4 3.57e-43
2.13 3 1.4 3.57e-43
2.02 3 1.4 3.57e-43
2.28 3 1.39 9.1477e-41
2.32 3 1.4 9.1477e-41
2.36 3 1.4 3.57e-43
2.44 3 1.48 9.1477e-41
2.46 3 1.41 9.1477e-41
2.5 3 1.4 9.1477e-41
2.54 3 1.39 9.1477e-41
2.58 3 1.4 9.1477e-41
2.62 3 1.39 9.1477e-41
2.66 3 1.4 9.1477e-41
2.7 3 1.39 9.1477e-41
2.74 3 1.38 9.1477e-41
2.79 3 1.39 9.1477e-41
2.82 3 1.39 3.57e-43
2.87 3 1.39 3.57e-43
2.9 3 1.39 3.57e-43
2.93 3 1.39 3.57e-43
2.87 3 1.39 3.57e-43
2.96 3 1.39 3.57e-43
3.01 3 1.39 3.57e-43
3.04 3 1.39 3.57e-43
3.06 3 1.39 3.57e-43
3.09 3 1.39 3.57e-43
3.15 3 1.39 3.57e-43
3.16 3 0.85 9.1477e-41
2.54 3.06 1.48 3.57e-43
2.58 3.06 1.4 9.1477e-41
2.62 3.06 1.39 9.1477e-41
2.66 3.06 1.4 9.1477e-41
2.7 3.06 1.39 9.1477e-41
2.74 3.06 1.38 9.1477e-41
2.78 3.06 1.38 9.1477e-41
2.81 3.06 1.38 3.57e-43
2.87 3.06 1.38 3.57e-43
2.9 3.06 1.38 3.57e-43
2.93 3.06 1.38 3.57e-43
2.87 3.06 1.38 3.57e-43
2.96 3.06 1.38 3.57e-43
3.01 3.06 1.38 3.57e-43
3.04 3.06 1.38 3.57e-43
3.06 3.06 1.38 3.57e-43
3.09 3.06 1.38 3.57e-43
3.15 3.06 1.38 3.57e-43
3.16 3.06 0.85 9.1477e-41
2.02 3.12 1.4 3.57e-43
2.09 3.12 1.27 9.1477e-41
2.15 3.12 1.31 9.1477e-41
2.19 3.12 1.3 9.1477e-41
2.24 3.12 1.3 9.1477e-41
2.29 3.12 1.3 3.57e-43
2.36 3.12 1.3 3.57e-43
2.44 3.12 1.48 9.1477e-41
2.42 3.12 1.48 3.57e-43
2.5 3.12 1.48 3.57e-43
2.54 3.12 1.48 3.57e-43
2.58 3.12 1.48 3.57e-43
2.62 3.12 1.48 3.57e-43
2.66 3.12 1.48 3.57e-43
2.7 3.12 1.48 3.57e-43
2.74 3.12 1.48 3.57e-43
2.78 3.12 1.48 3.57e-43
2.81 3.12 1.48 3.57e-43
2.87 3.12 1.48 3.57e-43
2.9 3.12 1.48 3.57e-43
2.93 3.12 1.48 3.57e-43
2.87 3.12 1.48 3.57e-43
2.96 3.12 1.48 3.57e-43
3.01 3.12 1.48 3.57e-43
3.04 3.12 1.48 3.57e-43
3.06 3.12 1.48 3.57e-43
3.09 3.12 1.48 3.57e-43
3.15 3.12 1.48 3.57e-43
3.16 3.12 0.85 9.1477e-41
3.12 3.12 0.4 9.1477e-41
1.82 3.18 1.4 3.57e-43
2.02 3.18 1.4 3.57e-43
2.09 3.18 1.4 3.57e-43
2.15 3.18 1.4 3.57e-43
2.19 3.18 1.3 9.1477e-41
2.22 3.18 1.26 9.1477e-41
2.26 3.18 1.24 9.1477e-41
2.32 3.18 1.27 9.1477e-41
2.36 3.18 1.27 9.1477e-41
2.4 3.18 1.27 3.57e-43
2.5 3.18 1.27 3.57e-43
2.54 3.18 1.27 3.57e-43
2.58 3.18 1.27 3.57e-43
2.62 3.18 1.27 3.57e-43
2.66 3.18 1.27 3.57e-43
2.7 3.18 1.27 3.57e-43
2.74 3.18 1.27 3.57e-43
2.78 3.18 1.27 3.57e-43
2.81 3.18 1.27 3.57e-43
2.87 3.18 1.27 3.57e-43
2.9 3.18 1.27 3.57e-43
2.93 3.18 1.27 3.57e-43
2.87 3.18 1.27 3.57e-43
2.96 3.18 1.27 3.57e-43
3.01 3.18 1.27 3.57e-43
3.04 3.18 1.09 9.1477e-41
3.05 3.18 1.09 3.57e-43
3.09 3.18 1.09 3.57e-43
3.15 3.18 1.09 3.57e-43
3.16 3.18 0.85 9.1477e-41
3.12 3.18 0.41 9.1477e-41
2.19 3.24 1.06 3.57e-43
2.19 3.24 1.06 3.57e-43
2.26 3.24 1.06 3.57e-43
2.32 3.24 1.06 3.57e-43
2.36 3.24 1.06 3.57e-43
2.4 3.24 1.06 3.57e-43
2.5 3.24 1.06 3.57e-43
2.54 3.24 1.06 3.57e-43
2.58 3.24 1.06 3.57e-43
2.62 3.24 1.06 3.57e-43
2.66 3.24 1.06 3.57e-43
2.7 3.24 1.06 3.57e-43
2.74 3.24 1.06 3.57e-43
2.78 3.24 1.06 3.57e-43
2.81 3.24 1.06 3.57e-43
2.87 3.24 1.06 3.57e-43
2.9 3.24 1.06 3.57e-43
2.93 3.24 1.06 3.57e-43
2.87 3.24 1.06 3.57e-43
2.96 3.24 1.06 3.57e-43
3.01 3.24 1.14 3.57e-43
3.04 3.24 1.09 9.1477e-41
3.05 3.24 0.97 9.1477e-41
3.09 3.24 0.94 9.1477e-41
3.11 3.24 0.94 3.57e-43
3.16 3.24 0.85 9.1477e-41
3.13 3.24 0.44 9.1477e-41
1.64 3.3 1.04 3.57e-43
1.85 3.3 1.06 9.1477e-41
1.9 3.3 1.06 3.57e-43
2.02 3.3 1.06 3.57e-43
2.09 3.3 1.06 3.57e-43
2.15 3.3 1.06 3.57e-43
2.19 3.3 1.06 3.57e-43
2.19 3.3 1.06 3.57e-43
2.26 3.3 1.06 3.57e-43
2.32 3.3 1.06 3.57e-43
2.36 3.3 1.06 3.57e-43
2.4 3.3 1.06 3.57e-43
2.5 3.3 1.06 3.57e-43
2.54 3.3 1.06 3.57e-43
2.58 3.3 1.06 3.57e-43
2.62 3.3 1.06 3.57e-43
2.66 3.3 1.06 3.57e-43
2.7 3.3 1.06 3.57e-43
2.74 3.3 1.06 3.57e-43
2.78 3.3 1.06 3.57e-43
2.81 3.3 1.06 3.57e-43
2.87 3.3 1.06 3.57e-43
2.9 3.3 1.06 3.57e-43
2.93 3.3 1.06 3.57e-43
2.87 3.3 1.06 3.57e-43
2.96 3.3 1.06 3.57e-43
3.01 3.3 1.14 9.1477e-41
3.01 3.3 0.96 9.1477e-41
3.03 3.3 0.87 9.1477e-41
3.07 3.3 0.85 9.1477e-41
3.1 3.3 0.85 3.57e-43
3.16 3.3 0.85 9.1477e-41
1.81 3.36 0.88 3.57e-43
1.93 3.36 1.03 9.1477e-41
2 3.36 1.07 9.1477e-41
2.05 3.36 1.07 9.1477e-41
2.09 3.36 1.06 9.1477e-41
2.14 3.36 1.06 9.1477e-41
2.18 3.36 1.06 9.1477e-41
2.23 3.36 1.06 3.57e-43
2.36 3.36 1.27 9.1477e-41
2.32 3.36 1.27 3.57e-43
2.5 3.36 1.27 3.57e-43
2.54 3.36 1.27 3.57e-43
2.58 3.36 1.27 3.57e-43
2.62 3.36 1.27 3.57e-43
2.66 3.36 1.27 3.57e-43
2.7 3.36 1.27 3.57e-43
2.74 3.36 1.27 3.57e-43
2.78 3.36 1.27 3.57e-43
2.81 3.36 1.27 3.57e-43
2.87 3.36 1.27 3.57e-43
2.9 3.36 1.27 3.57e-43
2.93 3.36 1.27 3.57e-43
2.87 3.36 1.27 3.57e-43
2.96 3.36 1.13 9.1477e-41
2.96 3.36 0.93 9.1477e-41
2.98 3.36 0.85 9.1477e-41
3.02 3.36 0.84 9.1477e-41
3.06 3.36 0.84 3.57e-43
3.1 3.36 0.84 3.57e-43
3.16 3.36 0.85 9.1477e-41
1.73 3.42 0.82 9.1477e-41
1.81 3.42 0.88 9.1477e-41
1.88 3.42 0.88 3.57e-43
2 3.42 0.88 3.57e-43
2.05 3.42 0.88 3.57e-43
2.09 3.42 0.88 3.57e-43
2.14 3.42 0.88 3.57e-43
2.18 3.42 0.88 3.57e-43
2.23 3.42 0.88 3.57e-43
2.36 3.42 0.88 3.57e-43
2.32 3.42 0.88 3.57e-43
2.5 3.42 0.88 3.57e-43
2.54 3.42 0.88 3.57e-43
2.58 3.42 0.88 3.57e-43
2.62 3.42 0.88 3.57e-43
2.66 3.42 0.88 3.57e-43
2.7 3.42 0.88 3.57e-43
2.74 3.42 0.88 3.57e-43
2.78 3.42 0.88 3.57e-43
2.81 3.42 0.88 3.57e-43
2.87 3.42 0.88 3.57e-43
2.9 3.42 0.88 3.57e-43
2.93 3.42 0.88 3.57e-43
2.87 3.42 0.94 9.1477e-41
2.89 3.42 0.83 9.1477e-41
2.92 3.42 0.77 9.1477e-41
2.97 3.42 0.78 9.1477e-41
3 3.42 0.78 3.57e-43
3.06 3.42 0.78 3.57e-43
3.1 3.42 0.78 3.57e-43
3.16 3.42 0.85 9.1477e-41
1.69 3.48 0.52 9.1477e-41
1.8 3.48 0.64 9.1477e-41
1.89 3.48 0.72 9.1477e-41
1.95 3.48 0.72 3.57e-43
2.14 3.48 1.06 9.1477e-41
2.07 3.48 0.8 9.1477e-41
2.11 3.48 0.77 9.1477e-41
2.18 3.48 0.81 9.1477e-41
2.2 3.48 0.74 9.1477e-41
2.26 3.48 0.77 9.1477e-41
2.31 3.48 0.78 9.1477e-41
2.36 3.48 0.77 9.1477e-41
2.4 3.48 0.76 9.1477e-41
2.45 3.48 0.75 9.1477e-41
2.51 3.48 0.81 9.1477e-41
2.54 3.48 0.73 9.1477e-41
2.6 3.48 0.78 9.1477e-41
2.66 3.48 0.81 9.1477e-41
2.68 3.48 0.75 9.1477e-41
2.73 3.48 0.74 9.1477e-41
2.78 3.48 0.75 9.1477e-41
2.81 3.48 0.75 3.57e-43
2.89 3.48 0.75 3.57e-43
2.92 3.48 0.75 3.57e-43
2.97 3.48 0.78 9.1477e-41
2.97 3.48 0.61 9.1477e-41
3 3.48 0.54 9.1477e-41
1.94 3.54 0.46 9.1477e-41
2.02 3.54 0.53 9.1477e-41
2.09 3.54 0.58 9.1477e-41
2.16 3.54 0.62 9.1477e-41
2.21 3.54 0.63 9.1477e-41
2.26 3.54 0.64 9.1477e-41
2.31 3.54 0.64 9.1477e-41
2.37 3.54 0.65 9.1477e-41
2.42 3.54 0.67 9.1477e-41
2.45 3.54 0.62 9.1477e-41
2.5 3.54 0.62 9.1477e-41
2.55 3.54 0.62 9.1477e-41
2.6 3.54 0.61 9.1477e-41
2.64 3.54 0.59 9.1477e-41
2.68 3.54 0.59 9.1477e-41
2.72 3.54 0.56 9.1477e-41
2.77 3.54 0.53 9.1477e-41
2.81 3.54 0.52 9.1477e-41
2.84 3.54 0.45 9.1477e-41
