# .PCD v.7 - Point Cloud Data file format
VERSION .7
FIELDS x y z rgb
SIZE 4 4 4 4
TYPE F F F F
WIDTH 319
HEIGHT 1
POINTS 319
DATA ascii
0.46 0 0.76 9.1477e-41
0.49 0 0.71 9.1477e-41
0.55 0 0.71 3.57e-43
0.16 0 0.71 3.57e-43
0.24 0 0.71 3.57e-43
0.31 0 0.71 3.57e-43
0.39 0 0.71 3.57e-43
0.47 0 0.71 3.57e-43
0.52 0 0.71 3.57e-43
0.78 0 0.71 3.57e-43
0.85 0 0.71 3.57e-43
0.92 0 0.71 3.57e-43
0.99 0 0.71 3.57e-43
1 0 0.71 3.57e-43
0.91 0 0.71 3.57e-43
1.13 0 0.71 3.57e-43
1.19 0 0.71 3.57e-43
1.51 0 0.71 9.1477e-41
1.52 0 0.62 9.1477e-41
1.58 0 0.64 9.1477e-41
1.65 0 0.64 3.57e-43
1.41 0 0.64 3.57e-43
1.47 0 0.64 3.57e-43
1.53 0 0.64 3.57e-43
0.99 0.2 0.62 3.57e-43
1.68 0.2 0.82 9.1477e-41
1.73 0.2 0.82 9.1477e-41
1.78 0.2 0.82 9.1477e-41
1.81 0.2 0.77 9.1477e-41
1.84 0.2 0.77 3.57e-43
1.59 0.2 0.77 3.57e-43
1.75 0.2 0.77 3.57e-43
1.78 0.4 0.94 3.57e-43
1.8 0.4 0.87 9.1477e-41
1.85 0.4 0.87 3.57e-43
1.84 0.4 0.87 3.57e-43
1.88 0.4 0.58 9.1477e-41
1.89 0.4 0.48 9.1477e-41
0.43 0.6 0.99 9.1477e-41
0.51 0.6 1 9.1477e-41
0.59 0.6 1.02 9.1477e-41
0.67 0.6 1.02 3.57e-43
0.49 0.6 1.02 3.57e-43
0.55 0.6 1.02 3.57e-43
0.16 0.6 1.02 3.57e-43
0.24 0.6 1.02 3.57e-43
0.31 0.6 1.02 3.57e-43
0.39 0.6 1.02 3.57e-43
0.47 0.6 1.02 3.57e-43
0.52 0.6 1.02 3.57e-43
0.78 0.6 1.02 3.57e-43
0.85 0.6 1.02 3.57e-43
0.92 0.6 1.02 3.57e-43
0.99 0.6 1.02 3.57e-43
1 0.6 1.02 3.57e-43
1.51 0.6 1 9.1477e-41
1.55 0.6 0.99 9.1477e-41
1.61 0.6 1 9.1477e-41
1.64 0.6 0.96 9.1477e-41
1.7 0.6 0.96 3.57e-43
1.68 0.6 0.82 9.1477e-41
1.78 0.6 0.94 9.1477e-41
1.83 0.6 0.94 3.57e-43
1.85 0.6 0.94 3.57e-43
1.84 0.6 0.94 3.57e-43
1.89 0.6 0.59 9.1477e-41
1.88 0.6 0.46 9.1477e-41
1.35 0.8 0.98 3.57e-43
1.39 0.8 1.09 9.1477e-41
1.44 0.8 1.08 9.1477e-41
1.48 0.8 1.08 3.57e-43
1.51 0.8 1.08 3.57e-43
1.55 0.8 1.08 3.57e-43
1.61 0.8 1.08 3.57e-43
1.64 0.8 1.08 3.57e-43
1.7 0.8 0.98 9.1477e-41
1.77 0.8 0.98 3.57e-43
1.78 0.8 0.98 3.57e-43
1.83 0.8 0.98 3.57e-43
1.85 0.8 0.98 3.57e-43
1.84 0.8 0.98 3.57e-43
1.59 0.8 0.98 3.57e-43
1.89 0.8 0.98 3.57e-43
1.88 0.8 0.46 9.1477e-41
0.45 1 1.02 3.57e-43
0.99 1 0.99 9.1477e-41
1.05 1 0.98 9.1477e-41
1.1 1 0.98 9.1477e-41
1.18 1 0.98 3.57e-43
0.85 1 0.98 3.57e-43
1.35 1 0.98 3.57e-43
1.39 1 0.98 3.57e-43
1.44 1 0.98 3.57e-43
1.48 1 0.98 3.57e-43
1.51 1 0.98 3.57e-43
1.55 1 0.98 3.57e-43
1.61 1 0.98 3.57e-43
1.64 1 0.98 3.57e-43
1.7 1 0.98 3.57e-43
1.77 1 0.98 3.57e-43
1.78 1 0.94 9.1477e-41
1.83 1 0.92 9.1477e-41
1.86 1 0.92 3.57e-43
1.84 1 0.92 3.57e-43
1.9 1 0.62 9.1477e-41
1.91 1 0.53 9.1477e-41
0.43 1.2 0.98 3.57e-43
0.66 1.2 0.98 3.57e-43
1.18 1.2 0.98 3.57e-43
0.85 1.2 0.98 3.57e-43
1.35 1.2 0.98 3.57e-43
1.6 1.2 1.44 3.57e-43
1.62 1.2 1.38 3.57e-43
1.66 1.2 1.38 3.57e-43
1.51 1.2 1 3.57e-43
1.37 1.2 0.65 3.57e-43
1.61 1.2 1 9.1477e-41
1.73 1.2 1.13 9.1477e-41
1.59 1.2 0.77 9.1477e-41
1.63 1.2 0.73 9.1477e-41
1.73 1.2 0.83 9.1477e-41
1.83 1.2 0.92 9.1477e-41
1.92 1.2 1.01 9.1477e-41
1.98 1.2 1.03 9.1477e-41
2.03 1.2 1.03 3.57e-43
1.9 1.2 0.62 9.1477e-41
1.91 1.2 0.52 9.1477e-41
1.6 1.4 1.44 3.57e-43
1.62 1.4 1.38 9.1477e-41
1.66 1.4 1.38 3.57e-43
1.51 1.4 1 9.1477e-41
1.37 1.4 0.65 9.1477e-41
1.57 1.4 0.93 9.1477e-41
1.64 1.4 0.96 9.1477e-41
1.61 1.4 0.79 9.1477e-41
1.64 1.4 0.74 9.1477e-41
1.72 1.4 0.8 9.1477e-41
1.83 1.4 0.8 3.57e-43
1.92 1.4 0.8 3.57e-43
1.98 1.4 0.8 3.57e-43
2.03 1.4 0.8 3.57e-43
1.9 1.4 0.62 9.1477e-41
1.91 1.4 0.52 9.1477e-41
1.56 1.6 1.46 3.57e-43
1.6 1.6 1.44 9.1477e-41
1.64 1.6 1.42 9.1477e-41
1.59 1.6 1.25 9.1477e-41
1.44 1.6 0.88 9.1477e-41
1.48 1.6 0.85 9.1477e-41
1.56 1.6 0.91 9.1477e-41
1.68 1.6 1.03 9.1477e-41
1.72 1.6 1.01 9.1477e-41
1.75 1.6 0.98 9.1477e-41
1.8 1.6 0.97 9.1477e-41
1.84 1.6 0.97 3.57e-43
1.92 1.6 0.97 3.57e-43
1.98 1.6 0.97 3.57e-43
2.03 1.6 0.97 3.57e-43
1.9 1.6 0.62 9.1477e-41
1.9 1.6 0.49 9.1477e-41
1.18 1.8 1 3.57e-43
1.52 1.8 1.48 9.1477e-41
1.56 1.8 1.46 9.1477e-41
1.61 1.8 1.46 9.1477e-41
1.64 1.8 1.41 9.1477e-41
1.63 1.8 1.31 9.1477e-41
1.64 1.8 1.24 9.1477e-41
1.7 1.8 1.26 9.1477e-41
1.73 1.8 1.26 3.57e-43
1.68 1.8 1.26 3.57e-43
1.72 1.8 1.26 3.57e-43
1.75 1.8 1.26 3.57e-43
1.8 1.8 0.97 9.1477e-41
1.85 1.8 0.97 3.57e-43
1.92 1.8 0.97 3.57e-43
1.98 1.8 0.97 3.57e-43
2.03 1.8 0.97 3.57e-43
1.9 1.8 0.97 3.57e-43
1.9 1.8 0.49 9.1477e-41
1.18 2 1 3.57e-43
1.52 2 1.48 9.1477e-41
1.57 2 1.47 9.1477e-41
1.6 2 1.44 9.1477e-41
1.64 2 1.41 9.1477e-41
1.29 2 0.72 9.1477e-41
1.37 2 0.72 3.57e-43
1.7 2 1.26 9.1477e-41
1.46 2 1.26 3.57e-43
1.68 2 1.26 3.57e-43
1.72 2 1.26 3.57e-43
1.75 2 0.98 9.1477e-41
1.81 2 0.99 9.1477e-41
1.85 2 0.99 3.57e-43
1.92 2 0.99 3.57e-43
1.98 2 0.99 3.57e-43
2.03 2 1.03 9.1477e-41
1.91 2 1.03 3.57e-43
1.9 2 0.49 9.1477e-41
0.57 2.2 1.47 9.1477e-41
0.63 2.2 1.47 3.57e-43
0.45 2.2 1.47 3.57e-43
0.43 2.2 1.47 3.57e-43
0.43 2.2 1.47 3.57e-43
0.51 2.2 1.47 3.57e-43
0.59 2.2 1.47 3.57e-43
0.67 2.2 1.47 3.57e-43
0.49 2.2 1.47 3.57e-43
0.55 2.2 1.47 3.57e-43
0.16 2.2 1.47 3.57e-43
0.24 2.2 1.47 3.57e-43
0.96 2.2 1.47 3.57e-43
0.99 2.2 1.47 3.57e-43
1.05 2.2 1.47 3.57e-43
0.66 2.2 1.47 3.57e-43
1.18 2.2 1 9.1477e-41
1.52 2.2 1.48 9.1477e-41
1.56 2.2 1.46 9.1477e-41
1.6 2.2 1.44 9.1477e-41
1.63 2.2 1.44 3.57e-43
1.29 2.2 0.72 9.1477e-41
1.34 2.2 0.72 3.57e-43
1.7 2.2 1.26 9.1477e-41
1.49 2.2 0.78 9.1477e-41
1.53 2.2 0.75 9.1477e-41
1.57 2.2 0.75 3.57e-43
1.75 2.2 0.98 9.1477e-41
1.82 2.2 0.98 3.57e-43
1.85 2.2 0.98 3.57e-43
1.92 2.2 0.98 3.57e-43
1.98 2.2 0.98 3.57e-43
2.03 2.2 1.03 9.1477e-41
1.9 2.2 1.03 3.57e-43
1.9 2.2 0.49 9.1477e-41
0.59 2.4 1 3.57e-43
1.5 2.4 1.45 9.1477e-41
1.56 2.4 1.45 9.1477e-41
1.59 2.4 1.43 9.1477e-41
1.62 2.4 1.43 3.57e-43
1.29 2.4 1.43 3.57e-43
1.34 2.4 1.43 3.57e-43
1.7 2.4 1.43 3.57e-43
1.49 2.4 0.78 9.1477e-41
1.49 2.4 0.78 3.57e-43
1.57 2.4 0.71 9.1477e-41
1.8 2.4 0.71 3.57e-43
1.82 2.4 0.71 3.57e-43
1.85 2.4 0.71 3.57e-43
1.92 2.4 0.71 3.57e-43
1.98 2.4 0.71 3.57e-43
2.03 2.4 0.71 3.57e-43
1.9 2.4 0.71 3.57e-43
1.9 2.4 0.49 9.1477e-41
1.5 2.6 1.08 3.57e-43
1.54 2.6 1.41 9.1477e-41
1.57 2.6 1.41 3.57e-43
1.62 2.6 1.39 9.1477e-41
1.63 2.6 1.39 3.57e-43
1.34 2.6 1.39 3.57e-43
1.7 2.6 1.39 3.57e-43
1.49 2.6 1.39 3.57e-43
1.49 2.6 1.39 3.57e-43
1.57 2.6 1.39 3.57e-43
1.8 2.6 1.39 3.57e-43
1.82 2.6 1.39 3.57e-43
1.85 2.6 1.39 3.57e-43
1.92 2.6 1.39 3.57e-43
1.98 2.6 1.39 3.57e-43
2.03 2.6 1.03 9.1477e-41
1.86 2.6 0.54 9.1477e-41
1.86 2.6 0.41 9.1477e-41
0.43 2.8 0.99 9.1477e-41
0.57 2.8 1.08 9.1477e-41
0.63 2.8 1.08 9.1477e-41
0.7 2.8 1.08 9.1477e-41
0.76 2.8 1.08 3.57e-43
0.55 2.8 1.08 3.57e-43
0.16 2.8 1.08 3.57e-43
0.24 2.8 1.08 3.57e-43
0.96 2.8 1.08 3.57e-43
0.99 2.8 1.08 3.57e-43
1.05 2.8 1.08 3.57e-43
0.66 2.8 1.08 3.57e-43
1.18 2.8 1.08 3.57e-43
1.5 2.8 1.08 3.57e-43
1.54 2.8 1.08 3.57e-43
1.57 2.8 1.08 3.57e-43
1.62 2.8 1.08 3.57e-43
1.63 2.8 1.08 3.57e-43
1.34 2.8 1.08 3.57e-43
1.7 2.8 1.08 3.57e-43
1.49 2.8 1.08 3.57e-43
1.49 2.8 1.08 3.57e-43
1.57 2.8 0.71 9.1477e-41
1.76 2.8 0.99 9.1477e-41
1.77 2.8 0.9 9.1477e-41
1.8 2.8 0.87 9.1477e-41
1.83 2.8 0.87 3.57e-43
1.98 2.8 0.87 3.57e-43
1.87 2.8 0.87 3.57e-43
1.87 2.8 0.55 9.1477e-41
0.96 3 1.02 9.1477e-41
0.8 3 0.7 9.1477e-41
0.89 3 0.74 9.1477e-41
0.94 3 0.72 9.1477e-41
1 3 0.72 9.1477e-41
1.07 3 0.74 9.1477e-41
1.13 3 0.75 9.1477e-41
1.18 3 0.73 9.1477e-41
1.25 3 0.73 3.57e-43
1.63 3 1.32 9.1477e-41
1.33 3 0.69 9.1477e-41
1.38 3 0.69 3.57e-43
1.49 3 0.69 3.57e-43
1.49 3 0.69 3.57e-43
1.57 3 0.69 3.57e-43
1.76 3 0.99 9.1477e-41
1.61 3 0.57 9.1477e-41
1.65 3 0.54 9.1477e-41
1.67 3 0.48 9.1477e-41
