# .PCD v.7 - Point Cloud Data file format
VERSION .7
FIELDS x y z rgb
SIZE 4 4 4 4
TYPE F F F F
WIDTH 443
HEIGHT 1
POINTS 443
DATA ascii
6.16 0 0.52 9.1477e-41
6.21 0 0.52 9.1477e-41
6.26 0 0.52 3.57e-43
6.55 0 0.52 3.57e-43
6.61 0 0.52 3.57e-43
6.67 0 0.52 3.57e-43
6.73 0 0.52 3.57e-43
6.8 0 0.52 3.57e-43
6.6 0 0.64 9.1477e-41
6.65 0 0.65 9.1477e-41
6.71 0 0.66 9.1477e-41
6.76 0 0.66 3.57e-43
7.18 0 0.66 3.57e-43
7.25 0 0.66 3.57e-43
7.31 0 0.66 3.57e-43
5.95 0.23 0.65 9.1477e-41
6.01 0.23 0.64 9.1477e-41
6.06 0.23 0.65 9.1477e-41
6.09 0.23 0.68 9.1477e-41
6.13 0.23 0.71 9.1477e-41
6.17 0.23 0.71 3.57e-43
6.55 0.23 0.71 3.57e-43
6.61 0.23 0.71 3.57e-43
6.67 0.23 0.71 3.57e-43
6.73 0.23 0.71 3.57e-43
6.8 0.23 0.71 3.57e-43
6.86 0.23 0.71 3.57e-43
6.6 0.23 0.71 3.57e-43
6.65 0.23 0.71 3.57e-43
6.71 0.23 0.71 3.57e-43
6.76 0.23 0.71 3.57e-43
7.18 0.23 0.71 3.57e-43
7.25 0.23 0.71 3.57e-43
7.31 0.23 0.71 3.57e-43
7.38 0.23 0.71 3.57e-43
7.24 0.23 0.71 3.57e-43
7.52 0.23 0.71 3.57e-43
7.21 0.23 0.72 9.1477e-41
7.27 0.23 0.71 9.1477e-41
7.39 0.23 0.63 9.1477e-41
5.92 0.46 0.47 3.57e-43
5.96 0.46 0.76 9.1477e-41
6 0.46 0.8 9.1477e-41
6.04 0.46 0.8 3.57e-43
6.13 0.46 0.8 3.57e-43
6.17 0.46 0.8 3.57e-43
6.55 0.46 0.8 3.57e-43
6.61 0.46 0.8 3.57e-43
6.67 0.46 0.8 3.57e-43
6.73 0.46 0.8 3.57e-43
6.8 0.46 0.8 3.57e-43
6.86 0.46 0.8 3.57e-43
6.6 0.46 0.8 3.57e-43
6.65 0.46 0.8 3.57e-43
6.71 0.46 0.8 3.57e-43
6.76 0.46 0.8 3.57e-43
7.18 0.46 0.8 3.57e-43
7.25 0.46 0.8 3.57e-43
7.31 0.46 0.8 3.57e-43
7.38 0.46 0.8 3.57e-43
7.24 0.46 0.8 3.57e-43
7.52 0.46 0.8 3.57e-43
7.59 0.46 0.8 3.57e-43
7.21 0.46 0.8 3.57e-43
7.27 0.46 0.8 3.57e-43
7.39 0.46 0.8 3.57e-43
7.45 0.46 0.75 9.1477e-41
5.86 0.69 0.47 9.1477e-41
5.88 0.69 0.47 3.57e-43
6.13 0.69 0.47 3.57e-43
5.92 0.69 0.47 3.57e-43
5.96 0.69 0.76 9.1477e-41
5.96 0.69 0.76 3.57e-43
6.04 0.69 0.76 3.57e-43
6.13 0.69 0.76 3.57e-43
6.17 0.69 0.76 3.57e-43
6.55 0.69 0.76 3.57e-43
6.25 0.69 0.93 9.1477e-41
6.29 0.69 0.94 9.1477e-41
6.35 0.69 0.93 9.1477e-41
6.4 0.69 0.94 9.1477e-41
6.45 0.69 0.94 9.1477e-41
6.5 0.69 0.94 9.1477e-41
6.56 0.69 0.94 9.1477e-41
6.61 0.69 0.94 9.1477e-41
6.67 0.69 0.94 9.1477e-41
6.72 0.69 0.95 9.1477e-41
6.77 0.69 0.97 9.1477e-41
6.82 0.69 0.97 9.1477e-41
6.89 0.69 0.96 9.1477e-41
6.96 0.69 0.94 9.1477e-41
7.03 0.69 0.92 9.1477e-41
7.08 0.69 0.92 3.57e-43
7.27 0.69 0.92 3.57e-43
7.39 0.69 0.92 3.57e-43
7.89 0.69 0.92 3.57e-43
7.45 0.69 0.92 3.57e-43
5.82 0.92 0.99 3.57e-43
5.9 0.92 0.99 3.57e-43
5.96 0.92 0.99 3.57e-43
6.04 0.92 0.81 3.57e-43
5.99 0.92 1.06 3.57e-43
6.01 0.92 1.13 3.57e-43
6.05 0.92 1.13 3.57e-43
6.61 0.92 1.13 3.57e-43
6.22 0.92 1.13 3.57e-43
6.29 0.92 1.13 3.57e-43
6.35 0.92 1.13 3.57e-43
6.4 0.92 1.13 3.57e-43
6.45 0.92 1.13 3.57e-43
6.5 0.92 0.94 3.57e-43
6.56 0.92 0.94 9.1477e-41
6.58 0.92 1 9.1477e-41
6.63 0.92 1 3.57e-43
6.72 0.92 1 3.57e-43
6.77 0.92 1 3.57e-43
6.82 0.92 1 3.57e-43
6.89 0.92 1 3.57e-43
6.96 0.92 1 3.57e-43
7.03 0.92 1 3.57e-43
7.08 0.92 1 3.57e-43
7.27 0.92 1 3.57e-43
7.39 0.92 1 3.57e-43
7.89 0.92 1 3.57e-43
7.45 0.92 1 3.57e-43
7.38 0.92 0.93 9.1477e-41
7.36 0.92 1.05 9.1477e-41
5.84 1.15 0.55 3.57e-43
5.78 1.15 0.99 9.1477e-41
5.82 1.15 0.99 9.1477e-41
5.9 1.15 0.99 3.57e-43
5.96 1.15 0.99 3.57e-43
6.04 1.15 0.81 9.1477e-41
5.99 1.15 1.06 9.1477e-41
6.01 1.15 1.13 9.1477e-41
6.05 1.15 1.13 3.57e-43
6.61 1.15 1.13 3.57e-43
6.22 1.15 1.13 3.57e-43
6.29 1.15 1.13 3.57e-43
6.35 1.15 1.13 3.57e-43
6.4 1.15 1.13 3.57e-43
6.45 1.15 1.13 3.57e-43
6.5 1.15 0.94 9.1477e-41
6.65 1.15 0.94 3.57e-43
6.58 1.15 1 9.1477e-41
6.7 1.15 0.87 9.1477e-41
6.77 1.15 0.87 3.57e-43
6.77 1.15 0.87 3.57e-43
6.82 1.15 0.87 3.57e-43
6.89 1.15 0.87 3.57e-43
6.96 1.15 0.87 3.57e-43
7.03 1.15 0.87 3.57e-43
7.08 1.15 0.87 3.57e-43
7.27 1.15 0.87 3.57e-43
7.39 1.15 0.87 3.57e-43
7.89 1.15 0.87 3.57e-43
7.45 1.15 0.87 3.57e-43
7.38 1.15 0.87 3.57e-43
7.36 1.15 0.87 3.57e-43
7.52 1.15 1.15 9.1477e-41
5.84 1.38 0.99 3.57e-43
5.91 1.38 0.89 3.57e-43
5.95 1.38 0.89 3.57e-43
6.04 1.38 0.81 9.1477e-41
6.2 1.38 0.55 9.1477e-41
6.25 1.38 0.56 9.1477e-41
6.29 1.38 0.58 9.1477e-41
6.35 1.38 0.58 3.57e-43
6.22 1.38 0.58 3.57e-43
6.29 1.38 0.58 3.57e-43
6.35 1.38 0.58 3.57e-43
6.4 1.38 0.58 3.57e-43
6.45 1.38 0.58 3.57e-43
6.5 1.38 0.58 3.57e-43
6.65 1.38 0.58 3.57e-43
6.58 1.38 0.58 3.57e-43
6.7 1.38 0.58 3.57e-43
6.77 1.38 0.58 3.57e-43
6.77 1.38 0.58 3.57e-43
6.82 1.38 0.58 3.57e-43
6.89 1.38 0.58 3.57e-43
6.96 1.38 0.58 3.57e-43
7.03 1.38 0.58 3.57e-43
7.08 1.38 0.58 3.57e-43
7.27 1.38 0.58 3.57e-43
7.39 1.38 0.58 3.57e-43
7.89 1.38 0.58 3.57e-43
7.45 1.38 0.58 3.57e-43
7.38 1.38 0.58 3.57e-43
7.36 1.38 1.05 9.1477e-41
7.27 1.38 1.27 9.1477e-41
5.84 1.61 0.99 3.57e-43
5.91 1.61 0.89 9.1477e-41
5.95 1.61 0.89 3.57e-43
6.04 1.61 0.81 9.1477e-41
6.22 1.61 0.49 9.1477e-41
6.27 1.61 0.51 9.1477e-41
6.33 1.61 0.49 9.1477e-41
6.39 1.61 0.49 3.57e-43
6.22 1.61 0.49 3.57e-43
6.29 1.61 0.94 9.1477e-41
6.15 1.61 1.34 9.1477e-41
6.18 1.61 1.38 9.1477e-41
6.23 1.61 1.38 3.57e-43
6.5 1.61 1.38 3.57e-43
6.65 1.61 1.38 3.57e-43
6.58 1.61 1.38 3.57e-43
6.7 1.61 1.38 3.57e-43
6.77 1.61 1.38 3.57e-43
6.77 1.61 1.38 3.57e-43
6.82 1.61 1.38 3.57e-43
6.89 1.61 1.38 3.57e-43
6.96 1.61 1.38 3.57e-43
7.03 1.61 1.38 3.57e-43
7.08 1.61 1.38 3.57e-43
7.27 1.61 1.38 3.57e-43
7.39 1.61 1.38 3.57e-43
7.89 1.61 1.38 3.57e-43
7.45 1.61 1.38 3.57e-43
7.38 1.61 1.38 3.57e-43
7.36 1.61 1.38 3.57e-43
7.27 1.61 1.27 9.1477e-41
7.27 1.61 1.35 9.1477e-41
5.91 1.84 0.82 3.57e-43
5.93 1.84 0.98 3.57e-43
5.97 1.84 1 3.57e-43
6.22 1.84 0.49 3.57e-43
6.23 1.84 0.61 3.57e-43
6.28 1.84 0.61 3.57e-43
6.34 1.84 0.61 3.57e-43
6.22 1.84 0.61 3.57e-43
6.29 1.84 0.94 9.1477e-41
6.14 1.84 1.36 9.1477e-41
6.17 1.84 1.4 9.1477e-41
6.21 1.84 1.42 9.1477e-41
6.25 1.84 1.42 3.57e-43
6.65 1.84 1.42 3.57e-43
6.58 1.84 1.42 3.57e-43
6.7 1.84 1.42 3.57e-43
6.77 1.84 1.42 3.57e-43
6.77 1.84 1.42 3.57e-43
6.82 1.84 1.42 3.57e-43
6.89 1.84 1.42 3.57e-43
6.96 1.84 1.42 3.57e-43
7.03 1.84 1.42 3.57e-43
7.08 1.84 1.42 3.57e-43
7.27 1.84 1.42 3.57e-43
7.39 1.84 1.42 3.57e-43
7.89 1.84 1.42 3.57e-43
7.45 1.84 1.42 3.57e-43
7.38 1.84 1.42 3.57e-43
7.36 1.84 1.42 3.57e-43
7.27 1.84 1.27 9.1477e-41
7.25 1.84 1.38 9.1477e-41
5.91 2.07 0.82 3.57e-43
5.93 2.07 0.98 3.57e-43
5.97 2.07 1 3.57e-43
6.22 2.07 0.49 9.1477e-41
6.23 2.07 0.61 9.1477e-41
6.28 2.07 0.61 9.1477e-41
6.34 2.07 0.61 3.57e-43
6.22 2.07 0.61 3.57e-43
6.29 2.07 0.94 9.1477e-41
6.15 2.07 1.35 9.1477e-41
6.17 2.07 1.4 9.1477e-41
6.21 2.07 1.42 9.1477e-41
6.26 2.07 1.42 3.57e-43
6.65 2.07 1.42 3.57e-43
6.58 2.07 1.42 3.57e-43
6.7 2.07 1.42 3.57e-43
6.77 2.07 1.42 3.57e-43
6.77 2.07 1.42 3.57e-43
6.82 2.07 1.42 3.57e-43
6.89 2.07 1.42 3.57e-43
6.96 2.07 1.42 3.57e-43
7.03 2.07 1.42 3.57e-43
7.08 2.07 1.42 3.57e-43
7.27 2.07 1.42 3.57e-43
7.39 2.07 1.42 3.57e-43
7.89 2.07 1.42 3.57e-43
7.45 2.07 1.42 3.57e-43
7.38 2.07 1.42 3.57e-43
7.36 2.07 1.42 3.57e-43
7.27 2.07 1.27 9.1477e-41
7.25 2.07 1.38 9.1477e-41
5.91 2.3 0.82 3.57e-43
5.93 2.3 0.98 9.1477e-41
5.97 2.3 1 9.1477e-41
6.17 2.3 0.62 9.1477e-41
6.22 2.3 0.65 9.1477e-41
6.27 2.3 0.65 9.1477e-41
6.32 2.3 0.65 9.1477e-41
6.38 2.3 0.65 3.57e-43
6.29 2.3 0.94 9.1477e-41
6.16 2.3 1.32 9.1477e-41
6.18 2.3 1.39 9.1477e-41
6.22 2.3 1.41 9.1477e-41
6.26 2.3 1.41 3.57e-43
6.65 2.3 1.41 3.57e-43
6.58 2.3 1.41 3.57e-43
6.7 2.3 1.41 3.57e-43
6.77 2.3 1.41 3.57e-43
6.77 2.3 1.41 3.57e-43
6.82 2.3 1.41 3.57e-43
6.89 2.3 1.41 3.57e-43
6.96 2.3 1.41 3.57e-43
7.03 2.3 1.41 3.57e-43
7.08 2.3 1.41 3.57e-43
7.27 2.3 1.41 3.57e-43
7.39 2.3 1.41 3.57e-43
7.89 2.3 1.41 3.57e-43
7.45 2.3 1.41 3.57e-43
7.38 2.3 1.41 3.57e-43
7.36 2.3 1.05 9.1477e-41
7.18 2.3 1.4 9.1477e-41
7.24 2.3 1.39 9.1477e-41
5.88 2.53 0.55 9.1477e-41
5.84 2.53 0.82 9.1477e-41
5.88 2.53 0.82 3.57e-43
5.91 2.53 0.82 3.57e-43
5.93 2.53 0.82 3.57e-43
5.97 2.53 1 9.1477e-41
5.99 2.53 1.06 9.1477e-41
6.22 2.53 0.63 9.1477e-41
6.27 2.53 0.63 3.57e-43
6.32 2.53 0.63 3.57e-43
6.38 2.53 0.63 3.57e-43
6.29 2.53 0.94 9.1477e-41
6.16 2.53 1.33 9.1477e-41
6.19 2.53 1.36 9.1477e-41
6.23 2.53 1.39 9.1477e-41
6.27 2.53 1.39 3.57e-43
6.65 2.53 1.39 3.57e-43
6.58 2.53 1.39 3.57e-43
6.7 2.53 1.39 3.57e-43
6.77 2.53 1.39 3.57e-43
6.77 2.53 1.39 3.57e-43
6.82 2.53 1.39 3.57e-43
6.89 2.53 1.39 3.57e-43
6.96 2.53 1.39 3.57e-43
7.03 2.53 1.39 3.57e-43
7.08 2.53 1.39 3.57e-43
7.27 2.53 1.39 3.57e-43
7.39 2.53 1.39 3.57e-43
7.89 2.53 1.39 3.57e-43
7.45 2.53 1.39 3.57e-43
7.38 2.53 1.39 3.57e-43
7.36 2.53 1.05 9.1477e-41
7.19 2.53 1.38 9.1477e-41
5.87 2.76 0.44 9.1477e-41
5.88 2.76 0.44 3.57e-43
5.84 2.76 0.44 3.57e-43
5.88 2.76 0.44 3.57e-43
5.91 2.76 0.44 3.57e-43
5.93 2.76 0.44 3.57e-43
5.97 2.76 0.44 3.57e-43
5.99 2.76 0.44 3.57e-43
6.22 2.76 0.44 3.57e-43
6.27 2.76 0.44 3.57e-43
6.32 2.76 0.44 3.57e-43
6.38 2.76 0.44 3.57e-43
6.29 2.76 0.94 9.1477e-41
6.17 2.76 1.3 9.1477e-41
6.2 2.76 1.33 9.1477e-41
6.25 2.76 1.35 9.1477e-41
6.29 2.76 1.36 9.1477e-41
6.35 2.76 1.34 9.1477e-41
6.4 2.76 1.34 9.1477e-41
6.45 2.76 1.34 9.1477e-41
6.5 2.76 1.35 9.1477e-41
6.54 2.76 1.37 9.1477e-41
6.6 2.76 1.35 9.1477e-41
6.65 2.76 1.36 9.1477e-41
6.7 2.76 1.36 3.57e-43
7.03 2.76 1.36 3.57e-43
7.08 2.76 1.36 3.57e-43
7.27 2.76 1.36 3.57e-43
7.39 2.76 1.36 3.57e-43
7.89 2.76 1.36 3.57e-43
7.45 2.76 1.36 3.57e-43
7.38 2.76 1.36 3.57e-43
7.36 2.76 1.36 3.57e-43
7.19 2.76 1.38 9.1477e-41
5.86 2.99 0.47 9.1477e-41
5.88 2.99 0.47 3.57e-43
5.84 2.99 0.47 3.57e-43
5.88 2.99 0.83 9.1477e-41
5.92 2.99 0.87 9.1477e-41
5.94 2.99 0.94 9.1477e-41
5.98 2.99 0.98 9.1477e-41
6.02 2.99 0.98 3.57e-43
6.22 2.99 0.98 3.57e-43
6.27 2.99 0.98 3.57e-43
6.32 2.99 0.98 3.57e-43
6.38 2.99 0.98 3.57e-43
6.29 2.99 0.98 3.57e-43
6.17 2.99 0.98 3.57e-43
6.2 2.99 0.98 3.57e-43
6.25 2.99 0.98 3.57e-43
6.29 2.99 0.98 3.57e-43
6.35 2.99 0.98 3.57e-43
6.4 2.99 0.98 3.57e-43
6.45 2.99 0.98 3.57e-43
6.5 2.99 0.98 3.57e-43
6.54 2.99 0.98 3.57e-43
6.6 2.99 0.98 3.57e-43
6.65 2.99 0.98 3.57e-43
6.7 2.99 0.98 3.57e-43
7.03 2.99 0.98 3.57e-43
7.08 2.99 0.98 3.57e-43
7.27 2.99 0.98 3.57e-43
7.39 2.99 0.98 3.57e-43
7.89 2.99 0.98 3.57e-43
7.45 2.99 0.98 3.57e-43
7.38 2.99 0.98 3.57e-43
7.36 2.99 1.05 9.1477e-41
5.86 3.22 0.83 3.57e-43
5.98 3.22 0.73 9.1477e-41
6.01 3.22 0.77 9.1477e-41
6.07 3.22 0.74 9.1477e-41
6.08 3.22 0.74 3.57e-43
6.22 3.22 0.74 3.57e-43
6.27 3.22 0.74 3.57e-43
6.32 3.22 0.74 3.57e-43
6.38 3.22 0.74 3.57e-43
6.29 3.22 0.74 3.57e-43
6.17 3.22 1.3 9.1477e-41
6.36 3.22 1 9.1477e-41
6.4 3.22 1.04 9.1477e-41
6.46 3.22 1.04 9.1477e-41
6.51 3.22 1.03 9.1477e-41
6.57 3.22 1.02 9.1477e-41
6.63 3.22 1.02 9.1477e-41
6.68 3.22 1.02 3.57e-43
6.54 3.22 1.02 3.57e-43
6.6 3.22 1.02 3.57e-43
6.65 3.22 1.02 3.57e-43
6.7 3.22 1.02 3.57e-43
7.03 3.22 1.02 3.57e-43
7.08 3.22 1.02 3.57e-43
7.27 3.22 1.02 3.57e-43
7.39 3.22 1.02 3.57e-43
7.36 3.22 0.89 9.1477e-41
