# .PCD v.7 - Point Cloud Data file format
VERSION .7
FIELDS x y z rgb
SIZE 4 4 4 4
TYPE F F F F
WIDTH 1362
HEIGHT 1
POINTS 1362
DATA ascii
3.37 0 0.55 9.1477e-41
3.42 0 0.55 9.1477e-41
3.47 0 0.55 9.1477e-41
3.51 0 0.57 9.1477e-41
3.56 0 0.57 3.57e-43
3.55 0 0.57 3.57e-43
3.6 0 0.57 3.57e-43
3.66 0 0.57 3.57e-43
3.79 0 0.66 9.1477e-41
3.83 0 0.66 9.1477e-41
3.88 0 0.67 9.1477e-41
3.92 0 0.66 9.1477e-41
3.96 0 0.66 3.57e-43
3.99 0 0.66 3.57e-43
4.05 0 0.66 3.57e-43
4.18 0 0.53 9.1477e-41
4.23 0 0.52 9.1477e-41
4.28 0 0.52 3.57e-43
3.34 0.09 0.64 9.1477e-41
3.39 0.09 0.65 9.1477e-41
3.43 0.09 0.65 9.1477e-41
3.48 0.09 0.65 3.57e-43
3.51 0.09 0.65 3.57e-43
3.56 0.09 0.65 3.57e-43
3.55 0.09 0.65 3.57e-43
3.6 0.09 0.65 3.57e-43
3.75 0.09 0.75 9.1477e-41
3.79 0.09 0.71 9.1477e-41
3.84 0.09 0.73 9.1477e-41
3.88 0.09 0.75 9.1477e-41
3.92 0.09 0.73 9.1477e-41
3.96 0.09 0.71 9.1477e-41
4.01 0.09 0.71 3.57e-43
4.05 0.09 0.71 3.57e-43
4.09 0.09 0.71 3.57e-43
4.14 0.09 0.71 3.57e-43
4.18 0.09 0.71 3.57e-43
4.23 0.09 0.52 9.1477e-41
4.27 0.09 0.62 9.1477e-41
4.32 0.09 0.61 9.1477e-41
4.36 0.09 0.62 9.1477e-41
4.41 0.09 0.56 9.1477e-41
4.46 0.09 0.5 9.1477e-41
3.21 0.18 0.68 9.1477e-41
3.26 0.18 0.67 9.1477e-41
3.3 0.18 0.68 9.1477e-41
3.34 0.18 0.64 9.1477e-41
3.39 0.18 0.64 3.57e-43
3.43 0.18 0.64 3.57e-43
3.48 0.18 0.64 3.57e-43
3.51 0.18 0.64 3.57e-43
3.56 0.18 0.64 3.57e-43
3.55 0.18 0.64 3.57e-43
3.6 0.18 0.64 3.57e-43
3.66 0.18 0.64 3.57e-43
3.75 0.18 0.64 3.57e-43
3.79 0.18 0.64 3.57e-43
3.84 0.18 0.64 3.57e-43
3.88 0.18 0.64 3.57e-43
3.92 0.18 0.64 3.57e-43
3.96 0.18 0.64 3.57e-43
4.01 0.18 0.73 9.1477e-41
4.05 0.18 0.73 3.57e-43
4.09 0.18 0.73 3.57e-43
4.14 0.18 0.73 3.57e-43
4.18 0.18 0.73 3.57e-43
4.23 0.18 0.73 3.57e-43
4.27 0.18 0.73 3.57e-43
4.32 0.18 0.61 9.1477e-41
4.36 0.18 0.63 9.1477e-41
4.4 0.18 0.62 9.1477e-41
4.45 0.18 0.63 9.1477e-41
4.49 0.18 0.63 3.57e-43
4.59 0.18 0.63 3.57e-43
3.13 0.27 0.7 9.1477e-41
3.17 0.27 0.69 9.1477e-41
3.22 0.27 0.69 9.1477e-41
3.26 0.27 0.67 9.1477e-41
3.32 0.27 0.76 9.1477e-41
3.37 0.27 0.76 3.57e-43
3.39 0.27 0.76 3.57e-43
3.43 0.27 0.76 3.57e-43
3.48 0.27 0.76 3.57e-43
3.51 0.27 0.76 3.57e-43
3.56 0.27 0.76 3.57e-43
3.55 0.27 0.76 3.57e-43
3.6 0.27 0.76 3.57e-43
3.66 0.27 0.76 3.57e-43
3.75 0.27 0.76 3.57e-43
3.79 0.27 0.76 3.57e-43
3.84 0.27 0.76 3.57e-43
3.88 0.27 0.76 3.57e-43
3.92 0.27 0.76 3.57e-43
3.96 0.27 0.76 3.57e-43
4.01 0.27 0.76 3.57e-43
4.05 0.27 0.76 3.57e-43
4.09 0.27 0.76 3.57e-43
4.14 0.27 0.76 3.57e-43
4.18 0.27 0.76 3.57e-43
4.23 0.27 0.76 3.57e-43
4.27 0.27 0.76 3.57e-43
4.32 0.27 0.76 3.57e-43
4.36 0.27 0.63 9.1477e-41
4.4 0.27 0.64 9.1477e-41
4.45 0.27 0.66 9.1477e-41
4.49 0.27 0.64 9.1477e-41
4.54 0.27 0.65 9.1477e-41
4.58 0.27 0.64 9.1477e-41
4.65 0.27 0.4 9.1477e-41
3.15 0.36 0.81 9.1477e-41
3.2 0.36 0.83 9.1477e-41
3.24 0.36 0.81 9.1477e-41
3.28 0.36 0.81 3.57e-43
3.32 0.36 0.81 3.57e-43
3.37 0.36 0.81 3.57e-43
3.39 0.36 0.81 3.57e-43
3.43 0.36 0.81 3.57e-43
3.48 0.36 0.81 3.57e-43
3.51 0.36 0.81 3.57e-43
3.56 0.36 0.81 3.57e-43
3.55 0.36 0.81 3.57e-43
3.6 0.36 0.81 3.57e-43
3.66 0.36 0.81 3.57e-43
3.75 0.36 0.81 3.57e-43
3.79 0.36 0.81 3.57e-43
3.84 0.36 0.81 3.57e-43
3.88 0.36 0.81 3.57e-43
3.92 0.36 0.81 3.57e-43
3.96 0.36 0.81 3.57e-43
4.01 0.36 0.81 3.57e-43
4.05 0.36 0.81 3.57e-43
4.09 0.36 0.81 3.57e-43
4.14 0.36 0.81 3.57e-43
4.18 0.36 0.81 3.57e-43
4.23 0.36 0.81 3.57e-43
4.27 0.36 0.81 3.57e-43
4.32 0.36 0.81 3.57e-43
4.36 0.36 0.81 3.57e-43
4.4 0.36 0.81 3.57e-43
4.45 0.36 0.66 9.1477e-41
4.49 0.36 0.67 9.1477e-41
4.54 0.36 0.64 9.1477e-41
4.58 0.36 0.67 9.1477e-41
4.62 0.36 0.66 9.1477e-41
3.1 0.45 0.78 9.1477e-41
3.15 0.45 0.84 9.1477e-41
3.2 0.45 0.84 9.1477e-41
3.24 0.45 0.84 3.57e-43
3.28 0.45 0.84 3.57e-43
3.32 0.45 0.84 3.57e-43
3.37 0.45 0.84 3.57e-43
3.39 0.45 0.84 3.57e-43
3.43 0.45 0.84 3.57e-43
3.48 0.45 0.84 3.57e-43
3.51 0.45 0.84 3.57e-43
3.56 0.45 0.84 3.57e-43
3.55 0.45 0.84 3.57e-43
3.6 0.45 0.84 3.57e-43
3.66 0.45 0.84 3.57e-43
3.75 0.45 0.84 3.57e-43
3.79 0.45 0.84 3.57e-43
3.84 0.45 0.73 9.1477e-41
3.89 0.45 0.73 3.57e-43
3.92 0.45 0.73 9.1477e-41
3.97 0.45 0.73 3.57e-43
4.01 0.45 0.73 3.57e-43
4.05 0.45 0.73 3.57e-43
4.09 0.45 0.73 3.57e-43
4.14 0.45 0.73 3.57e-43
4.18 0.45 0.73 3.57e-43
4.23 0.45 0.73 3.57e-43
4.27 0.45 0.73 3.57e-43
4.32 0.45 0.73 3.57e-43
4.36 0.45 0.73 3.57e-43
4.4 0.45 0.73 3.57e-43
4.45 0.45 0.73 3.57e-43
4.49 0.45 0.67 9.1477e-41
4.52 0.45 0.79 9.1477e-41
4.57 0.45 0.8 9.1477e-41
4.61 0.45 0.8 3.57e-43
3.11 0.54 0.85 9.1477e-41
3.16 0.54 0.87 9.1477e-41
3.21 0.54 0.87 3.57e-43
3.24 0.54 0.87 3.57e-43
3.28 0.54 0.87 3.57e-43
3.32 0.54 0.87 3.57e-43
3.37 0.54 0.87 3.57e-43
3.39 0.54 0.87 3.57e-43
3.43 0.54 0.87 3.57e-43
3.48 0.54 0.87 3.57e-43
3.51 0.54 0.87 3.57e-43
3.56 0.54 0.87 3.57e-43
3.55 0.54 0.87 3.57e-43
3.72 0.54 0.87 3.57e-43
3.75 0.54 0.75 9.1477e-41
3.81 0.54 0.93 9.1477e-41
3.85 0.54 0.92 9.1477e-41
3.89 0.54 0.94 9.1477e-41
3.93 0.54 0.94 3.57e-43
3.97 0.54 0.9 9.1477e-41
4.01 0.54 0.93 9.1477e-41
4.05 0.54 0.93 3.57e-43
4.09 0.54 0.93 3.57e-43
4.14 0.54 0.93 3.57e-43
4.18 0.54 0.93 3.57e-43
4.23 0.54 0.93 3.57e-43
4.27 0.54 0.93 3.57e-43
4.32 0.54 0.93 3.57e-43
4.36 0.54 0.93 3.57e-43
4.4 0.54 0.93 3.57e-43
4.45 0.54 0.93 3.57e-43
4.49 0.54 0.93 3.57e-43
4.52 0.54 0.79 9.1477e-41
4.56 0.54 0.81 9.1477e-41
4.61 0.54 0.77 9.1477e-41
4.68 0.54 0.57 9.1477e-41
3.12 0.63 0.87 9.1477e-41
3.16 0.63 0.87 3.57e-43
3.21 0.63 0.87 3.57e-43
3.24 0.63 0.87 3.57e-43
3.28 0.63 0.87 3.57e-43
3.32 0.63 0.87 3.57e-43
3.37 0.63 0.87 3.57e-43
3.39 0.63 0.87 3.57e-43
3.43 0.63 0.87 3.57e-43
3.48 0.63 0.87 3.57e-43
3.51 0.63 0.57 9.1477e-41
3.6 0.63 0.96 9.1477e-41
3.64 0.63 0.96 9.1477e-41
3.68 0.63 0.96 9.1477e-41
3.73 0.63 0.98 9.1477e-41
3.77 0.63 0.96 9.1477e-41
3.81 0.63 0.96 9.1477e-41
3.85 0.63 0.96 9.1477e-41
3.89 0.63 0.96 9.1477e-41
3.93 0.63 0.95 9.1477e-41
3.97 0.63 0.94 9.1477e-41
4.01 0.63 0.96 9.1477e-41
4.05 0.63 0.95 9.1477e-41
4.09 0.63 0.96 9.1477e-41
4.14 0.63 0.96 3.57e-43
4.18 0.63 0.96 3.57e-43
4.23 0.63 0.96 3.57e-43
4.27 0.63 0.96 3.57e-43
4.32 0.63 0.96 3.57e-43
4.36 0.63 0.96 3.57e-43
4.4 0.63 0.96 3.57e-43
4.45 0.63 0.96 3.57e-43
4.49 0.63 0.96 3.57e-43
4.52 0.63 0.96 3.57e-43
4.56 0.63 0.81 9.1477e-41
4.61 0.63 0.83 9.1477e-41
4.65 0.63 0.83 9.1477e-41
3.51 0.72 0.95 3.57e-43
3.56 0.72 0.97 3.57e-43
3.6 0.72 0.96 9.1477e-41
3.64 0.72 0.97 9.1477e-41
3.68 0.72 0.96 9.1477e-41
3.72 0.72 0.95 9.1477e-41
3.77 0.72 0.96 9.1477e-41
3.81 0.72 0.94 9.1477e-41
3.85 0.72 0.94 9.1477e-41
3.89 0.72 0.94 9.1477e-41
3.93 0.72 0.97 9.1477e-41
3.97 0.72 0.96 9.1477e-41
4.01 0.72 0.96 9.1477e-41
4.05 0.72 0.96 3.57e-43
4.09 0.72 0.96 3.57e-43
4.14 0.72 0.96 3.57e-43
4.18 0.72 0.96 3.57e-43
4.23 0.72 0.96 3.57e-43
4.27 0.72 0.96 3.57e-43
4.32 0.72 0.96 3.57e-43
4.36 0.72 0.96 3.57e-43
4.4 0.72 0.96 3.57e-43
4.45 0.72 0.96 3.57e-43
4.49 0.72 0.96 3.57e-43
4.52 0.72 0.96 3.57e-43
4.56 0.72 0.81 9.1477e-41
4.6 0.72 0.85 9.1477e-41
4.65 0.72 0.84 9.1477e-41
3.26 0.81 0.95 3.57e-43
3.3 0.81 0.95 9.1477e-41
3.34 0.81 0.93 9.1477e-41
3.39 0.81 0.96 9.1477e-41
3.43 0.81 0.95 9.1477e-41
3.47 0.81 0.96 9.1477e-41
3.51 0.81 0.95 9.1477e-41
3.56 0.81 0.97 9.1477e-41
3.6 0.81 0.96 9.1477e-41
3.64 0.81 0.97 9.1477e-41
3.68 0.81 0.96 9.1477e-41
3.72 0.81 0.97 9.1477e-41
3.77 0.81 0.97 3.57e-43
3.81 0.81 0.97 3.57e-43
3.85 0.81 0.97 3.57e-43
3.89 0.81 0.97 3.57e-43
3.93 0.81 0.97 9.1477e-41
3.97 0.81 0.98 9.1477e-41
4.01 0.81 0.97 9.1477e-41
4.05 0.81 0.96 9.1477e-41
4.09 0.81 0.95 9.1477e-41
4.18 0.81 0.94 9.1477e-41
4.22 0.81 0.93 9.1477e-41
4.26 0.81 0.92 9.1477e-41
4.3 0.81 0.9 9.1477e-41
4.35 0.81 0.88 9.1477e-41
4.39 0.81 0.88 3.57e-43
4.45 0.81 0.88 3.57e-43
4.49 0.81 0.88 3.57e-43
4.52 0.81 0.88 3.57e-43
4.56 0.81 0.88 3.57e-43
4.6 0.81 0.88 3.57e-43
4.65 0.81 0.84 9.1477e-41
3.12 0.9 0.87 3.57e-43
3.22 0.9 0.97 9.1477e-41
3.26 0.9 0.95 9.1477e-41
3.31 0.9 0.95 3.57e-43
3.34 0.9 0.93 9.1477e-41
3.4 0.9 1.01 9.1477e-41
3.44 0.9 1 9.1477e-41
3.48 0.9 1 3.57e-43
3.51 0.9 1 3.57e-43
3.56 0.9 0.97 9.1477e-41
3.6 0.9 1 9.1477e-41
3.64 0.9 0.99 9.1477e-41
3.69 0.9 0.99 9.1477e-41
3.73 0.9 0.99 9.1477e-41
3.77 0.9 0.99 9.1477e-41
3.81 0.9 0.98 9.1477e-41
3.85 0.9 0.98 9.1477e-41
3.89 0.9 0.99 9.1477e-41
3.93 0.9 0.99 9.1477e-41
3.97 0.9 0.99 9.1477e-41
4.01 0.9 0.98 9.1477e-41
4.05 0.9 0.98 9.1477e-41
4.09 0.9 0.98 3.57e-43
4.14 0.9 0.98 3.57e-43
4.18 0.9 0.98 3.57e-43
4.22 0.9 0.98 3.57e-43
4.26 0.9 0.98 3.57e-43
4.3 0.9 0.98 3.57e-43
4.35 0.9 0.88 9.1477e-41
4.38 0.9 0.94 9.1477e-41
4.43 0.9 0.94 9.1477e-41
4.47 0.9 0.93 9.1477e-41
4.51 0.9 0.93 3.57e-43
4.56 0.9 0.93 3.57e-43
4.6 0.9 0.93 3.57e-43
4.65 0.9 0.84 9.1477e-41
3.23 0.99 0.83 3.57e-43
3.27 0.99 1.02 9.1477e-41
3.32 0.99 1.02 9.1477e-41
3.36 0.99 1.01 9.1477e-41
3.4 0.99 1 9.1477e-41
3.44 0.99 0.99 9.1477e-41
3.48 0.99 1 9.1477e-41
3.52 0.99 1 9.1477e-41
3.56 0.99 1 9.1477e-41
3.6 0.99 1 9.1477e-41
3.65 0.99 1.01 9.1477e-41
3.69 0.99 1 9.1477e-41
3.73 0.99 1 9.1477e-41
3.77 0.99 1 9.1477e-41
3.81 0.99 0.99 9.1477e-41
3.85 0.99 0.99 9.1477e-41
3.89 0.99 1 9.1477e-41
3.93 0.99 0.99 9.1477e-41
3.97 0.99 1 9.1477e-41
4.01 0.99 1 9.1477e-41
4.05 0.99 0.99 9.1477e-41
4.09 0.99 0.99 9.1477e-41
4.18 0.99 0.99 9.1477e-41
4.22 0.99 0.98 9.1477e-41
4.26 0.99 0.97 9.1477e-41
4.3 0.99 0.96 9.1477e-41
4.34 0.99 0.96 3.57e-43
4.38 0.99 0.96 3.57e-43
4.43 0.99 0.96 3.57e-43
4.47 0.99 0.96 3.57e-43
4.51 0.99 0.92 9.1477e-41
4.55 0.99 0.94 9.1477e-41
4.59 0.99 0.94 3.57e-43
4.65 0.99 0.84 9.1477e-41
3.16 1.08 0.83 3.57e-43
3.23 1.08 0.83 3.57e-43
3.27 1.08 0.83 3.57e-43
3.32 1.08 0.83 3.57e-43
3.36 1.08 0.83 3.57e-43
3.4 1.08 1 9.1477e-41
3.44 1.08 1 3.57e-43
3.48 1.08 1 9.1477e-41
3.52 1.08 0.99 9.1477e-41
3.56 1.08 0.99 3.57e-43
3.6 1.08 0.99 3.57e-43
3.65 1.08 0.99 3.57e-43
3.69 1.08 0.99 3.57e-43
3.73 1.08 0.99 3.57e-43
3.77 1.08 0.99 3.57e-43
3.81 1.08 0.99 3.57e-43
3.85 1.08 0.99 3.57e-43
3.89 1.08 0.99 3.57e-43
3.93 1.08 0.99 3.57e-43
3.97 1.08 0.99 3.57e-43
4.01 1.08 0.99 3.57e-43
4.05 1.08 0.99 3.57e-43
4.09 1.08 0.99 9.1477e-41
4.18 1.08 1.05 9.1477e-41
4.22 1.08 1.05 9.1477e-41
4.26 1.08 1.03 9.1477e-41
4.3 1.08 1.01 9.1477e-41
4.34 1.08 1.01 3.57e-43
4.38 1.08 1.01 3.57e-43
4.43 1.08 1.01 3.57e-43
4.47 1.08 0.93 9.1477e-41
4.51 1.08 0.93 3.57e-43
4.55 1.08 0.93 3.57e-43
4.59 1.08 0.93 3.57e-43
4.65 1.08 0.84 9.1477e-41
3.07 1.17 0.83 9.1477e-41
3.13 1.17 0.83 3.57e-43
3.16 1.17 0.83 3.57e-43
3.23 1.17 0.83 3.57e-43
3.27 1.17 0.83 3.57e-43
3.32 1.17 0.83 3.57e-43
3.36 1.17 0.83 3.57e-43
3.4 1.17 0.83 3.57e-43
3.44 1.17 0.83 3.57e-43
3.48 1.17 0.83 3.57e-43
3.52 1.17 0.83 3.57e-43
3.56 1.17 0.83 3.57e-43
3.6 1.17 0.83 3.57e-43
3.65 1.17 0.83 3.57e-43
3.69 1.17 0.83 3.57e-43
3.73 1.17 1 9.1477e-41
3.77 1.17 1.03 9.1477e-41
3.81 1.17 1.02 9.1477e-41
3.85 1.17 1.02 9.1477e-41
3.89 1.17 1.02 9.1477e-41
3.93 1.17 1.01 9.1477e-41
3.97 1.17 1.01 3.57e-43
4.01 1.17 1.01 3.57e-43
4.05 1.17 1.01 3.57e-43
4.09 1.17 1.01 3.57e-43
4.14 1.17 1.01 3.57e-43
4.18 1.17 1.01 3.57e-43
4.22 1.17 1.01 3.57e-43
4.26 1.17 1.01 3.57e-43
4.3 1.17 1.01 3.57e-43
4.34 1.17 1.01 3.57e-43
4.38 1.17 1.01 3.57e-43
4.43 1.17 1.01 3.57e-43
4.47 1.17 1.01 3.57e-43
4.51 1.17 1.01 3.57e-43
4.55 1.17 1.01 3.57e-43
4.59 1.17 1.01 3.57e-43
4.65 1.17 0.84 9.1477e-41
3.08 1.26 0.9 9.1477e-41
3.13 1.26 0.9 3.57e-43
3.16 1.26 0.9 3.57e-43
3.23 1.26 0.9 3.57e-43
3.27 1.26 0.9 3.57e-43
3.32 1.26 0.9 3.57e-43
3.36 1.26 0.9 3.57e-43
3.4 1.26 0.9 3.57e-43
3.44 1.26 0.9 3.57e-43
3.48 1.26 0.9 3.57e-43
3.52 1.26 0.9 3.57e-43
3.56 1.26 0.9 3.57e-43
3.6 1.26 0.9 3.57e-43
3.65 1.26 0.9 3.57e-43
3.69 1.26 0.9 3.57e-43
3.73 1.26 1 9.1477e-41
3.77 1.26 1 9.1477e-41
3.81 1.26 0.95 9.1477e-41
3.85 1.26 0.94 9.1477e-41
3.89 1.26 0.94 9.1477e-41
3.93 1.26 0.93 9.1477e-41
3.97 1.26 0.93 3.57e-43
4.01 1.26 0.93 3.57e-43
4.05 1.26 0.93 3.57e-43
4.09 1.26 0.93 3.57e-43
4.14 1.26 0.93 3.57e-43
4.18 1.26 0.93 3.57e-43
4.22 1.26 0.93 3.57e-43
4.26 1.26 0.93 3.57e-43
4.3 1.26 0.93 3.57e-43
4.34 1.26 0.93 3.57e-43
4.38 1.26 0.93 3.57e-43
4.43 1.26 0.93 3.57e-43
4.47 1.26 0.93 3.57e-43
4.51 1.26 0.93 3.57e-43
4.55 1.26 0.93 3.57e-43
4.59 1.26 0.95 9.1477e-41
4.64 1.26 0.89 9.1477e-41
3.03 1.35 1.06 9.1477e-41
3.06 1.35 1.02 9.1477e-41
3.08 1.35 0.91 9.1477e-41
3.13 1.35 0.91 3.57e-43
3.16 1.35 0.91 3.57e-43
3.23 1.35 1 9.1477e-41
3.16 1.35 0.4 9.1477e-41
3.22 1.35 0.4 3.57e-43
3.36 1.35 0.4 3.57e-43
3.4 1.35 0.4 3.57e-43
3.44 1.35 0.4 3.57e-43
3.48 1.35 0.4 3.57e-43
3.52 1.35 0.4 3.57e-43
3.56 1.35 0.4 3.57e-43
3.6 1.35 0.4 3.57e-43
3.65 1.35 0.4 3.57e-43
3.69 1.35 0.4 3.57e-43
3.73 1.35 0.4 3.57e-43
3.77 1.35 0.4 3.57e-43
3.81 1.35 0.4 3.57e-43
3.85 1.35 0.4 3.57e-43
3.89 1.35 0.4 3.57e-43
3.93 1.35 0.4 3.57e-43
3.97 1.35 0.4 3.57e-43
4.01 1.35 0.4 3.57e-43
4.05 1.35 0.4 3.57e-43
4.09 1.35 0.4 3.57e-43
4.14 1.35 0.4 3.57e-43
4.18 1.35 0.4 3.57e-43
4.22 1.35 0.4 3.57e-43
4.26 1.35 0.4 3.57e-43
4.3 1.35 0.4 3.57e-43
4.34 1.35 0.4 3.57e-43
4.38 1.35 0.4 3.57e-43
4.43 1.35 0.4 3.57e-43
4.47 1.35 0.4 3.57e-43
4.51 1.35 0.4 3.57e-43
4.55 1.35 0.4 3.57e-43
4.59 1.35 0.95 9.1477e-41
4.64 1.35 0.95 3.57e-43
4.81 1.35 0.95 3.57e-43
2.92 1.44 0.95 9.1477e-41
2.84 1.44 0.95 3.57e-43
3.08 1.44 0.95 3.57e-43
3.13 1.44 0.95 3.57e-43
3.16 1.44 0.95 3.57e-43
3.23 1.44 1 9.1477e-41
3.22 1.44 1 3.57e-43
3.36 1.44 1 3.57e-43
3.4 1.44 1 3.57e-43
3.44 1.44 1 3.57e-43
3.48 1.44 1 3.57e-43
3.52 1.44 1 3.57e-43
3.56 1.44 1 3.57e-43
3.6 1.44 1 3.57e-43
3.65 1.44 1 3.57e-43
3.69 1.44 1 3.57e-43
3.73 1.44 1 3.57e-43
3.77 1.44 1 3.57e-43
3.81 1.44 1 3.57e-43
3.85 1.44 0.94 9.1477e-41
3.88 1.44 0.94 3.57e-43
3.93 1.44 0.94 3.57e-43
3.97 1.44 0.94 3.57e-43
4.01 1.44 1 9.1477e-41
4.05 1.44 1 3.57e-43
4.09 1.44 1 3.57e-43
4.14 1.44 1 3.57e-43
4.18 1.44 1 3.57e-43
4.22 1.44 1 3.57e-43
4.26 1.44 1 3.57e-43
4.3 1.44 1.01 9.1477e-41
4.36 1.44 0.61 9.1477e-41
4.4 1.44 0.61 3.57e-43
4.43 1.44 0.94 9.1477e-41
4.51 1.44 0.94 3.57e-43
4.51 1.44 0.94 3.57e-43
4.55 1.44 0.94 3.57e-43
4.59 1.44 0.95 9.1477e-41
4.64 1.44 0.95 3.57e-43
4.71 1.44 1.01 9.1477e-41
4.75 1.44 1.01 3.57e-43
3.68 1.53 1.4 3.57e-43
3.72 1.53 1.39 3.57e-43
3.76 1.53 1.41 3.57e-43
3.8 1.53 1.4 3.57e-43
3.83 1.53 1.39 3.57e-43
3.87 1.53 1.39 3.57e-43
3.91 1.53 1.39 3.57e-43
3.95 1.53 1.41 3.57e-43
3.97 1.53 0.95 9.1477e-41
4.01 1.53 0.74 9.1477e-41
4.05 1.53 0.74 3.57e-43
4.09 1.53 0.74 3.57e-43
4.14 1.53 0.74 3.57e-43
4.18 1.53 0.74 3.57e-43
4.22 1.53 0.74 3.57e-43
4.26 1.53 0.74 3.57e-43
4.3 1.53 0.74 3.57e-43
4.36 1.53 0.61 9.1477e-41
4.39 1.53 0.78 9.1477e-41
4.42 1.53 1.04 9.1477e-41
4.45 1.53 1.04 3.57e-43
4.51 1.53 1.04 3.57e-43
4.55 1.53 0.94 9.1477e-41
4.6 1.53 0.92 9.1477e-41
4.64 1.53 0.92 3.57e-43
3.38 1.62 1.36 3.57e-43
3.41 1.62 1.36 3.57e-43
3.4 1.62 1.36 3.57e-43
3.44 1.62 1.36 3.57e-43
3.48 1.62 1 3.57e-43
3.57 1.62 1.39 3.57e-43
3.61 1.62 1.4 3.57e-43
3.64 1.62 1.39 3.57e-43
3.68 1.62 1.4 3.57e-43
3.72 1.62 1.39 3.57e-43
3.76 1.62 1.41 3.57e-43
3.8 1.62 1.4 3.57e-43
3.83 1.62 1.39 3.57e-43
3.87 1.62 1.39 3.57e-43
3.91 1.62 1.39 3.57e-43
3.95 1.62 1.41 3.57e-43
3.98 1.62 1.41 3.57e-43
4.02 1.62 1.39 3.57e-43
4.06 1.62 1.39 3.57e-43
4.09 1.62 1.38 3.57e-43
4.14 1.62 1.32 3.57e-43
4.17 1.62 1.38 3.57e-43
4.22 1.62 1.05 3.57e-43
4.25 1.62 1.37 3.57e-43
4.28 1.62 1.36 3.57e-43
4.36 1.62 0.61 9.1477e-41
4.38 1.62 1 9.1477e-41
4.42 1.62 1 3.57e-43
4.45 1.62 1 3.57e-43
4.51 1.62 1 3.57e-43
4.55 1.62 0.94 9.1477e-41
4.6 1.62 0.9 9.1477e-41
4.64 1.62 0.9 3.57e-43
3.08 1.71 1 3.57e-43
3.33 1.71 1.36 9.1477e-41
3.38 1.71 1.36 3.57e-43
3.41 1.71 1.36 3.57e-43
3.4 1.71 1.36 3.57e-43
3.44 1.71 1.36 3.57e-43
3.48 1.71 1 9.1477e-41
3.57 1.71 1.39 9.1477e-41
3.61 1.71 1.4 9.1477e-41
3.64 1.71 1.39 9.1477e-41
3.68 1.71 1.4 9.1477e-41
3.72 1.71 1.39 9.1477e-41
3.76 1.71 1.41 9.1477e-41
3.8 1.71 1.4 9.1477e-41
3.83 1.71 1.39 9.1477e-41
3.87 1.71 1.39 9.1477e-41
3.91 1.71 1.39 9.1477e-41
3.95 1.71 1.41 9.1477e-41
3.98 1.71 1.41 9.1477e-41
4.02 1.71 1.39 9.1477e-41
4.06 1.71 1.39 9.1477e-41
4.09 1.71 1.38 9.1477e-41
4.17 1.71 1.38 3.57e-43
4.22 1.71 1.05 9.1477e-41
4.25 1.71 1.37 9.1477e-41
4.28 1.71 1.36 9.1477e-41
4.32 1.71 1.35 9.1477e-41
4.36 1.71 1.35 3.57e-43
4.42 1.71 1.35 3.57e-43
4.45 1.71 1.35 3.57e-43
4.51 1.71 1.35 3.57e-43
4.55 1.71 0.94 9.1477e-41
4.6 1.71 0.9 9.1477e-41
4.64 1.71 0.9 3.57e-43
3.08 1.8 1 3.57e-43
3.34 1.8 1.4 9.1477e-41
3.38 1.8 1.4 3.57e-43
3.41 1.8 1.4 3.57e-43
3.4 1.8 1 9.1477e-41
3.5 1.8 1.41 9.1477e-41
3.53 1.8 1.41 9.1477e-41
3.57 1.8 1.42 9.1477e-41
3.61 1.8 1.41 9.1477e-41
3.65 1.8 1.43 9.1477e-41
3.69 1.8 1.42 9.1477e-41
3.72 1.8 1.43 9.1477e-41
3.76 1.8 1.42 9.1477e-41
3.8 1.8 1.42 9.1477e-41
3.83 1.8 1.42 9.1477e-41
3.87 1.8 1.41 9.1477e-41
3.91 1.8 1.42 9.1477e-41
3.95 1.8 1.42 9.1477e-41
3.98 1.8 1.41 9.1477e-41
4.02 1.8 1.42 9.1477e-41
4.06 1.8 1.41 9.1477e-41
4.09 1.8 1.4 9.1477e-41
4.17 1.8 1.4 9.1477e-41
4.21 1.8 1.39 9.1477e-41
4.24 1.8 1.39 9.1477e-41
4.28 1.8 1.39 3.57e-43
4.32 1.8 1.39 3.57e-43
4.36 1.8 1.36 9.1477e-41
4.4 1.8 1.37 9.1477e-41
4.43 1.8 1.37 3.57e-43
4.51 1.8 1.37 3.57e-43
4.55 1.8 0.94 9.1477e-41
4.6 1.8 0.9 9.1477e-41
4.64 1.8 0.9 3.57e-43
3.34 1.89 1.4 3.57e-43
3.38 1.89 1.41 9.1477e-41
3.42 1.89 1.41 3.57e-43
3.4 1.89 1 9.1477e-41
3.5 1.89 1.45 9.1477e-41
3.54 1.89 1.43 9.1477e-41
3.57 1.89 1.43 9.1477e-41
3.61 1.89 1.43 9.1477e-41
3.65 1.89 1.43 9.1477e-41
3.69 1.89 1.44 9.1477e-41
3.72 1.89 1.44 9.1477e-41
3.76 1.89 1.43 9.1477e-41
3.8 1.89 1.44 9.1477e-41
3.83 1.89 1.42 9.1477e-41
3.87 1.89 1.43 9.1477e-41
3.91 1.89 1.43 9.1477e-41
3.95 1.89 1.43 9.1477e-41
3.98 1.89 1.43 9.1477e-41
4.02 1.89 1.43 9.1477e-41
4.06 1.89 1.42 9.1477e-41
4.09 1.89 1.42 9.1477e-41
4.17 1.89 1.43 9.1477e-41
4.21 1.89 1.42 9.1477e-41
4.24 1.89 1.41 9.1477e-41
4.28 1.89 1.4 9.1477e-41
4.32 1.89 1.4 3.57e-43
4.36 1.89 1.36 9.1477e-41
4.4 1.89 1.38 9.1477e-41
4.43 1.89 1.38 3.57e-43
4.51 1.89 0.96 9.1477e-41
4.55 1.89 0.99 9.1477e-41
4.59 1.89 0.94 9.1477e-41
4.64 1.89 0.94 3.57e-43
3.34 1.98 1.4 3.57e-43
3.38 1.98 1.42 9.1477e-41
3.42 1.98 1.42 9.1477e-41
3.46 1.98 1.44 9.1477e-41
3.5 1.98 1.44 9.1477e-41
3.54 1.98 1.44 9.1477e-41
3.58 1.98 1.45 9.1477e-41
3.61 1.98 1.44 9.1477e-41
3.65 1.98 1.45 9.1477e-41
3.69 1.98 1.44 9.1477e-41
3.73 1.98 1.45 9.1477e-41
3.76 1.98 1.45 9.1477e-41
3.8 1.98 1.44 9.1477e-41
3.84 1.98 1.43 9.1477e-41
3.87 1.98 1.44 9.1477e-41
3.91 1.98 1.44 9.1477e-41
3.95 1.98 1.44 9.1477e-41
3.98 1.98 1.43 9.1477e-41
4.02 1.98 1.43 9.1477e-41
4.06 1.98 1.43 9.1477e-41
4.09 1.98 1.44 9.1477e-41
4.17 1.98 1.43 9.1477e-41
4.21 1.98 1.42 9.1477e-41
4.24 1.98 1.42 9.1477e-41
4.28 1.98 1.42 9.1477e-41
4.32 1.98 1.41 9.1477e-41
4.36 1.98 1.4 9.1477e-41
4.39 1.98 1.4 9.1477e-41
4.43 1.98 1.38 9.1477e-41
4.5 1.98 1.08 9.1477e-41
4.55 1.98 0.96 9.1477e-41
4.59 1.98 0.93 9.1477e-41
4.64 1.98 0.93 3.57e-43
3.34 2.07 1.4 3.57e-43
3.39 2.07 1.43 9.1477e-41
3.42 2.07 1.43 9.1477e-41
3.46 2.07 1.43 9.1477e-41
3.5 2.07 1.44 9.1477e-41
3.54 2.07 1.44 9.1477e-41
3.58 2.07 1.45 9.1477e-41
3.61 2.07 1.45 9.1477e-41
3.65 2.07 1.45 9.1477e-41
3.69 2.07 1.44 9.1477e-41
3.73 2.07 1.45 9.1477e-41
3.76 2.07 1.45 9.1477e-41
3.8 2.07 1.46 9.1477e-41
3.84 2.07 1.45 9.1477e-41
3.87 2.07 1.45 9.1477e-41
3.91 2.07 1.45 9.1477e-41
3.95 2.07 1.45 9.1477e-41
3.98 2.07 1.45 9.1477e-41
4.02 2.07 1.45 9.1477e-41
4.06 2.07 1.44 9.1477e-41
4.09 2.07 1.44 9.1477e-41
4.17 2.07 1.43 9.1477e-41
4.21 2.07 1.43 9.1477e-41
4.24 2.07 1.43 9.1477e-41
4.28 2.07 1.43 9.1477e-41
4.32 2.07 1.41 9.1477e-41
4.36 2.07 1.4 9.1477e-41
4.39 2.07 1.4 3.57e-43
4.43 2.07 1.4 3.57e-43
4.5 2.07 1.4 3.57e-43
4.55 2.07 0.96 9.1477e-41
4.6 2.07 0.92 9.1477e-41
4.64 2.07 0.92 3.57e-43
3.09 2.16 1 3.57e-43
3.34 2.16 1.4 9.1477e-41
3.39 2.16 1.43 9.1477e-41
3.42 2.16 1.44 9.1477e-41
3.46 2.16 1.44 9.1477e-41
3.5 2.16 1.45 9.1477e-41
3.54 2.16 1.44 9.1477e-41
3.58 2.16 1.46 9.1477e-41
3.61 2.16 1.44 9.1477e-41
3.65 2.16 1.46 9.1477e-41
3.69 2.16 1.44 9.1477e-41
3.73 2.16 1.46 9.1477e-41
3.76 2.16 1.45 9.1477e-41
3.8 2.16 1.46 9.1477e-41
3.84 2.16 1.45 9.1477e-41
3.87 2.16 1.45 9.1477e-41
3.91 2.16 1.45 9.1477e-41
3.95 2.16 1.46 9.1477e-41
3.98 2.16 1.45 9.1477e-41
4.02 2.16 1.45 9.1477e-41
4.06 2.16 1.45 9.1477e-41
4.09 2.16 1.45 9.1477e-41
4.17 2.16 1.44 9.1477e-41
4.21 2.16 1.43 9.1477e-41
4.24 2.16 1.43 9.1477e-41
4.28 2.16 1.42 9.1477e-41
4.32 2.16 1.42 9.1477e-41
4.36 2.16 1.41 9.1477e-41
4.39 2.16 1.41 3.57e-43
4.43 2.16 1.38 9.1477e-41
4.48 2.16 1.3 9.1477e-41
4.52 2.16 1.24 9.1477e-41
4.57 2.16 1.24 3.57e-43
4.64 2.16 1.24 3.57e-43
3.34 2.25 1.4 3.57e-43
3.39 2.25 1.43 9.1477e-41
3.42 2.25 1.44 9.1477e-41
3.46 2.25 1.44 9.1477e-41
3.5 2.25 1.45 9.1477e-41
3.54 2.25 1.45 9.1477e-41
3.58 2.25 1.46 9.1477e-41
3.61 2.25 1.45 9.1477e-41
3.65 2.25 1.46 9.1477e-41
3.69 2.25 1.44 9.1477e-41
3.73 2.25 1.45 9.1477e-41
3.76 2.25 1.46 9.1477e-41
3.8 2.25 1.46 9.1477e-41
3.84 2.25 1.46 9.1477e-41
3.87 2.25 1.45 9.1477e-41
3.91 2.25 1.45 9.1477e-41
3.95 2.25 1.46 9.1477e-41
3.98 2.25 1.46 9.1477e-41
4.02 2.25 1.45 9.1477e-41
4.06 2.25 1.45 9.1477e-41
4.09 2.25 1.44 9.1477e-41
4.17 2.25 1.44 9.1477e-41
4.21 2.25 1.44 9.1477e-41
4.24 2.25 1.43 9.1477e-41
4.28 2.25 1.43 9.1477e-41
4.32 2.25 1.42 9.1477e-41
4.36 2.25 1.42 9.1477e-41
4.39 2.25 1.41 9.1477e-41
4.43 2.25 1.37 9.1477e-41
4.47 2.25 1.37 3.57e-43
4.52 2.25 1.37 3.57e-43
4.57 2.25 1.37 3.57e-43
4.64 2.25 1.37 3.57e-43
3.34 2.34 1.4 3.57e-43
3.39 2.34 1.44 9.1477e-41
3.42 2.34 1.44 9.1477e-41
3.46 2.34 1.45 9.1477e-41
3.5 2.34 1.47 9.1477e-41
3.54 2.34 1.45 9.1477e-41
3.58 2.34 1.46 9.1477e-41
3.61 2.34 1.45 9.1477e-41
3.65 2.34 1.46 9.1477e-41
3.69 2.34 1.45 9.1477e-41
3.73 2.34 1.45 9.1477e-41
3.76 2.34 1.45 9.1477e-41
3.8 2.34 1.46 9.1477e-41
3.84 2.34 1.45 9.1477e-41
3.87 2.34 1.45 9.1477e-41
3.91 2.34 1.45 9.1477e-41
3.95 2.34 1.46 9.1477e-41
3.98 2.34 1.45 9.1477e-41
4.02 2.34 1.45 9.1477e-41
4.06 2.34 1.46 9.1477e-41
4.09 2.34 1.45 9.1477e-41
4.17 2.34 1.44 9.1477e-41
4.21 2.34 1.43 9.1477e-41
4.24 2.34 1.44 9.1477e-41
4.28 2.34 1.43 9.1477e-41
4.32 2.34 1.41 9.1477e-41
4.36 2.34 1.42 9.1477e-41
4.39 2.34 1.42 3.57e-43
4.43 2.34 1.42 3.57e-43
4.47 2.34 1.42 3.57e-43
4.52 2.34 1.42 3.57e-43
4.57 2.34 1.18 9.1477e-41
4.63 2.34 1.18 3.57e-43
3.34 2.43 1.4 3.57e-43
3.39 2.43 1.45 9.1477e-41
3.43 2.43 1.45 9.1477e-41
3.46 2.43 1.44 9.1477e-41
3.5 2.43 1.45 9.1477e-41
3.54 2.43 1.45 9.1477e-41
3.58 2.43 1.46 9.1477e-41
3.61 2.43 1.45 9.1477e-41
3.65 2.43 1.45 9.1477e-41
3.69 2.43 1.44 9.1477e-41
3.73 2.43 1.45 9.1477e-41
3.76 2.43 1.46 9.1477e-41
3.8 2.43 1.46 9.1477e-41
3.84 2.43 1.45 9.1477e-41
3.87 2.43 1.46 9.1477e-41
3.91 2.43 1.46 9.1477e-41
3.95 2.43 1.45 9.1477e-41
3.98 2.43 1.46 9.1477e-41
4.02 2.43 1.45 9.1477e-41
4.06 2.43 1.45 9.1477e-41
4.09 2.43 1.45 9.1477e-41
4.17 2.43 1.44 9.1477e-41
4.21 2.43 1.43 9.1477e-41
4.24 2.43 1.43 9.1477e-41
4.28 2.43 1.43 9.1477e-41
4.32 2.43 1.42 9.1477e-41
4.36 2.43 1.43 9.1477e-41
4.39 2.43 1.43 3.57e-43
4.43 2.43 1.43 3.57e-43
4.47 2.43 1.43 3.57e-43
4.52 2.43 1.43 3.57e-43
4.57 2.43 1.18 9.1477e-41
4.63 2.43 1.18 3.57e-43
3.09 2.52 0.97 9.1477e-41
3.14 2.52 0.97 3.57e-43
3.16 2.52 0.97 3.57e-43
3.23 2.52 0.97 3.57e-43
3.34 2.52 1.4 9.1477e-41
3.38 2.52 1.42 9.1477e-41
3.42 2.52 1.44 9.1477e-41
3.46 2.52 1.43 9.1477e-41
3.5 2.52 1.45 9.1477e-41
3.54 2.52 1.46 9.1477e-41
3.58 2.52 1.46 9.1477e-41
3.61 2.52 1.45 9.1477e-41
3.65 2.52 1.45 9.1477e-41
3.69 2.52 1.44 9.1477e-41
3.72 2.52 1.44 9.1477e-41
3.76 2.52 1.45 9.1477e-41
3.8 2.52 1.45 9.1477e-41
3.84 2.52 1.45 9.1477e-41
3.87 2.52 1.44 9.1477e-41
3.91 2.52 1.45 9.1477e-41
3.95 2.52 1.44 9.1477e-41
3.98 2.52 1.45 9.1477e-41
4.02 2.52 1.44 9.1477e-41
4.06 2.52 1.45 9.1477e-41
4.09 2.52 1.45 9.1477e-41
4.17 2.52 1.43 9.1477e-41
4.21 2.52 1.44 9.1477e-41
4.24 2.52 1.43 9.1477e-41
4.28 2.52 1.43 9.1477e-41
4.32 2.52 1.42 9.1477e-41
4.36 2.52 1.42 9.1477e-41
4.39 2.52 1.42 3.57e-43
4.43 2.52 1.42 3.57e-43
4.47 2.52 1.42 3.57e-43
4.52 2.52 1.42 3.57e-43
4.57 2.52 1.18 9.1477e-41
4.63 2.52 1.18 3.57e-43
3.09 2.61 1.4 3.57e-43
3.39 2.61 1.43 9.1477e-41
3.42 2.61 1.43 9.1477e-41
3.46 2.61 1.44 9.1477e-41
3.5 2.61 1.43 9.1477e-41
3.54 2.61 1.44 9.1477e-41
3.58 2.61 1.45 9.1477e-41
3.61 2.61 1.44 9.1477e-41
3.65 2.61 1.44 9.1477e-41
3.69 2.61 1.43 9.1477e-41
3.72 2.61 1.44 9.1477e-41
3.76 2.61 1.45 9.1477e-41
3.8 2.61 1.44 9.1477e-41
3.84 2.61 1.44 9.1477e-41
3.87 2.61 1.43 9.1477e-41
3.91 2.61 1.44 9.1477e-41
3.95 2.61 1.44 9.1477e-41
3.98 2.61 1.45 9.1477e-41
4.02 2.61 1.44 9.1477e-41
4.06 2.61 1.43 9.1477e-41
4.09 2.61 1.43 9.1477e-41
4.17 2.61 1.43 9.1477e-41
4.21 2.61 1.43 9.1477e-41
4.24 2.61 1.43 9.1477e-41
4.28 2.61 1.42 9.1477e-41
4.32 2.61 1.4 9.1477e-41
4.36 2.61 1.41 9.1477e-41
4.39 2.61 1.41 3.57e-43
4.43 2.61 1.41 3.57e-43
4.47 2.61 1.41 3.57e-43
4.52 2.61 1.41 3.57e-43
4.57 2.61 1.18 9.1477e-41
4.63 2.61 0.98 9.1477e-41
3.39 2.7 1.43 3.57e-43
3.42 2.7 1.43 9.1477e-41
3.46 2.7 1.42 9.1477e-41
3.5 2.7 1.43 9.1477e-41
3.54 2.7 1.43 9.1477e-41
3.57 2.7 1.44 9.1477e-41
3.61 2.7 1.44 9.1477e-41
3.65 2.7 1.44 9.1477e-41
3.69 2.7 1.43 9.1477e-41
3.72 2.7 1.44 9.1477e-41
3.76 2.7 1.44 9.1477e-41
3.8 2.7 1.44 9.1477e-41
3.84 2.7 1.43 9.1477e-41
3.87 2.7 1.44 9.1477e-41
3.91 2.7 1.43 9.1477e-41
3.95 2.7 1.44 9.1477e-41
3.98 2.7 1.44 9.1477e-41
4.02 2.7 1.44 9.1477e-41
4.06 2.7 1.44 9.1477e-41
4.09 2.7 1.44 9.1477e-41
4.17 2.7 1.43 9.1477e-41
4.21 2.7 1.42 9.1477e-41
4.24 2.7 1.41 9.1477e-41
4.28 2.7 1.41 9.1477e-41
4.32 2.7 1.39 9.1477e-41
4.36 2.7 1.4 9.1477e-41
4.39 2.7 1.4 3.57e-43
4.43 2.7 1.4 3.57e-43
4.47 2.7 1.4 3.57e-43
4.52 2.7 1.4 3.57e-43
4.57 2.7 1.18 9.1477e-41
4.63 2.7 0.97 9.1477e-41
3.09 2.79 0.97 9.1477e-41
3.15 2.79 0.97 3.57e-43
3.16 2.79 0.97 3.57e-43
3.23 2.79 0.97 3.57e-43
3.34 2.79 0.97 3.57e-43
3.39 2.79 1.43 9.1477e-41
3.42 2.79 1.41 9.1477e-41
3.46 2.79 1.42 9.1477e-41
3.5 2.79 1.43 9.1477e-41
3.54 2.79 1.42 9.1477e-41
3.57 2.79 1.43 9.1477e-41
3.61 2.79 1.42 9.1477e-41
3.65 2.79 1.43 9.1477e-41
3.69 2.79 1.43 9.1477e-41
3.72 2.79 1.42 9.1477e-41
3.76 2.79 1.43 9.1477e-41
3.8 2.79 1.43 9.1477e-41
3.84 2.79 1.43 9.1477e-41
3.87 2.79 1.42 9.1477e-41
3.91 2.79 1.42 9.1477e-41
3.95 2.79 1.43 9.1477e-41
3.98 2.79 1.42 9.1477e-41
4.02 2.79 1.43 9.1477e-41
4.06 2.79 1.43 9.1477e-41
4.09 2.79 1.43 9.1477e-41
4.17 2.79 1.43 9.1477e-41
4.21 2.79 1.43 9.1477e-41
4.24 2.79 1.41 9.1477e-41
4.28 2.79 1.41 9.1477e-41
4.32 2.79 1.4 9.1477e-41
4.36 2.79 1.4 3.57e-43
4.39 2.79 1.4 3.57e-43
4.43 2.79 1.4 3.57e-43
4.47 2.79 1.4 3.57e-43
4.52 2.79 1.4 3.57e-43
4.57 2.79 1.4 3.57e-43
4.63 2.79 1.4 3.57e-43
3.09 2.88 1.43 3.57e-43
3.42 2.88 1.4 9.1477e-41
3.46 2.88 1.4 9.1477e-41
3.5 2.88 1.41 9.1477e-41
3.53 2.88 1.41 9.1477e-41
3.57 2.88 1.42 9.1477e-41
3.61 2.88 1.42 9.1477e-41
3.65 2.88 1.41 9.1477e-41
3.69 2.88 1.42 9.1477e-41
3.72 2.88 1.43 9.1477e-41
3.76 2.88 1.42 9.1477e-41
3.8 2.88 1.42 9.1477e-41
3.83 2.88 1.42 9.1477e-41
3.87 2.88 1.42 9.1477e-41
3.91 2.88 1.41 9.1477e-41
3.95 2.88 1.42 9.1477e-41
3.98 2.88 1.42 9.1477e-41
4.02 2.88 1.42 9.1477e-41
4.06 2.88 1.41 9.1477e-41
4.09 2.88 1.42 9.1477e-41
4.17 2.88 1.39 9.1477e-41
4.21 2.88 1.4 9.1477e-41
4.24 2.88 1.4 9.1477e-41
4.28 2.88 1.39 9.1477e-41
4.32 2.88 1.38 9.1477e-41
4.36 2.88 1.38 3.57e-43
4.39 2.88 1.38 3.57e-43
4.43 2.88 1.38 3.57e-43
4.47 2.88 1.38 3.57e-43
4.52 2.88 1.38 3.57e-43
4.57 2.88 1.38 3.57e-43
4.63 2.88 1.38 3.57e-43
3.09 2.97 1.43 3.57e-43
3.42 2.97 1.39 9.1477e-41
3.46 2.97 1.39 3.57e-43
3.5 2.97 1.41 9.1477e-41
3.53 2.97 1.4 9.1477e-41
3.57 2.97 1.41 9.1477e-41
3.61 2.97 1.4 9.1477e-41
3.65 2.97 1.4 9.1477e-41
3.68 2.97 1.4 9.1477e-41
3.72 2.97 1.41 9.1477e-41
3.76 2.97 1.42 9.1477e-41
3.8 2.97 1.42 9.1477e-41
3.83 2.97 1.4 9.1477e-41
3.87 2.97 1.42 9.1477e-41
3.91 2.97 1.43 9.1477e-41
3.95 2.97 1.42 9.1477e-41
3.98 2.97 1.41 9.1477e-41
4.02 2.97 1.4 9.1477e-41
4.06 2.97 1.41 9.1477e-41
4.09 2.97 1.4 9.1477e-41
4.17 2.97 1.39 9.1477e-41
4.21 2.97 1.39 9.1477e-41
4.25 2.97 1.38 9.1477e-41
4.28 2.97 1.38 9.1477e-41
4.32 2.97 1.37 9.1477e-41
4.36 2.97 1.37 3.57e-43
4.39 2.97 1.37 3.57e-43
4.43 2.97 1.37 3.57e-43
4.47 2.97 1.37 3.57e-43
4.52 2.97 1.37 3.57e-43
4.57 2.97 1.37 3.57e-43
4.63 2.97 0.97 9.1477e-41
3.09 3.06 1.43 3.57e-43
3.41 3.06 1.38 9.1477e-41
3.45 3.06 1.38 3.57e-43
3.5 3.06 1.38 3.57e-43
3.53 3.06 1.38 3.57e-43
3.57 3.06 1.41 9.1477e-41
3.61 3.06 1.38 9.1477e-41
3.64 3.06 1.39 9.1477e-41
3.68 3.06 1.39 9.1477e-41
3.72 3.06 1.38 9.1477e-41
3.76 3.06 1.4 9.1477e-41
3.8 3.06 1.4 9.1477e-41
3.83 3.06 1.4 9.1477e-41
3.87 3.06 1.41 9.1477e-41
3.91 3.06 1.4 9.1477e-41
3.95 3.06 1.4 9.1477e-41
3.98 3.06 1.4 9.1477e-41
4.02 3.06 1.39 9.1477e-41
4.06 3.06 1.39 9.1477e-41
4.09 3.06 1.39 9.1477e-41
4.17 3.06 1.38 9.1477e-41
4.21 3.06 1.38 9.1477e-41
4.25 3.06 1.37 9.1477e-41
4.28 3.06 1.37 9.1477e-41
4.32 3.06 1.35 9.1477e-41
4.36 3.06 1.35 3.57e-43
4.39 3.06 1.35 3.57e-43
4.43 3.06 1.35 3.57e-43
4.47 3.06 1.35 3.57e-43
4.52 3.06 1.35 3.57e-43
4.57 3.06 1.35 3.57e-43
4.63 3.06 0.97 9.1477e-41
3.09 3.15 1.41 3.57e-43
3.53 3.15 1.37 9.1477e-41
3.57 3.15 1.39 9.1477e-41
3.61 3.15 1.38 9.1477e-41
3.64 3.15 1.38 9.1477e-41
3.68 3.15 1.37 9.1477e-41
3.72 3.15 1.37 9.1477e-41
3.76 3.15 1.38 9.1477e-41
3.8 3.15 1.39 9.1477e-41
3.83 3.15 1.38 9.1477e-41
3.87 3.15 1.38 9.1477e-41
3.91 3.15 1.38 9.1477e-41
3.94 3.15 1.37 9.1477e-41
3.98 3.15 1.38 9.1477e-41
4.02 3.15 1.38 9.1477e-41
4.06 3.15 1.38 9.1477e-41
4.09 3.15 1.37 9.1477e-41
4.17 3.15 1.37 9.1477e-41
4.21 3.15 1.36 9.1477e-41
4.25 3.15 1.36 9.1477e-41
4.28 3.15 1.35 9.1477e-41
4.32 3.15 1.35 3.57e-43
4.36 3.15 1.35 3.57e-43
4.39 3.15 1.35 3.57e-43
4.43 3.15 1.35 3.57e-43
4.47 3.15 1.35 3.57e-43
4.52 3.15 1.35 3.57e-43
4.57 3.15 1.35 3.57e-43
4.63 3.15 0.97 9.1477e-41
3.23 3.24 1.37 3.57e-43
3.71 3.24 1.25 9.1477e-41
3.75 3.24 1.26 9.1477e-41
3.78 3.24 1.24 9.1477e-41
3.82 3.24 1.23 9.1477e-41
3.86 3.24 1.22 9.1477e-41
3.9 3.24 1.22 3.57e-43
3.94 3.24 1.22 3.57e-43
3.98 3.24 1.22 3.57e-43
4.02 3.24 1.22 3.57e-43
4.06 3.24 1.22 3.57e-43
4.09 3.24 1.22 3.57e-43
4.13 3.24 1.22 3.57e-43
4.17 3.24 1.22 3.57e-43
4.21 3.24 1.22 3.57e-43
4.25 3.24 1.22 3.57e-43
4.28 3.24 1.22 3.57e-43
4.32 3.24 1.22 3.57e-43
4.36 3.24 1.22 3.57e-43
4.39 3.24 1.22 3.57e-43
4.43 3.24 1.22 3.57e-43
4.47 3.24 1.22 3.57e-43
4.52 3.24 1.22 3.57e-43
4.57 3.24 1.22 3.57e-43
4.63 3.24 0.97 9.1477e-41
3.75 3.33 1.04 3.57e-43
3.78 3.33 1.18 9.1477e-41
3.82 3.33 1.17 9.1477e-41
3.86 3.33 1.15 9.1477e-41
3.9 3.33 1.14 9.1477e-41
3.94 3.33 1.14 3.57e-43
3.98 3.33 1.14 3.57e-43
4.02 3.33 1.14 3.57e-43
4.06 3.33 1.14 3.57e-43
4.09 3.33 1.14 3.57e-43
4.13 3.33 1.14 3.57e-43
4.17 3.33 1.14 3.57e-43
4.21 3.33 1.14 3.57e-43
4.25 3.33 1.14 3.57e-43
4.28 3.33 1.14 3.57e-43
4.32 3.33 1.14 3.57e-43
4.36 3.33 1.14 3.57e-43
4.39 3.33 1.14 3.57e-43
4.43 3.33 1.14 3.57e-43
4.47 3.33 1.14 3.57e-43
4.52 3.33 1.14 3.57e-43
4.57 3.33 1.14 3.57e-43
4.63 3.33 0.97 9.1477e-41
3.1 3.42 0.79 9.1477e-41
3.16 3.42 0.87 9.1477e-41
3.21 3.42 0.87 3.57e-43
3.34 3.42 1.4 9.1477e-41
3.31 3.42 1 9.1477e-41
3.35 3.42 0.99 9.1477e-41
3.4 3.42 1.04 9.1477e-41
3.44 3.42 1.03 9.1477e-41
3.48 3.42 1.04 9.1477e-41
3.52 3.42 1.04 3.57e-43
3.61 3.42 1.04 3.57e-43
3.64 3.42 1.04 3.57e-43
3.68 3.42 1.04 3.57e-43
3.71 3.42 1.04 3.57e-43
3.75 3.42 1.04 3.57e-43
3.78 3.42 1.04 3.57e-43
3.82 3.42 1.04 3.57e-43
3.86 3.42 1.04 3.57e-43
3.9 3.42 1.04 3.57e-43
3.94 3.42 1.04 3.57e-43
3.98 3.42 1.04 3.57e-43
4.02 3.42 1.04 3.57e-43
4.06 3.42 1.04 3.57e-43
4.09 3.42 1.04 3.57e-43
4.13 3.42 1.04 3.57e-43
4.17 3.42 1.04 3.57e-43
4.21 3.42 1.04 3.57e-43
4.25 3.42 1.04 3.57e-43
4.28 3.42 1.04 3.57e-43
4.32 3.42 1.04 3.57e-43
4.36 3.42 1.04 3.57e-43
4.39 3.42 1.41 9.1477e-41
4.47 3.42 0.96 9.1477e-41
4.51 3.42 0.96 3.57e-43
4.52 3.42 1.24 9.1477e-41
4.6 3.42 0.85 9.1477e-41
4.65 3.42 0.83 9.1477e-41
3.16 3.51 0.87 9.1477e-41
3.18 3.51 0.72 9.1477e-41
3.24 3.51 0.8 9.1477e-41
3.28 3.51 0.8 3.57e-43
3.35 3.51 0.8 3.57e-43
3.4 3.51 0.8 3.57e-43
3.44 3.51 0.8 3.57e-43
3.48 3.51 0.8 3.57e-43
3.52 3.51 0.8 3.57e-43
3.61 3.51 1.38 9.1477e-41
3.6 3.51 0.98 9.1477e-41
3.65 3.51 1.01 9.1477e-41
3.69 3.51 1.02 9.1477e-41
3.73 3.51 1.04 9.1477e-41
3.77 3.51 1.05 9.1477e-41
3.81 3.51 1.03 9.1477e-41
3.85 3.51 1.03 9.1477e-41
3.89 3.51 1.02 9.1477e-41
3.93 3.51 0.97 9.1477e-41
3.97 3.51 0.98 9.1477e-41
4.01 3.51 0.97 9.1477e-41
4.05 3.51 0.97 9.1477e-41
4.09 3.51 0.98 9.1477e-41
4.18 3.51 0.96 9.1477e-41
4.22 3.51 0.97 9.1477e-41
4.26 3.51 0.97 3.57e-43
4.28 3.51 0.97 3.57e-43
4.32 3.51 0.97 3.57e-43
4.36 3.51 0.97 3.57e-43
4.39 3.51 0.97 3.57e-43
4.47 3.51 0.96 9.1477e-41
4.52 3.51 0.81 9.1477e-41
4.57 3.51 0.8 9.1477e-41
4.61 3.51 0.77 9.1477e-41
3.23 3.6 0.48 9.1477e-41
3.29 3.6 0.59 9.1477e-41
3.34 3.6 0.59 3.57e-43
3.44 3.6 1.03 9.1477e-41
3.44 3.6 0.71 9.1477e-41
3.48 3.6 0.7 9.1477e-41
3.53 3.6 0.69 9.1477e-41
3.57 3.6 0.71 9.1477e-41
3.62 3.6 0.73 9.1477e-41
3.66 3.6 0.75 9.1477e-41
3.71 3.6 0.75 9.1477e-41
3.75 3.6 0.75 9.1477e-41
3.8 3.6 0.78 9.1477e-41
3.84 3.6 0.88 9.1477e-41
3.89 3.6 0.88 3.57e-43
3.93 3.6 0.88 3.57e-43
3.97 3.6 0.88 3.57e-43
4.01 3.6 0.88 3.57e-43
4.05 3.6 0.88 3.57e-43
4.09 3.6 0.88 3.57e-43
4.14 3.6 0.88 3.57e-43
4.18 3.6 0.96 9.1477e-41
4.22 3.6 0.75 9.1477e-41
4.27 3.6 0.71 9.1477e-41
4.31 3.6 0.71 9.1477e-41
4.35 3.6 0.73 9.1477e-41
4.4 3.6 0.67 9.1477e-41
4.45 3.6 0.64 9.1477e-41
4.49 3.6 0.63 9.1477e-41
4.54 3.6 0.54 9.1477e-41
3.62 3.69 0.73 9.1477e-41
3.6 3.69 0.73 3.57e-43
3.71 3.69 0.75 9.1477e-41
3.73 3.69 0.45 9.1477e-41
3.78 3.69 0.5 9.1477e-41
3.82 3.69 0.52 9.1477e-41
3.87 3.69 0.54 9.1477e-41
3.92 3.69 0.53 9.1477e-41
3.96 3.69 0.53 9.1477e-41
4.01 3.69 0.53 9.1477e-41
4.05 3.69 0.54 9.1477e-41
4.09 3.69 0.52 9.1477e-41
4.19 3.69 0.49 9.1477e-41
4.23 3.69 0.44 9.1477e-41
