# .PCD v.7 - Point Cloud Data file format
VERSION .7
FIELDS x y z rgb
SIZE 4 4 4 4
TYPE F F F F
WIDTH 1432
HEIGHT 1
POINTS 1432
DATA ascii
6.21 0 0.54 9.1477e-41
6.26 0 0.54 3.57e-43
6.34 0 0.54 3.57e-43
6.44 0 0.54 3.57e-43
6.49 0 0.54 3.57e-43
6.55 0 0.54 3.57e-43
6.86 0 0.54 3.57e-43
6.64 0 0.67 9.1477e-41
6.7 0 0.67 9.1477e-41
6.75 0 0.68 9.1477e-41
6.82 0 0.67 9.1477e-41
6.87 0 0.67 3.57e-43
7.32 0 0.67 3.57e-43
7.38 0 0.67 3.57e-43
7.46 0 0.67 3.57e-43
6.21 0.08 0.54 9.1477e-41
6.23 0.08 0.6 9.1477e-41
6.28 0.08 0.62 9.1477e-41
6.33 0.08 0.62 3.57e-43
6.44 0.08 0.62 3.57e-43
6.49 0.08 0.62 3.57e-43
6.55 0.08 0.62 3.57e-43
6.86 0.08 0.62 3.57e-43
6.92 0.08 0.62 3.57e-43
6.64 0.08 0.62 3.57e-43
6.7 0.08 0.62 3.57e-43
6.75 0.08 0.68 9.1477e-41
6.78 0.08 0.73 9.1477e-41
6.85 0.08 0.73 3.57e-43
7.32 0.08 0.73 3.57e-43
7.38 0.08 0.73 3.57e-43
7.46 0.08 0.73 3.57e-43
7.2 0.08 0.73 3.57e-43
6.12 0.16 0.63 9.1477e-41
6.16 0.16 0.64 9.1477e-41
6.22 0.16 0.63 9.1477e-41
6.28 0.16 0.63 3.57e-43
6.33 0.16 0.63 3.57e-43
6.44 0.16 0.63 3.57e-43
6.49 0.16 0.63 3.57e-43
6.55 0.16 0.63 3.57e-43
6.86 0.16 0.63 3.57e-43
6.92 0.16 0.63 3.57e-43
6.64 0.16 0.63 3.57e-43
6.7 0.16 0.63 3.57e-43
6.75 0.16 0.63 3.57e-43
6.78 0.16 0.63 3.57e-43
6.85 0.16 0.63 3.57e-43
7.32 0.16 0.63 3.57e-43
7.38 0.16 0.63 3.57e-43
7.46 0.16 0.63 3.57e-43
7.53 0.16 0.63 3.57e-43
7.2 0.16 0.64 9.1477e-41
7.25 0.16 0.65 9.1477e-41
7.33 0.16 0.63 9.1477e-41
6.06 0.24 0.65 9.1477e-41
6.11 0.24 0.64 9.1477e-41
6.15 0.24 0.68 9.1477e-41
6.18 0.24 0.73 9.1477e-41
6.23 0.24 0.73 3.57e-43
6.33 0.24 0.73 3.57e-43
6.44 0.24 0.73 3.57e-43
6.49 0.24 0.73 3.57e-43
6.55 0.24 0.73 3.57e-43
6.86 0.24 0.73 3.57e-43
6.92 0.24 0.73 3.57e-43
6.64 0.24 0.73 3.57e-43
6.7 0.24 0.73 3.57e-43
6.75 0.24 0.73 3.57e-43
6.78 0.24 0.73 3.57e-43
6.85 0.24 0.73 3.57e-43
7.32 0.24 0.73 3.57e-43
7.38 0.24 0.73 3.57e-43
7.46 0.24 0.73 3.57e-43
7.53 0.24 0.73 3.57e-43
7.2 0.24 0.73 3.57e-43
7.25 0.24 0.65 9.1477e-41
7.27 0.24 0.72 9.1477e-41
7.36 0.24 0.69 9.1477e-41
7.47 0.24 0.62 9.1477e-41
5.99 0.32 0.68 9.1477e-41
6.03 0.32 0.7 9.1477e-41
6.09 0.32 0.69 9.1477e-41
6.14 0.32 0.7 9.1477e-41
6.17 0.32 0.7 3.57e-43
6.23 0.32 0.7 3.57e-43
6.33 0.32 0.7 3.57e-43
6.44 0.32 0.7 3.57e-43
6.49 0.32 0.7 3.57e-43
6.55 0.32 0.7 3.57e-43
6.86 0.32 0.7 3.57e-43
6.92 0.32 0.7 3.57e-43
6.64 0.32 0.7 3.57e-43
6.7 0.32 0.7 3.57e-43
6.75 0.32 0.7 3.57e-43
6.78 0.32 0.7 3.57e-43
6.85 0.32 0.7 3.57e-43
7.32 0.32 0.7 3.57e-43
7.38 0.32 0.7 3.57e-43
7.46 0.32 0.7 3.57e-43
7.53 0.32 0.7 3.57e-43
7.2 0.32 0.7 3.57e-43
7.25 0.32 0.7 3.57e-43
7.27 0.32 0.7 3.57e-43
7.36 0.32 0.69 9.1477e-41
7.46 0.32 0.64 9.1477e-41
7.52 0.32 0.64 9.1477e-41
5.98 0.4 0.71 9.1477e-41
6.02 0.4 0.75 9.1477e-41
6.05 0.4 0.79 9.1477e-41
6.1 0.4 0.79 3.57e-43
6.17 0.4 0.79 3.57e-43
6.23 0.4 0.79 3.57e-43
6.33 0.4 0.79 3.57e-43
6.44 0.4 0.79 3.57e-43
6.49 0.4 0.79 3.57e-43
6.55 0.4 0.79 3.57e-43
6.86 0.4 0.79 3.57e-43
6.92 0.4 0.79 3.57e-43
6.64 0.4 0.79 3.57e-43
6.7 0.4 0.79 3.57e-43
6.75 0.4 0.79 3.57e-43
6.78 0.4 0.79 3.57e-43
6.85 0.4 0.79 3.57e-43
7.32 0.4 0.79 3.57e-43
7.38 0.4 0.79 3.57e-43
7.46 0.4 0.79 3.57e-43
7.53 0.4 0.79 3.57e-43
7.2 0.4 0.79 3.57e-43
7.25 0.4 0.79 3.57e-43
7.27 0.4 0.79 3.57e-43
7.36 0.4 0.69 9.1477e-41
7.37 0.4 0.76 9.1477e-41
7.43 0.4 0.76 9.1477e-41
5.98 0.48 0.73 3.57e-43
6.01 0.48 0.76 9.1477e-41
6.05 0.48 0.79 9.1477e-41
6.1 0.48 0.79 3.57e-43
6.17 0.48 0.79 3.57e-43
6.23 0.48 0.79 3.57e-43
6.33 0.48 0.79 3.57e-43
6.44 0.48 0.79 3.57e-43
6.49 0.48 0.79 3.57e-43
6.55 0.48 0.79 3.57e-43
6.86 0.48 0.79 3.57e-43
6.92 0.48 0.79 3.57e-43
6.64 0.48 0.79 3.57e-43
6.7 0.48 0.79 3.57e-43
6.75 0.48 0.79 3.57e-43
6.78 0.48 0.79 3.57e-43
6.85 0.48 0.79 3.57e-43
7.32 0.48 0.79 3.57e-43
7.38 0.48 0.79 3.57e-43
7.46 0.48 0.79 3.57e-43
7.53 0.48 0.79 3.57e-43
7.2 0.48 0.79 3.57e-43
7.25 0.48 0.79 3.57e-43
7.27 0.48 0.79 3.57e-43
7.36 0.48 0.79 3.57e-43
7.37 0.48 0.79 3.57e-43
7.43 0.48 0.76 9.1477e-41
7.51 0.48 0.75 9.1477e-41
5.93 0.56 0.41 9.1477e-41
5.95 0.56 0.41 3.57e-43
6.17 0.56 0.41 3.57e-43
5.98 0.56 0.73 9.1477e-41
5.99 0.56 0.83 9.1477e-41
6.04 0.56 0.83 3.57e-43
6.1 0.56 0.83 3.57e-43
6.17 0.56 0.83 3.57e-43
6.23 0.56 0.83 3.57e-43
6.33 0.56 0.83 3.57e-43
6.44 0.56 0.83 3.57e-43
6.49 0.56 0.83 3.57e-43
6.55 0.56 0.83 3.57e-43
6.86 0.56 0.83 3.57e-43
6.92 0.56 0.83 3.57e-43
6.64 0.56 0.83 3.57e-43
6.7 0.56 0.83 3.57e-43
6.75 0.56 0.83 3.57e-43
6.78 0.56 0.83 3.57e-43
6.85 0.56 0.83 3.57e-43
7.32 0.56 0.83 3.57e-43
7.38 0.56 0.83 3.57e-43
7.46 0.56 0.83 3.57e-43
7.53 0.56 0.83 3.57e-43
7.2 0.56 0.83 3.57e-43
7.25 0.56 0.83 3.57e-43
7.27 0.56 0.83 3.57e-43
7.36 0.56 0.83 3.57e-43
7.37 0.56 0.83 3.57e-43
7.43 0.56 0.76 9.1477e-41
7.48 0.56 0.79 9.1477e-41
5.92 0.64 0.44 9.1477e-41
5.94 0.64 0.44 3.57e-43
6.17 0.64 0.44 3.57e-43
5.98 0.64 0.73 9.1477e-41
5.98 0.64 0.84 9.1477e-41
6.03 0.64 0.84 3.57e-43
6.1 0.64 0.84 3.57e-43
6.17 0.64 0.84 3.57e-43
6.23 0.64 0.84 3.57e-43
6.33 0.64 0.84 3.57e-43
6.44 0.64 0.84 3.57e-43
6.49 0.64 0.84 3.57e-43
6.55 0.64 0.84 3.57e-43
6.86 0.64 0.84 3.57e-43
6.5 0.64 0.84 3.57e-43
6.7 0.64 0.84 3.57e-43
6.75 0.64 0.84 3.57e-43
6.78 0.64 0.84 3.57e-43
6.85 0.64 0.84 3.57e-43
7.32 0.64 0.84 3.57e-43
7.38 0.64 0.84 3.57e-43
7.46 0.64 0.84 3.57e-43
7.53 0.64 0.84 3.57e-43
7.2 0.64 0.84 3.57e-43
7.25 0.64 0.84 3.57e-43
7.27 0.64 0.84 3.57e-43
7.36 0.64 0.84 3.57e-43
7.37 0.64 0.84 3.57e-43
7.43 0.64 0.84 3.57e-43
7.48 0.64 0.79 9.1477e-41
7.54 0.64 0.8 9.1477e-41
5.93 0.72 0.43 9.1477e-41
5.94 0.72 0.43 3.57e-43
6.17 0.72 0.43 3.57e-43
5.98 0.72 0.43 3.57e-43
5.98 0.72 0.84 9.1477e-41
6.02 0.72 0.84 3.57e-43
6.1 0.72 0.84 3.57e-43
6.17 0.72 0.84 3.57e-43
6.23 0.72 0.84 3.57e-43
6.33 0.72 0.84 3.57e-43
6.44 0.72 0.84 3.57e-43
6.49 0.72 0.84 3.57e-43
6.55 0.72 0.84 3.57e-43
6.86 0.72 0.84 3.57e-43
6.92 0.72 0.84 3.57e-43
6.5 0.72 0.84 3.57e-43
6.7 0.72 0.66 9.1477e-41
6.62 0.72 0.93 9.1477e-41
6.67 0.72 0.93 9.1477e-41
6.72 0.72 0.95 9.1477e-41
6.79 0.72 0.93 9.1477e-41
6.85 0.72 0.93 9.1477e-41
6.9 0.72 0.93 3.57e-43
7.53 0.72 0.93 3.57e-43
7.2 0.72 0.93 3.57e-43
7.25 0.72 0.93 3.57e-43
7.27 0.72 0.93 3.57e-43
7.36 0.72 0.93 3.57e-43
7.37 0.72 0.93 3.57e-43
7.43 0.72 0.93 3.57e-43
7.48 0.72 0.93 3.57e-43
7.54 0.72 0.8 9.1477e-41
5.93 0.8 0.43 9.1477e-41
5.94 0.8 0.43 3.57e-43
6.17 0.8 0.43 3.57e-43
5.98 0.8 0.43 3.57e-43
5.98 0.8 0.84 9.1477e-41
6.02 0.8 0.84 3.57e-43
6.1 0.8 0.84 3.57e-43
6.17 0.8 0.84 3.57e-43
6.23 0.8 0.84 3.57e-43
6.33 0.8 0.62 9.1477e-41
6.25 0.8 0.92 9.1477e-41
6.29 0.8 0.94 9.1477e-41
6.35 0.8 0.93 9.1477e-41
6.4 0.8 0.95 9.1477e-41
6.46 0.8 0.93 9.1477e-41
6.5 0.8 0.94 9.1477e-41
6.56 0.8 0.95 9.1477e-41
6.6 0.8 0.96 9.1477e-41
6.66 0.8 0.95 9.1477e-41
6.72 0.8 0.95 9.1477e-41
6.77 0.8 0.96 9.1477e-41
6.82 0.8 0.98 9.1477e-41
6.88 0.8 0.97 9.1477e-41
6.94 0.8 0.96 9.1477e-41
7.01 0.8 0.94 9.1477e-41
7.08 0.8 0.92 9.1477e-41
7.14 0.8 0.93 9.1477e-41
7.22 0.8 0.93 3.57e-43
7.37 0.8 0.93 3.57e-43
7.43 0.8 0.93 3.57e-43
7.48 0.8 0.93 3.57e-43
7.54 0.8 0.8 9.1477e-41
5.92 0.88 0.44 9.1477e-41
5.93 0.88 0.44 3.57e-43
6.17 0.88 0.44 3.57e-43
5.98 0.88 0.44 3.57e-43
5.98 0.88 0.84 9.1477e-41
6.01 0.88 0.84 3.57e-43
6.1 0.88 0.84 3.57e-43
6.17 0.88 0.76 9.1477e-41
6.15 0.88 0.92 9.1477e-41
6.2 0.88 0.92 9.1477e-41
6.24 0.88 0.94 9.1477e-41
6.29 0.88 0.94 9.1477e-41
6.35 0.88 0.93 9.1477e-41
6.38 0.88 0.93 3.57e-43
6.46 0.88 0.93 3.57e-43
6.5 0.88 0.93 3.57e-43
6.56 0.88 0.93 3.57e-43
6.6 0.88 0.93 3.57e-43
6.66 0.88 0.93 3.57e-43
6.72 0.88 0.93 3.57e-43
6.77 0.88 0.93 3.57e-43
6.82 0.88 0.93 3.57e-43
6.88 0.88 0.93 3.57e-43
6.94 0.88 0.93 3.57e-43
7.01 0.88 0.93 3.57e-43
7.08 0.88 0.93 3.57e-43
7.14 0.88 0.93 9.1477e-41
7.18 0.88 0.95 9.1477e-41
7.26 0.88 0.92 9.1477e-41
7.33 0.88 0.92 3.57e-43
7.48 0.88 0.92 3.57e-43
7.54 0.88 0.8 9.1477e-41
5.92 0.96 0.46 9.1477e-41
5.94 0.96 0.46 3.57e-43
6.17 0.96 0.46 3.57e-43
5.98 0.96 0.46 3.57e-43
5.98 0.96 0.46 3.57e-43
6.01 0.96 0.46 3.57e-43
6.1 0.96 0.8 9.1477e-41
6.09 0.96 0.93 9.1477e-41
6.14 0.96 0.93 3.57e-43
6.2 0.96 0.93 3.57e-43
6.24 0.96 0.94 9.1477e-41
6.28 0.96 0.94 3.57e-43
6.35 0.96 0.94 3.57e-43
6.38 0.96 0.94 3.57e-43
6.46 0.96 0.94 3.57e-43
6.5 0.96 0.94 3.57e-43
6.56 0.96 0.94 3.57e-43
6.6 0.96 0.94 3.57e-43
6.66 0.96 0.94 3.57e-43
6.72 0.96 0.94 3.57e-43
6.77 0.96 0.94 3.57e-43
6.82 0.96 0.94 3.57e-43
6.88 0.96 0.94 3.57e-43
6.94 0.96 0.94 3.57e-43
7.01 0.96 0.94 3.57e-43
7.08 0.96 0.94 3.57e-43
7.14 0.96 0.94 3.57e-43
7.18 0.96 0.94 3.57e-43
7.26 0.96 0.94 3.57e-43
7.33 0.96 0.91 9.1477e-41
7.4 0.96 0.92 9.1477e-41
7.45 0.96 0.93 9.1477e-41
7.01 1.04 0.99 3.57e-43
7.02 1.04 1.02 9.1477e-41
7.06 1.04 1.05 9.1477e-41
7.12 1.04 1.05 9.1477e-41
7.19 1.04 1.05 3.57e-43
7.33 1.04 1.05 3.57e-43
7.4 1.04 0.92 9.1477e-41
7.42 1.04 0.98 9.1477e-41
5.9 1.12 0.73 3.57e-43
5.98 1.12 0.73 3.57e-43
6.01 1.12 0.73 3.57e-43
6.1 1.12 0.73 3.57e-43
6.09 1.12 0.73 3.57e-43
6.14 1.12 0.73 3.57e-43
6.2 1.12 0.73 3.57e-43
6.24 1.12 0.73 3.57e-43
6.28 1.12 0.73 3.57e-43
6.35 1.12 0.73 3.57e-43
6.38 1.12 0.73 3.57e-43
6.46 1.12 0.73 3.57e-43
6.5 1.12 0.73 3.57e-43
6.56 1.12 0.73 3.57e-43
6.6 1.12 0.96 9.1477e-41
6.64 1.12 0.99 9.1477e-41
6.68 1.12 0.99 3.57e-43
6.77 1.12 0.99 3.57e-43
6.82 1.12 0.99 3.57e-43
6.88 1.12 0.99 3.57e-43
6.94 1.12 0.99 3.57e-43
7.01 1.12 0.99 3.57e-43
7.02 1.12 0.99 3.57e-43
7.06 1.12 0.99 3.57e-43
7.12 1.12 0.99 3.57e-43
7.19 1.12 0.99 3.57e-43
7.33 1.12 0.99 3.57e-43
7.4 1.12 0.92 9.1477e-41
7.4 1.12 1 9.1477e-41
7.44 1.12 1.04 9.1477e-41
5.9 1.2 0.73 3.57e-43
5.98 1.2 0.73 3.57e-43
6.01 1.2 0.73 3.57e-43
6.1 1.2 0.73 3.57e-43
6.09 1.2 0.73 3.57e-43
6.14 1.2 0.73 3.57e-43
6.2 1.2 0.73 3.57e-43
6.24 1.2 0.73 3.57e-43
6.28 1.2 0.73 3.57e-43
6.35 1.2 0.73 3.57e-43
6.38 1.2 0.73 3.57e-43
6.46 1.2 0.73 3.57e-43
6.5 1.2 0.73 3.57e-43
6.56 1.2 0.73 3.57e-43
6.6 1.2 0.96 9.1477e-41
6.65 1.2 0.96 9.1477e-41
6.73 1.2 0.93 9.1477e-41
6.79 1.2 0.92 9.1477e-41
6.84 1.2 0.92 3.57e-43
6.88 1.2 0.92 3.57e-43
6.94 1.2 0.92 3.57e-43
7.01 1.2 0.92 3.57e-43
7.02 1.2 0.92 3.57e-43
7.06 1.2 0.92 3.57e-43
7.12 1.2 0.92 3.57e-43
7.19 1.2 0.92 3.57e-43
7.33 1.2 0.92 3.57e-43
7.4 1.2 0.92 3.57e-43
7.4 1.2 1 9.1477e-41
7.4 1.2 1.09 9.1477e-41
6.6 1.28 0.93 3.57e-43
6.66 1.28 0.95 9.1477e-41
6.72 1.28 0.94 9.1477e-41
6.79 1.28 0.93 9.1477e-41
6.83 1.28 0.96 9.1477e-41
6.88 1.28 0.96 3.57e-43
6.94 1.28 0.96 3.57e-43
7.01 1.28 0.96 3.57e-43
7.02 1.28 0.96 3.57e-43
7.06 1.28 0.96 3.57e-43
7.12 1.28 0.96 3.57e-43
7.19 1.28 0.96 3.57e-43
7.33 1.28 0.96 3.57e-43
7.4 1.28 0.96 3.57e-43
7.4 1.28 1 9.1477e-41
7.39 1.28 1.1 9.1477e-41
5.9 1.36 0.54 3.57e-43
5.83 1.36 0.99 9.1477e-41
5.87 1.36 1.01 9.1477e-41
5.91 1.36 1.02 9.1477e-41
6 1.36 0.93 9.1477e-41
6.03 1.36 0.93 3.57e-43
6.09 1.36 0.93 3.57e-43
6.14 1.36 0.93 3.57e-43
6.2 1.36 0.93 3.57e-43
6.24 1.36 0.93 3.57e-43
6.28 1.36 0.93 3.57e-43
6.35 1.36 0.93 3.57e-43
6.38 1.36 0.93 3.57e-43
6.46 1.36 0.93 3.57e-43
6.5 1.36 0.93 3.57e-43
6.56 1.36 0.93 3.57e-43
6.6 1.36 0.93 3.57e-43
6.66 1.36 0.93 3.57e-43
6.72 1.36 0.93 3.57e-43
6.79 1.36 0.93 3.57e-43
6.83 1.36 0.93 3.57e-43
6.88 1.36 0.93 3.57e-43
6.94 1.36 0.93 3.57e-43
7.01 1.36 0.93 3.57e-43
7.02 1.36 0.93 3.57e-43
7.06 1.36 0.93 3.57e-43
7.12 1.36 0.93 3.57e-43
7.19 1.36 0.93 3.57e-43
7.33 1.36 0.93 3.57e-43
7.4 1.36 0.93 3.57e-43
7.4 1.36 0.93 3.57e-43
7.39 1.36 0.93 3.57e-43
8.49 1.36 0.93 3.57e-43
5.9 1.44 0.54 3.57e-43
5.83 1.44 0.54 3.57e-43
5.87 1.44 1.01 9.1477e-41
5.97 1.44 0.86 9.1477e-41
6.02 1.44 0.86 3.57e-43
6.03 1.44 0.86 3.57e-43
6.09 1.44 0.86 3.57e-43
6.14 1.44 0.94 9.1477e-41
6.1 1.44 0.94 3.57e-43
6.24 1.44 0.94 3.57e-43
6.28 1.44 0.94 3.57e-43
6.35 1.44 0.94 3.57e-43
6.38 1.44 0.94 3.57e-43
6.46 1.44 0.94 3.57e-43
6.5 1.44 0.94 9.1477e-41
6.78 1.44 0.51 9.1477e-41
6.72 1.44 0.51 3.57e-43
6.66 1.44 0.51 3.57e-43
6.72 1.44 0.94 9.1477e-41
6.91 1.44 0.94 3.57e-43
6.83 1.44 0.94 3.57e-43
6.88 1.44 0.94 3.57e-43
6.94 1.44 0.94 3.57e-43
7.01 1.44 0.94 3.57e-43
7.02 1.44 0.94 3.57e-43
7.06 1.44 0.94 3.57e-43
7.12 1.44 0.94 3.57e-43
7.19 1.44 0.94 3.57e-43
7.33 1.44 0.94 3.57e-43
7.4 1.44 0.94 3.57e-43
7.4 1.44 0.94 3.57e-43
7.39 1.44 1.1 9.1477e-41
7.38 1.44 1.21 9.1477e-41
7.58 1.44 1.01 9.1477e-41
7.65 1.44 1.01 9.1477e-41
5.91 1.52 1.01 3.57e-43
5.97 1.52 0.88 9.1477e-41
6.01 1.52 0.88 3.57e-43
6.03 1.52 0.88 3.57e-43
6.09 1.52 0.88 3.57e-43
6.14 1.52 0.88 3.57e-43
6.1 1.52 0.88 3.57e-43
6.24 1.52 0.88 3.57e-43
6.28 1.52 0.88 3.57e-43
6.35 1.52 0.88 3.57e-43
6.38 1.52 0.88 3.57e-43
6.46 1.52 0.88 3.57e-43
6.5 1.52 0.88 3.57e-43
6.78 1.52 0.88 3.57e-43
6.72 1.52 0.88 3.57e-43
6.66 1.52 0.96 9.1477e-41
6.87 1.52 0.68 9.1477e-41
6.92 1.52 0.7 9.1477e-41
6.64 1.52 0.7 3.57e-43
6.88 1.52 0.7 3.57e-43
6.94 1.52 0.7 3.57e-43
7.01 1.52 0.7 3.57e-43
7.02 1.52 0.7 3.57e-43
7.06 1.52 0.7 3.57e-43
7.12 1.52 0.7 3.57e-43
7.19 1.52 0.7 3.57e-43
7.33 1.52 0.7 3.57e-43
7.4 1.52 0.7 3.57e-43
7.4 1.52 0.7 3.57e-43
7.39 1.52 1.1 9.1477e-41
7.34 1.52 1.25 9.1477e-41
5.91 1.6 1.01 3.57e-43
5.97 1.6 0.88 9.1477e-41
6.01 1.6 0.88 3.57e-43
6.03 1.6 0.88 3.57e-43
6.09 1.6 0.88 3.57e-43
6.14 1.6 0.88 3.57e-43
6.1 1.6 0.88 3.57e-43
6.24 1.6 0.88 3.57e-43
6.28 1.6 0.88 3.57e-43
6.35 1.6 0.88 3.57e-43
6.38 1.6 0.88 3.57e-43
6.46 1.6 0.93 9.1477e-41
6.31 1.6 0.93 3.57e-43
6.78 1.6 0.93 3.57e-43
6.72 1.6 0.93 3.57e-43
6.66 1.6 0.96 9.1477e-41
6.87 1.6 0.68 9.1477e-41
6.96 1.6 0.68 3.57e-43
6.64 1.6 0.68 3.57e-43
6.88 1.6 0.68 3.57e-43
6.94 1.6 0.68 3.57e-43
7.01 1.6 0.68 3.57e-43
7.02 1.6 0.68 3.57e-43
7.06 1.6 0.68 3.57e-43
7.12 1.6 0.68 3.57e-43
7.19 1.6 0.68 3.57e-43
7.33 1.6 0.68 3.57e-43
7.4 1.6 0.68 3.57e-43
7.4 1.6 0.68 3.57e-43
7.39 1.6 1.1 9.1477e-41
7.35 1.6 1.25 9.1477e-41
5.97 1.68 0.88 3.57e-43
6 1.68 0.88 3.57e-43
6.03 1.68 0.96 3.57e-43
6.26 1.68 0.54 3.57e-43
6.31 1.68 0.54 3.57e-43
6.1 1.68 1.15 9.1477e-41
6.41 1.68 1.15 3.57e-43
6.28 1.68 1.15 3.57e-43
6.35 1.68 0.93 9.1477e-41
6.21 1.68 0.93 3.57e-43
6.46 1.68 0.93 3.57e-43
6.31 1.68 0.93 3.57e-43
6.78 1.68 0.93 3.57e-43
6.72 1.68 0.93 3.57e-43
6.66 1.68 0.93 3.57e-43
6.87 1.68 0.93 3.57e-43
6.96 1.68 0.93 3.57e-43
6.64 1.68 0.93 3.57e-43
6.88 1.68 0.93 3.57e-43
6.94 1.68 0.93 3.57e-43
7.01 1.68 0.93 3.57e-43
7.02 1.68 0.93 3.57e-43
7.06 1.68 0.93 3.57e-43
7.12 1.68 0.93 3.57e-43
7.19 1.68 0.93 3.57e-43
7.33 1.68 0.93 3.57e-43
7.4 1.68 0.93 3.57e-43
7.4 1.68 0.93 3.57e-43
7.39 1.68 0.93 3.57e-43
7.35 1.68 1.25 9.1477e-41
5.97 1.76 0.88 3.57e-43
6 1.76 0.88 3.57e-43
6.03 1.76 0.96 9.1477e-41
6.26 1.76 0.54 9.1477e-41
6.31 1.76 0.54 9.1477e-41
6.37 1.76 0.53 9.1477e-41
6.43 1.76 0.53 3.57e-43
6.28 1.76 0.53 3.57e-43
6.35 1.76 0.93 9.1477e-41
6.2 1.76 1.34 9.1477e-41
6.24 1.76 1.36 9.1477e-41
6.29 1.76 1.36 3.57e-43
6.78 1.76 1.36 3.57e-43
6.72 1.76 1.36 3.57e-43
6.66 1.76 1.36 3.57e-43
6.87 1.76 1.36 3.57e-43
6.96 1.76 1.36 3.57e-43
6.64 1.76 1.36 3.57e-43
6.88 1.76 1.36 3.57e-43
6.94 1.76 1.36 3.57e-43
7.01 1.76 1.36 3.57e-43
7.02 1.76 1.36 3.57e-43
7.06 1.76 1.36 3.57e-43
7.12 1.76 1.36 3.57e-43
7.19 1.76 1.36 3.57e-43
7.33 1.76 1.36 3.57e-43
7.4 1.76 1.36 3.57e-43
7.4 1.76 1.36 3.57e-43
7.39 1.76 1.36 3.57e-43
7.35 1.76 1.36 3.57e-43
5.97 1.84 0.88 3.57e-43
6 1.84 0.88 3.57e-43
6.03 1.84 0.96 9.1477e-41
6.26 1.84 0.52 9.1477e-41
6.33 1.84 0.51 9.1477e-41
6.38 1.84 0.51 9.1477e-41
6.44 1.84 0.5 9.1477e-41
6.5 1.84 0.5 3.57e-43
6.35 1.84 0.93 9.1477e-41
6.2 1.84 1.35 9.1477e-41
6.24 1.84 1.37 9.1477e-41
6.28 1.84 1.37 3.57e-43
6.78 1.84 1.37 3.57e-43
6.72 1.84 1.37 3.57e-43
6.66 1.84 1.37 3.57e-43
6.87 1.84 1.37 3.57e-43
6.96 1.84 1.37 3.57e-43
6.64 1.84 1.37 3.57e-43
6.88 1.84 1.37 3.57e-43
6.94 1.84 1.37 3.57e-43
7.01 1.84 1.37 3.57e-43
7.02 1.84 1.37 3.57e-43
7.06 1.84 1.37 3.57e-43
7.12 1.84 1.37 3.57e-43
7.19 1.84 1.37 3.57e-43
7.33 1.84 1.37 3.57e-43
7.4 1.84 1.37 3.57e-43
7.4 1.84 1.37 3.57e-43
7.39 1.84 1.37 3.57e-43
7.35 1.84 1.37 3.57e-43
5.97 1.92 0.88 3.57e-43
6 1.92 0.88 3.57e-43
6.03 1.92 0.96 9.1477e-41
6.28 1.92 0.48 9.1477e-41
6.33 1.92 0.49 9.1477e-41
6.4 1.92 0.48 9.1477e-41
6.45 1.92 0.49 9.1477e-41
6.51 1.92 0.49 3.57e-43
6.35 1.92 0.49 3.57e-43
6.2 1.92 1.35 9.1477e-41
6.23 1.92 1.38 9.1477e-41
6.27 1.92 1.38 3.57e-43
6.78 1.92 1.38 3.57e-43
6.72 1.92 1.38 3.57e-43
6.66 1.92 1.38 3.57e-43
6.87 1.92 1.38 3.57e-43
6.96 1.92 1.38 3.57e-43
6.64 1.92 1.38 3.57e-43
6.88 1.92 1.38 3.57e-43
6.94 1.92 1.38 3.57e-43
7.01 1.92 1.38 3.57e-43
7.02 1.92 1.38 3.57e-43
7.06 1.92 1.38 3.57e-43
7.12 1.92 1.38 3.57e-43
7.19 1.92 1.38 3.57e-43
7.33 1.92 1.38 3.57e-43
7.4 1.92 1.38 3.57e-43
7.4 1.92 1.38 3.57e-43
7.39 1.92 1.38 3.57e-43
7.35 1.92 1.38 3.57e-43
5.91 2 0.55 3.57e-43
5.9 2 0.55 3.57e-43
5.87 2 0.55 3.57e-43
5.97 2 0.88 9.1477e-41
6 2 0.88 3.57e-43
6.03 2 0.88 3.57e-43
6.28 2 0.88 3.57e-43
6.33 2 0.88 3.57e-43
6.4 2 0.88 3.57e-43
6.45 2 0.88 3.57e-43
6.51 2 0.88 3.57e-43
6.35 2 0.88 3.57e-43
6.2 2 1.35 9.1477e-41
6.23 2 1.39 9.1477e-41
6.28 2 1.39 9.1477e-41
6.32 2 1.39 3.57e-43
6.72 2 1.39 3.57e-43
6.66 2 1.39 3.57e-43
6.87 2 1.39 3.57e-43
6.96 2 1.39 3.57e-43
6.64 2 1.39 3.57e-43
6.88 2 1.39 3.57e-43
6.94 2 1.39 3.57e-43
7.01 2 1.39 3.57e-43
7.02 2 1.39 3.57e-43
7.06 2 1.39 3.57e-43
7.12 2 1.39 3.57e-43
7.19 2 1.39 3.57e-43
7.33 2 1.39 3.57e-43
7.4 2 1.39 3.57e-43
7.4 2 1.39 3.57e-43
7.39 2 1.39 3.57e-43
7.35 2 1.25 9.1477e-41
7.33 2 1.36 9.1477e-41
5.91 2.08 0.88 3.57e-43
5.99 2.08 0.95 3.57e-43
6.03 2.08 0.96 3.57e-43
6.28 2.08 0.48 3.57e-43
6.26 2.08 0.67 3.57e-43
6.31 2.08 0.68 3.57e-43
6.35 2.08 0.69 3.57e-43
6.51 2.08 0.48 3.57e-43
6.19 2.08 0.48 3.57e-43
6.2 2.08 1.35 9.1477e-41
6.23 2.08 1.4 9.1477e-41
6.27 2.08 1.41 9.1477e-41
6.31 2.08 1.41 3.57e-43
6.72 2.08 1.41 3.57e-43
6.66 2.08 1.41 3.57e-43
6.87 2.08 1.41 3.57e-43
6.96 2.08 1.41 3.57e-43
6.64 2.08 1.41 3.57e-43
6.88 2.08 1.41 3.57e-43
6.94 2.08 1.41 3.57e-43
7.01 2.08 1.41 3.57e-43
7.02 2.08 1.41 3.57e-43
7.06 2.08 1.41 3.57e-43
7.12 2.08 1.41 3.57e-43
7.19 2.08 1.41 3.57e-43
7.33 2.08 1.41 3.57e-43
7.4 2.08 1.41 3.57e-43
7.4 2.08 1.41 3.57e-43
7.39 2.08 1.41 3.57e-43
7.35 2.08 1.25 9.1477e-41
7.32 2.08 1.36 9.1477e-41
5.91 2.16 0.88 3.57e-43
5.99 2.16 0.95 3.57e-43
6.03 2.16 0.96 3.57e-43
6.28 2.16 0.48 3.57e-43
6.26 2.16 0.67 3.57e-43
6.31 2.16 0.68 3.57e-43
6.35 2.16 0.69 3.57e-43
6.51 2.16 0.48 3.57e-43
6.19 2.16 0.48 3.57e-43
6.2 2.16 1.35 9.1477e-41
6.23 2.16 1.39 9.1477e-41
6.27 2.16 1.41 9.1477e-41
6.31 2.16 1.41 3.57e-43
6.72 2.16 1.41 3.57e-43
6.66 2.16 1.41 3.57e-43
6.87 2.16 1.41 3.57e-43
6.96 2.16 1.41 3.57e-43
6.64 2.16 1.41 3.57e-43
6.88 2.16 1.41 3.57e-43
6.94 2.16 1.41 3.57e-43
7.01 2.16 1.41 3.57e-43
7.02 2.16 1.41 3.57e-43
7.06 2.16 1.41 3.57e-43
7.12 2.16 1.41 3.57e-43
7.19 2.16 1.41 3.57e-43
7.33 2.16 1.41 3.57e-43
7.4 2.16 1.41 3.57e-43
7.4 2.16 1.41 3.57e-43
7.39 2.16 1.41 3.57e-43
7.35 2.16 1.25 9.1477e-41
7.29 2.16 1.4 9.1477e-41
5.91 2.24 0.88 3.57e-43
5.99 2.24 0.95 3.57e-43
6.03 2.24 0.96 3.57e-43
6.28 2.24 0.48 3.57e-43
6.26 2.24 0.67 3.57e-43
6.31 2.24 0.68 3.57e-43
6.35 2.24 0.69 3.57e-43
6.51 2.24 0.48 3.57e-43
6.19 2.24 0.48 3.57e-43
6.2 2.24 1.35 9.1477e-41
6.23 2.24 1.38 9.1477e-41
6.26 2.24 1.42 9.1477e-41
6.31 2.24 1.42 3.57e-43
6.72 2.24 1.42 3.57e-43
6.66 2.24 1.42 3.57e-43
6.87 2.24 1.42 3.57e-43
6.96 2.24 1.42 3.57e-43
6.64 2.24 1.42 3.57e-43
6.88 2.24 1.42 3.57e-43
6.94 2.24 1.42 3.57e-43
7.01 2.24 1.42 3.57e-43
7.02 2.24 1.42 3.57e-43
7.06 2.24 1.42 3.57e-43
7.12 2.24 1.42 3.57e-43
7.19 2.24 1.42 3.57e-43
7.33 2.24 1.42 3.57e-43
7.4 2.24 1.42 3.57e-43
7.4 2.24 1.42 3.57e-43
7.39 2.24 1.42 3.57e-43
7.35 2.24 1.25 9.1477e-41
7.32 2.24 1.36 9.1477e-41
5.91 2.32 0.88 3.57e-43
5.99 2.32 0.95 3.57e-43
6.03 2.32 0.96 3.57e-43
6.28 2.32 0.48 3.57e-43
6.26 2.32 0.67 3.57e-43
6.31 2.32 0.68 3.57e-43
6.35 2.32 0.69 3.57e-43
6.51 2.32 0.48 9.1477e-41
6.19 2.32 0.48 3.57e-43
6.2 2.32 1.35 9.1477e-41
6.23 2.32 1.39 9.1477e-41
6.26 2.32 1.42 9.1477e-41
6.31 2.32 1.42 3.57e-43
6.72 2.32 1.42 3.57e-43
6.66 2.32 1.42 3.57e-43
6.87 2.32 1.42 3.57e-43
6.96 2.32 1.42 3.57e-43
6.64 2.32 1.42 3.57e-43
6.88 2.32 1.42 3.57e-43
6.94 2.32 1.42 3.57e-43
7.01 2.32 1.42 3.57e-43
7.02 2.32 1.42 3.57e-43
7.06 2.32 1.42 3.57e-43
7.12 2.32 1.42 3.57e-43
7.19 2.32 1.42 3.57e-43
7.33 2.32 1.42 3.57e-43
7.4 2.32 1.42 3.57e-43
7.4 2.32 1.42 3.57e-43
7.39 2.32 1.42 3.57e-43
7.35 2.32 1.25 9.1477e-41
7.32 2.32 1.36 9.1477e-41
5.91 2.4 0.88 3.57e-43
5.99 2.4 0.95 3.57e-43
6.03 2.4 0.96 3.57e-43
6.28 2.4 0.48 9.1477e-41
6.26 2.4 0.67 9.1477e-41
6.31 2.4 0.68 9.1477e-41
6.35 2.4 0.69 9.1477e-41
6.4 2.4 0.71 9.1477e-41
6.46 2.4 0.7 9.1477e-41
6.5 2.4 0.73 9.1477e-41
6.23 2.4 1.39 9.1477e-41
6.26 2.4 1.42 9.1477e-41
6.31 2.4 1.42 3.57e-43
6.72 2.4 1.42 3.57e-43
6.66 2.4 1.42 3.57e-43
6.87 2.4 1.42 3.57e-43
6.96 2.4 1.42 3.57e-43
6.64 2.4 1.42 3.57e-43
6.88 2.4 1.42 3.57e-43
6.94 2.4 1.42 3.57e-43
7.01 2.4 1.42 3.57e-43
7.02 2.4 1.42 3.57e-43
7.06 2.4 1.42 3.57e-43
7.12 2.4 1.42 3.57e-43
7.19 2.4 1.42 3.57e-43
7.33 2.4 1.42 3.57e-43
7.4 2.4 1.42 3.57e-43
7.4 2.4 1.42 3.57e-43
7.39 2.4 1.42 3.57e-43
7.35 2.4 1.25 9.1477e-41
7.32 2.4 1.36 9.1477e-41
5.91 2.48 0.88 3.57e-43
5.99 2.48 0.95 9.1477e-41
6.03 2.48 0.96 9.1477e-41
6.18 2.48 0.73 9.1477e-41
6.23 2.48 0.74 9.1477e-41
6.27 2.48 0.76 9.1477e-41
6.32 2.48 0.77 9.1477e-41
6.37 2.48 0.79 9.1477e-41
6.44 2.48 0.79 3.57e-43
6.5 2.48 0.73 9.1477e-41
6.23 2.48 1.39 9.1477e-41
6.27 2.48 1.41 9.1477e-41
6.31 2.48 1.41 3.57e-43
6.72 2.48 1.41 3.57e-43
6.66 2.48 1.41 3.57e-43
6.87 2.48 1.41 3.57e-43
6.96 2.48 1.41 3.57e-43
6.64 2.48 1.41 3.57e-43
6.88 2.48 1.41 3.57e-43
6.94 2.48 1.41 3.57e-43
7.01 2.48 1.41 3.57e-43
7.02 2.48 1.41 3.57e-43
7.06 2.48 1.41 3.57e-43
7.12 2.48 1.41 3.57e-43
7.19 2.48 1.41 3.57e-43
7.33 2.48 1.41 3.57e-43
7.4 2.48 1.41 3.57e-43
7.4 2.48 1.41 3.57e-43
7.39 2.48 1.41 3.57e-43
7.35 2.48 1.25 9.1477e-41
7.32 2.48 1.36 9.1477e-41
5.91 2.56 0.88 3.57e-43
5.98 2.56 0.96 9.1477e-41
6.03 2.56 0.97 9.1477e-41
6.18 2.56 0.72 9.1477e-41
6.23 2.56 0.74 9.1477e-41
6.28 2.56 0.73 9.1477e-41
6.33 2.56 0.75 9.1477e-41
6.37 2.56 0.78 9.1477e-41
6.42 2.56 0.78 3.57e-43
6.5 2.56 0.73 9.1477e-41
6.23 2.56 1.38 9.1477e-41
6.27 2.56 1.4 9.1477e-41
6.31 2.56 1.4 3.57e-43
6.72 2.56 1.4 3.57e-43
6.66 2.56 1.4 3.57e-43
6.87 2.56 1.4 3.57e-43
6.96 2.56 1.4 3.57e-43
6.64 2.56 1.4 3.57e-43
6.88 2.56 1.4 3.57e-43
6.94 2.56 1.4 3.57e-43
7.01 2.56 1.4 3.57e-43
7.02 2.56 1.4 3.57e-43
7.06 2.56 1.4 3.57e-43
7.12 2.56 1.4 3.57e-43
7.19 2.56 1.4 3.57e-43
7.33 2.56 1.4 3.57e-43
7.4 2.56 1.4 3.57e-43
7.4 2.56 1.4 3.57e-43
7.39 2.56 1.4 3.57e-43
7.35 2.56 1.25 9.1477e-41
7.33 2.56 1.35 9.1477e-41
5.91 2.64 0.96 3.57e-43
6.02 2.64 0.98 9.1477e-41
6.21 2.64 0.66 9.1477e-41
6.26 2.64 0.67 9.1477e-41
6.3 2.64 0.68 9.1477e-41
6.34 2.64 0.72 9.1477e-41
6.38 2.64 0.77 9.1477e-41
6.42 2.64 0.78 9.1477e-41
6.23 2.64 1.3 9.1477e-41
6.23 2.64 1.38 9.1477e-41
6.27 2.64 1.4 9.1477e-41
6.31 2.64 1.4 3.57e-43
6.72 2.64 1.4 3.57e-43
6.66 2.64 1.4 3.57e-43
6.87 2.64 1.4 3.57e-43
6.96 2.64 1.4 3.57e-43
6.64 2.64 1.4 3.57e-43
6.88 2.64 1.4 3.57e-43
6.94 2.64 1.4 3.57e-43
7.01 2.64 1.4 3.57e-43
7.02 2.64 1.4 3.57e-43
7.06 2.64 1.4 3.57e-43
7.12 2.64 1.4 3.57e-43
7.19 2.64 1.4 3.57e-43
7.33 2.64 1.4 3.57e-43
7.4 2.64 1.4 3.57e-43
7.4 2.64 1.4 3.57e-43
7.39 2.64 1.4 3.57e-43
7.35 2.64 1.25 9.1477e-41
5.91 2.72 0.96 3.57e-43
6.02 2.72 0.96 3.57e-43
6.21 2.72 0.66 9.1477e-41
6.27 2.72 0.65 9.1477e-41
6.32 2.72 0.66 9.1477e-41
6.34 2.72 0.71 9.1477e-41
6.38 2.72 0.71 3.57e-43
6.42 2.72 0.71 3.57e-43
6.23 2.72 1.3 9.1477e-41
6.24 2.72 1.37 9.1477e-41
6.28 2.72 1.39 9.1477e-41
6.32 2.72 1.39 3.57e-43
6.72 2.72 1.39 3.57e-43
6.66 2.72 1.39 3.57e-43
6.87 2.72 1.39 3.57e-43
6.96 2.72 1.39 3.57e-43
6.64 2.72 1.39 3.57e-43
6.88 2.72 1.39 3.57e-43
6.94 2.72 1.39 3.57e-43
7.01 2.72 1.39 3.57e-43
7.02 2.72 1.39 3.57e-43
7.06 2.72 1.39 3.57e-43
7.12 2.72 1.39 3.57e-43
7.19 2.72 1.39 3.57e-43
7.33 2.72 1.39 3.57e-43
7.4 2.72 1.39 3.57e-43
7.4 2.72 1.39 3.57e-43
7.39 2.72 1.1 9.1477e-41
7.24 2.72 1.39 9.1477e-41
5.91 2.8 0.96 3.57e-43
6.02 2.8 0.96 3.57e-43
6.21 2.8 0.66 9.1477e-41
6.28 2.8 0.62 9.1477e-41
6.32 2.8 0.66 9.1477e-41
6.35 2.8 0.7 9.1477e-41
6.48 2.8 0.53 9.1477e-41
6.53 2.8 0.56 9.1477e-41
6.59 2.8 0.54 9.1477e-41
6.24 2.8 1.38 9.1477e-41
6.28 2.8 1.39 9.1477e-41
6.32 2.8 1.39 3.57e-43
6.72 2.8 1.39 3.57e-43
6.66 2.8 1.39 3.57e-43
6.87 2.8 1.39 3.57e-43
6.96 2.8 1.39 3.57e-43
6.64 2.8 1.39 3.57e-43
6.88 2.8 1.39 3.57e-43
6.94 2.8 1.39 3.57e-43
7.01 2.8 1.39 3.57e-43
7.02 2.8 1.39 3.57e-43
7.06 2.8 1.39 3.57e-43
7.12 2.8 1.39 3.57e-43
7.19 2.8 1.39 3.57e-43
7.33 2.8 1.39 3.57e-43
7.4 2.8 1.39 3.57e-43
7.4 2.8 1.39 3.57e-43
7.39 2.8 1.1 9.1477e-41
7.28 2.8 1.1 3.57e-43
6.28 2.88 0.62 3.57e-43
6.33 2.88 0.62 9.1477e-41
6.38 2.88 0.65 9.1477e-41
6.44 2.88 0.65 3.57e-43
6.53 2.88 0.65 3.57e-43
6.59 2.88 0.54 9.1477e-41
6.24 2.88 1.37 9.1477e-41
6.28 2.88 1.39 9.1477e-41
6.32 2.88 1.39 3.57e-43
6.72 2.88 1.39 3.57e-43
6.66 2.88 1.39 3.57e-43
6.87 2.88 1.39 3.57e-43
6.96 2.88 1.39 3.57e-43
6.64 2.88 1.39 3.57e-43
6.88 2.88 1.39 3.57e-43
6.94 2.88 1.39 3.57e-43
7.01 2.88 1.39 3.57e-43
7.02 2.88 1.39 3.57e-43
7.06 2.88 1.39 3.57e-43
7.12 2.88 1.39 3.57e-43
7.19 2.88 1.39 3.57e-43
7.33 2.88 1.39 3.57e-43
7.4 2.88 1.39 3.57e-43
7.4 2.88 1.39 3.57e-43
7.39 2.88 1.1 9.1477e-41
7.36 2.88 1.22 9.1477e-41
5.94 2.96 0.55 9.1477e-41
5.89 2.96 0.8 9.1477e-41
5.94 2.96 0.8 3.57e-43
5.97 2.96 0.8 3.57e-43
5.98 2.96 0.8 3.57e-43
6.02 2.96 0.8 3.57e-43
6.21 2.96 0.8 3.57e-43
6.28 2.96 0.62 9.1477e-41
6.33 2.96 0.63 9.1477e-41
6.38 2.96 0.63 3.57e-43
6.44 2.96 0.63 3.57e-43
6.53 2.96 0.63 3.57e-43
6.59 2.96 0.54 9.1477e-41
6.24 2.96 1.38 9.1477e-41
6.28 2.96 1.39 9.1477e-41
6.32 2.96 1.39 3.57e-43
6.72 2.96 1.39 3.57e-43
6.66 2.96 1.39 3.57e-43
6.87 2.96 1.39 3.57e-43
6.96 2.96 1.39 3.57e-43
6.64 2.96 1.39 3.57e-43
6.88 2.96 1.39 3.57e-43
6.94 2.96 1.39 3.57e-43
7.01 2.96 1.39 3.57e-43
7.02 2.96 1.39 3.57e-43
7.06 2.96 1.39 3.57e-43
7.12 2.96 1.39 3.57e-43
7.19 2.96 1.39 3.57e-43
7.33 2.96 1.39 3.57e-43
7.4 2.96 1.39 3.57e-43
7.4 2.96 1.39 3.57e-43
7.39 2.96 1.1 9.1477e-41
7.25 2.96 1.38 9.1477e-41
6.59 3.04 0.54 3.57e-43
6.25 3.04 1.35 9.1477e-41
6.29 3.04 1.37 9.1477e-41
6.33 3.04 1.37 3.57e-43
6.72 3.04 1.37 3.57e-43
6.66 3.04 1.37 3.57e-43
6.87 3.04 1.37 3.57e-43
6.96 3.04 1.37 3.57e-43
6.64 3.04 1.37 3.57e-43
6.88 3.04 1.37 3.57e-43
6.94 3.04 1.37 3.57e-43
7.01 3.04 0.94 9.1477e-41
6.78 3.04 0.94 3.57e-43
7.06 3.04 0.94 3.57e-43
7.12 3.04 0.94 3.57e-43
7.19 3.04 0.94 3.57e-43
7.33 3.04 0.94 3.57e-43
7.4 3.04 0.94 3.57e-43
7.4 3.04 0.94 3.57e-43
7.39 3.04 1.1 9.1477e-41
7.26 3.04 1.37 9.1477e-41
5.93 3.12 0.41 9.1477e-41
5.94 3.12 0.41 3.57e-43
5.89 3.12 0.41 3.57e-43
5.94 3.12 0.41 3.57e-43
5.97 3.12 0.41 3.57e-43
5.98 3.12 0.41 3.57e-43
6.02 3.12 0.41 3.57e-43
6.21 3.12 0.41 3.57e-43
6.28 3.12 0.41 3.57e-43
6.33 3.12 0.41 3.57e-43
6.38 3.12 0.41 3.57e-43
6.44 3.12 0.41 3.57e-43
6.53 3.12 0.41 3.57e-43
6.59 3.12 0.54 9.1477e-41
6.25 3.12 1.36 9.1477e-41
6.29 3.12 1.36 9.1477e-41
6.34 3.12 1.36 3.57e-43
6.72 3.12 1.36 3.57e-43
6.66 3.12 1.36 3.57e-43
6.87 3.12 1.36 3.57e-43
6.96 3.12 1.36 3.57e-43
6.64 3.12 1.36 3.57e-43
6.88 3.12 1.36 3.57e-43
6.94 3.12 1.36 3.57e-43
7.01 3.12 1.36 3.57e-43
6.78 3.12 1.36 3.57e-43
7.06 3.12 1.36 3.57e-43
7.12 3.12 1.36 3.57e-43
7.19 3.12 1.36 3.57e-43
7.33 3.12 1.36 3.57e-43
7.4 3.12 1.36 3.57e-43
7.4 3.12 1.36 3.57e-43
7.39 3.12 1.1 9.1477e-41
7.28 3.12 1.34 9.1477e-41
5.93 3.2 0.42 9.1477e-41
5.94 3.2 0.42 3.57e-43
5.89 3.2 0.42 3.57e-43
5.94 3.2 0.42 3.57e-43
5.97 3.2 0.42 3.57e-43
5.98 3.2 0.42 3.57e-43
6.02 3.2 0.42 3.57e-43
6.21 3.2 0.42 3.57e-43
6.28 3.2 0.42 3.57e-43
6.33 3.2 0.42 3.57e-43
6.38 3.2 0.42 3.57e-43
6.44 3.2 0.42 3.57e-43
6.53 3.2 0.56 9.1477e-41
6.23 3.2 1.3 9.1477e-41
6.26 3.2 1.32 9.1477e-41
6.3 3.2 1.34 9.1477e-41
6.35 3.2 1.35 9.1477e-41
6.41 3.2 1.33 9.1477e-41
6.46 3.2 1.33 9.1477e-41
6.49 3.2 1.36 9.1477e-41
6.55 3.2 1.36 3.57e-43
6.64 3.2 1.36 3.57e-43
6.88 3.2 1.36 3.57e-43
6.94 3.2 1.36 3.57e-43
7.01 3.2 1.36 3.57e-43
6.78 3.2 1.36 3.57e-43
7.06 3.2 1.36 3.57e-43
7.12 3.2 1.36 3.57e-43
7.19 3.2 1.36 3.57e-43
7.33 3.2 1.36 3.57e-43
7.4 3.2 1.36 3.57e-43
7.4 3.2 1 9.1477e-41
7.22 3.2 1 3.57e-43
7.28 3.2 1.33 9.1477e-41
5.92 3.28 0.44 9.1477e-41
5.94 3.28 0.44 3.57e-43
5.89 3.28 0.44 3.57e-43
5.94 3.28 0.44 3.57e-43
5.97 3.28 0.44 3.57e-43
5.98 3.28 0.96 9.1477e-41
6.03 3.28 0.96 3.57e-43
6.21 3.28 0.96 3.57e-43
6.28 3.28 0.96 3.57e-43
6.33 3.28 0.96 3.57e-43
6.38 3.28 0.96 3.57e-43
6.44 3.28 0.96 3.57e-43
6.53 3.28 0.96 3.57e-43
6.23 3.28 1.3 9.1477e-41
6.28 3.28 1.28 9.1477e-41
6.32 3.28 1.31 9.1477e-41
6.36 3.28 1.31 3.57e-43
6.41 3.28 1.31 3.57e-43
6.46 3.28 1.31 3.57e-43
6.49 3.28 1.31 3.57e-43
6.55 3.28 1.31 3.57e-43
6.64 3.28 1.31 3.57e-43
6.88 3.28 1.31 3.57e-43
6.94 3.28 1.31 3.57e-43
7.01 3.28 1.31 3.57e-43
6.78 3.28 1.31 3.57e-43
7.06 3.28 1.31 3.57e-43
7.12 3.28 1.31 3.57e-43
7.19 3.28 1.31 3.57e-43
7.33 3.28 1.31 3.57e-43
7.4 3.28 1.31 3.57e-43
7.4 3.28 1.31 3.57e-43
7.22 3.28 1.31 3.57e-43
7.28 3.28 1.33 9.1477e-41
5.93 3.36 0.42 9.1477e-41
5.94 3.36 0.42 3.57e-43
5.89 3.36 0.42 3.57e-43
5.94 3.36 0.42 3.57e-43
5.97 3.36 0.42 3.57e-43
5.98 3.36 0.96 9.1477e-41
6.02 3.36 0.96 3.57e-43
6.21 3.36 0.96 3.57e-43
6.28 3.36 0.96 3.57e-43
6.33 3.36 0.96 3.57e-43
6.38 3.36 0.96 3.57e-43
6.44 3.36 0.96 3.57e-43
6.53 3.36 0.96 3.57e-43
6.23 3.36 0.96 3.57e-43
6.28 3.36 0.96 3.57e-43
6.32 3.36 0.96 3.57e-43
6.36 3.36 0.96 3.57e-43
6.41 3.36 0.96 3.57e-43
6.46 3.36 0.96 3.57e-43
6.49 3.36 0.96 3.57e-43
6.55 3.36 0.96 3.57e-43
6.64 3.36 0.96 3.57e-43
6.88 3.36 0.96 9.1477e-41
6.75 3.36 0.96 3.57e-43
7.01 3.36 0.96 3.57e-43
6.78 3.36 0.96 3.57e-43
7.06 3.36 0.96 3.57e-43
7.12 3.36 0.96 3.57e-43
7.19 3.36 0.96 3.57e-43
7.33 3.36 0.96 3.57e-43
7.4 3.36 0.96 3.57e-43
7.4 3.36 0.96 3.57e-43
7.22 3.36 1.35 9.1477e-41
5.94 3.44 0.4 9.1477e-41
5.94 3.44 0.4 3.57e-43
5.89 3.44 0.4 3.57e-43
5.94 3.44 0.82 9.1477e-41
5.97 3.44 0.86 9.1477e-41
6 3.44 0.91 9.1477e-41
6.03 3.44 0.97 9.1477e-41
6.07 3.44 0.97 3.57e-43
6.28 3.44 0.97 3.57e-43
6.33 3.44 0.97 3.57e-43
6.38 3.44 0.97 3.57e-43
6.44 3.44 0.97 3.57e-43
6.53 3.44 0.97 3.57e-43
6.23 3.44 0.97 3.57e-43
6.28 3.44 0.97 3.57e-43
6.32 3.44 0.97 3.57e-43
6.36 3.44 0.97 3.57e-43
6.41 3.44 0.97 3.57e-43
6.46 3.44 0.97 3.57e-43
6.49 3.44 0.97 3.57e-43
6.55 3.44 0.97 3.57e-43
6.64 3.44 0.97 3.57e-43
6.88 3.44 0.96 9.1477e-41
6.8 3.44 1.2 9.1477e-41
6.84 3.44 1.2 3.57e-43
6.78 3.44 1.2 3.57e-43
7.06 3.44 1.2 3.57e-43
7.12 3.44 1.2 3.57e-43
7.19 3.44 1.2 3.57e-43
7.33 3.44 1.2 3.57e-43
7.4 3.44 1.2 3.57e-43
7.4 3.44 1.2 3.57e-43
7.22 3.44 1.35 9.1477e-41
5.92 3.52 0.44 9.1477e-41
5.94 3.52 0.44 3.57e-43
5.89 3.52 0.8 9.1477e-41
5.95 3.52 0.79 9.1477e-41
5.98 3.52 0.84 9.1477e-41
6 3.52 0.92 9.1477e-41
6.04 3.52 0.94 9.1477e-41
6.07 3.52 0.94 3.57e-43
6.28 3.52 0.94 3.57e-43
6.33 3.52 0.94 3.57e-43
6.38 3.52 0.94 3.57e-43
6.44 3.52 0.94 3.57e-43
6.53 3.52 0.94 3.57e-43
6.23 3.52 0.94 3.57e-43
6.28 3.52 0.94 3.57e-43
6.32 3.52 0.94 3.57e-43
6.36 3.52 0.94 3.57e-43
6.41 3.52 0.94 3.57e-43
6.46 3.52 0.94 3.57e-43
6.49 3.52 0.94 3.57e-43
6.55 3.52 0.94 3.57e-43
6.64 3.52 0.94 3.57e-43
6.88 3.52 0.94 3.57e-43
6.8 3.52 0.94 3.57e-43
6.84 3.52 0.94 3.57e-43
6.78 3.52 0.94 3.57e-43
7.06 3.52 0.94 3.57e-43
7.12 3.52 0.94 3.57e-43
7.19 3.52 0.94 3.57e-43
7.33 3.52 0.94 3.57e-43
7.4 3.52 0.94 3.57e-43
7.4 3.52 1 9.1477e-41
5.94 3.6 0.8 3.57e-43
5.96 3.6 0.75 9.1477e-41
6 3.6 0.8 9.1477e-41
6.03 3.6 0.83 9.1477e-41
6.07 3.6 0.88 9.1477e-41
6.08 3.6 0.88 3.57e-43
6.28 3.6 0.88 3.57e-43
6.33 3.6 0.88 3.57e-43
6.38 3.6 0.88 3.57e-43
6.44 3.6 0.88 3.57e-43
6.53 3.6 0.88 3.57e-43
6.23 3.6 0.88 3.57e-43
6.28 3.6 0.88 3.57e-43
6.32 3.6 1.31 9.1477e-41
6.51 3.6 1.31 3.57e-43
6.41 3.6 1.31 3.57e-43
6.46 3.6 1.31 3.57e-43
6.49 3.6 1.31 3.57e-43
6.55 3.6 1.31 3.57e-43
6.64 3.6 1.31 3.57e-43
6.88 3.6 1.31 3.57e-43
6.8 3.6 1.31 3.57e-43
6.84 3.6 1.31 3.57e-43
6.78 3.6 1.31 3.57e-43
7.06 3.6 1.31 3.57e-43
7.12 3.6 1.31 3.57e-43
7.19 3.6 1.31 3.57e-43
7.33 3.6 1.31 3.57e-43
7.4 3.6 1.31 3.57e-43
7.4 3.6 1 9.1477e-41
5.94 3.68 0.75 3.57e-43
6.02 3.68 0.74 9.1477e-41
6.05 3.68 0.8 9.1477e-41
6.1 3.68 0.8 9.1477e-41
6.13 3.68 0.8 3.57e-43
6.28 3.68 0.8 3.57e-43
6.33 3.68 0.8 3.57e-43
6.38 3.68 0.8 3.57e-43
6.44 3.68 0.62 9.1477e-41
6.31 3.68 1.01 9.1477e-41
6.36 3.68 1.01 9.1477e-41
6.41 3.68 1.03 9.1477e-41
6.46 3.68 1.03 3.57e-43
6.51 3.68 1.03 3.57e-43
6.41 3.68 1.03 3.57e-43
6.46 3.68 1.03 3.57e-43
6.49 3.68 1.03 3.57e-43
6.55 3.68 1.03 3.57e-43
6.64 3.68 1.03 3.57e-43
6.88 3.68 1.03 3.57e-43
6.8 3.68 1.03 3.57e-43
6.84 3.68 1.03 3.57e-43
6.78 3.68 1.03 3.57e-43
7.06 3.68 1.03 3.57e-43
7.12 3.68 1.03 3.57e-43
7.19 3.68 1.03 3.57e-43
7.33 3.68 1.03 3.57e-43
7.4 3.68 1.03 3.57e-43
7.4 3.68 1 9.1477e-41
6.1 3.76 0.48 3.57e-43
6.09 3.76 0.69 9.1477e-41
6.13 3.76 0.71 9.1477e-41
6.17 3.76 0.76 9.1477e-41
6.19 3.76 0.76 3.57e-43
6.33 3.76 0.76 3.57e-43
6.38 3.76 0.76 3.57e-43
6.44 3.76 0.76 3.57e-43
6.31 3.76 0.76 3.57e-43
6.36 3.76 0.76 3.57e-43
6.41 3.76 1.03 9.1477e-41
6.5 3.76 1.03 3.57e-43
6.51 3.76 1.04 9.1477e-41
6.59 3.76 0.99 9.1477e-41
6.63 3.76 1.03 9.1477e-41
6.67 3.76 1.04 9.1477e-41
6.73 3.76 1.04 9.1477e-41
6.79 3.76 1.04 3.57e-43
6.88 3.76 1.04 3.57e-43
6.8 3.76 1.04 3.57e-43
6.84 3.76 1.04 3.57e-43
6.78 3.76 1.04 3.57e-43
7.06 3.76 1.04 3.57e-43
7.12 3.76 1.04 3.57e-43
7.19 3.76 1.04 3.57e-43
7.33 3.76 0.91 9.1477e-41
5.89 3.84 0.81 9.1477e-41
6.06 3.84 0.48 9.1477e-41
6.1 3.84 0.48 3.57e-43
6.09 3.84 0.48 3.57e-43
6.13 3.84 0.48 3.57e-43
6.17 3.84 0.77 9.1477e-41
6.27 3.84 0.65 9.1477e-41
6.31 3.84 0.68 9.1477e-41
6.34 3.84 0.71 9.1477e-41
6.39 3.84 0.74 9.1477e-41
6.44 3.84 0.75 9.1477e-41
6.51 3.84 0.72 9.1477e-41
6.55 3.84 0.74 9.1477e-41
6.58 3.84 0.74 3.57e-43
6.51 3.84 0.74 3.57e-43
6.59 3.84 0.74 3.57e-43
6.63 3.84 1.03 9.1477e-41
6.73 3.84 0.93 9.1477e-41
6.79 3.84 0.93 3.57e-43
6.79 3.84 0.93 3.57e-43
6.88 3.84 0.93 3.57e-43
6.8 3.84 1.2 9.1477e-41
7.08 3.84 0.81 9.1477e-41
7.14 3.84 0.83 9.1477e-41
7.22 3.84 0.8 9.1477e-41
7.34 3.84 0.71 9.1477e-41
6.3 3.92 0.43 9.1477e-41
6.33 3.92 0.49 9.1477e-41
6.38 3.92 0.51 9.1477e-41
6.43 3.92 0.54 9.1477e-41
6.47 3.92 0.56 9.1477e-41
6.52 3.92 0.58 9.1477e-41
6.57 3.92 0.58 9.1477e-41
6.6 3.92 0.63 9.1477e-41
6.66 3.92 0.64 9.1477e-41
6.71 3.92 0.66 9.1477e-41
6.76 3.92 0.66 9.1477e-41
6.82 3.92 0.67 9.1477e-41
6.88 3.92 0.66 9.1477e-41
6.98 3.92 0.59 9.1477e-41
7.04 3.92 0.59 9.1477e-41
7.13 3.92 0.55 9.1477e-41
7.21 3.92 0.5 9.1477e-41
