# .PCD v.7 - Point Cloud Data file format
VERSION .7
FIELDS x y z rgb
SIZE 4 4 4 4
TYPE F F F F
WIDTH 1985
HEIGHT 1
POINTS 1985
DATA ascii
6.73 0.08 0.73 9.1477e-41
6.79 0.08 0.73 9.1477e-41
6.84 0.08 0.73 3.57e-43
7.33 0.08 0.73 3.57e-43
7.38 0.08 0.73 3.57e-43
7.46 0.08 0.73 3.57e-43
7.53 0.08 0.73 3.57e-43
6.17 0.12 0.64 9.1477e-41
6.23 0.12 0.62 9.1477e-41
6.27 0.12 0.64 9.1477e-41
6.32 0.12 0.64 3.57e-43
6.58 0.12 0.64 3.57e-43
6.49 0.12 0.64 3.57e-43
6.55 0.12 0.64 3.57e-43
6.79 0.12 0.64 3.57e-43
6.92 0.12 0.64 3.57e-43
6.63 0.12 0.64 3.57e-43
6.67 0.12 0.64 3.57e-43
6.73 0.12 0.64 3.57e-43
6.79 0.12 0.64 3.57e-43
6.84 0.12 0.64 3.57e-43
7.33 0.12 0.64 3.57e-43
7.38 0.12 0.64 3.57e-43
7.46 0.12 0.64 3.57e-43
7.18 0.12 0.67 9.1477e-41
7.26 0.12 0.63 9.1477e-41
6.11 0.16 0.63 9.1477e-41
6.17 0.16 0.63 9.1477e-41
6.22 0.16 0.64 9.1477e-41
6.27 0.16 0.64 3.57e-43
6.32 0.16 0.64 3.57e-43
6.58 0.16 0.64 3.57e-43
6.49 0.16 0.64 3.57e-43
6.55 0.16 0.64 3.57e-43
6.79 0.16 0.64 3.57e-43
6.92 0.16 0.64 3.57e-43
6.63 0.16 0.64 3.57e-43
6.67 0.16 0.64 3.57e-43
6.73 0.16 0.64 3.57e-43
6.79 0.16 0.64 3.57e-43
6.84 0.16 0.64 3.57e-43
7.33 0.16 0.64 3.57e-43
7.38 0.16 0.64 3.57e-43
7.46 0.16 0.64 3.57e-43
7.53 0.16 0.64 3.57e-43
7.18 0.16 0.67 9.1477e-41
7.25 0.16 0.65 9.1477e-41
7.31 0.16 0.66 9.1477e-41
6.07 0.2 0.62 9.1477e-41
6.11 0.2 0.64 9.1477e-41
6.15 0.2 0.68 9.1477e-41
6.22 0.2 0.64 9.1477e-41
6.26 0.2 0.64 3.57e-43
6.32 0.2 0.64 3.57e-43
6.58 0.2 0.64 3.57e-43
6.49 0.2 0.64 3.57e-43
6.55 0.2 0.64 3.57e-43
6.79 0.2 0.64 3.57e-43
6.92 0.2 0.64 3.57e-43
6.63 0.2 0.64 3.57e-43
6.67 0.2 0.64 3.57e-43
6.73 0.2 0.64 3.57e-43
6.79 0.2 0.64 3.57e-43
6.84 0.2 0.64 3.57e-43
7.33 0.2 0.64 3.57e-43
7.38 0.2 0.64 3.57e-43
7.46 0.2 0.64 3.57e-43
7.53 0.2 0.64 3.57e-43
7.18 0.2 0.67 9.1477e-41
7.24 0.2 0.67 9.1477e-41
7.3 0.2 0.67 9.1477e-41
7.39 0.2 0.63 9.1477e-41
6.06 0.24 0.65 9.1477e-41
6.1 0.24 0.67 9.1477e-41
6.13 0.24 0.71 9.1477e-41
6.18 0.24 0.71 3.57e-43
6.26 0.24 0.71 3.57e-43
6.32 0.24 0.71 3.57e-43
6.58 0.24 0.71 3.57e-43
6.49 0.24 0.71 3.57e-43
6.55 0.24 0.71 3.57e-43
6.79 0.24 0.71 3.57e-43
6.92 0.24 0.71 3.57e-43
6.63 0.24 0.71 3.57e-43
6.67 0.24 0.71 3.57e-43
6.73 0.24 0.71 3.57e-43
6.79 0.24 0.71 3.57e-43
6.84 0.24 0.71 3.57e-43
7.33 0.24 0.71 3.57e-43
7.38 0.24 0.71 3.57e-43
7.46 0.24 0.71 3.57e-43
7.53 0.24 0.71 3.57e-43
7.18 0.24 0.71 3.57e-43
7.24 0.24 0.67 9.1477e-41
7.27 0.24 0.72 9.1477e-41
7.37 0.24 0.66 9.1477e-41
6 0.28 0.67 9.1477e-41
6.06 0.28 0.65 9.1477e-41
6.1 0.28 0.67 9.1477e-41
6.14 0.28 0.71 9.1477e-41
6.18 0.28 0.71 3.57e-43
6.26 0.28 0.71 3.57e-43
6.32 0.28 0.71 3.57e-43
6.58 0.28 0.71 3.57e-43
6.49 0.28 0.71 3.57e-43
6.55 0.28 0.71 3.57e-43
6.79 0.28 0.71 3.57e-43
6.92 0.28 0.71 3.57e-43
6.63 0.28 0.71 3.57e-43
6.67 0.28 0.71 3.57e-43
6.73 0.28 0.71 3.57e-43
6.79 0.28 0.71 3.57e-43
6.84 0.28 0.71 3.57e-43
7.33 0.28 0.71 3.57e-43
7.38 0.28 0.71 3.57e-43
7.46 0.28 0.71 3.57e-43
7.53 0.28 0.71 3.57e-43
7.18 0.28 0.71 3.57e-43
7.24 0.28 0.71 3.57e-43
7.27 0.28 0.72 9.1477e-41
7.37 0.28 0.66 9.1477e-41
7.43 0.28 0.67 9.1477e-41
5.98 0.32 0.71 9.1477e-41
6.02 0.32 0.75 9.1477e-41
6.07 0.32 0.73 9.1477e-41
6.11 0.32 0.73 3.57e-43
6.18 0.32 0.73 3.57e-43
6.26 0.32 0.73 3.57e-43
6.32 0.32 0.73 3.57e-43
6.58 0.32 0.73 3.57e-43
6.49 0.32 0.73 3.57e-43
6.55 0.32 0.73 3.57e-43
6.79 0.32 0.73 3.57e-43
6.92 0.32 0.73 3.57e-43
6.63 0.32 0.73 3.57e-43
6.67 0.32 0.73 3.57e-43
6.73 0.32 0.73 3.57e-43
6.79 0.32 0.73 3.57e-43
6.84 0.32 0.73 3.57e-43
7.33 0.32 0.73 3.57e-43
7.38 0.32 0.73 3.57e-43
7.46 0.32 0.73 3.57e-43
7.53 0.32 0.73 3.57e-43
7.18 0.32 0.73 3.57e-43
7.24 0.32 0.73 3.57e-43
7.27 0.32 0.72 9.1477e-41
7.37 0.32 0.66 9.1477e-41
7.44 0.32 0.67 9.1477e-41
7.49 0.32 0.69 9.1477e-41
5.98 0.36 0.72 9.1477e-41
6.01 0.36 0.78 9.1477e-41
6.05 0.36 0.8 9.1477e-41
6.1 0.36 0.8 3.57e-43
6.18 0.36 0.8 3.57e-43
6.26 0.36 0.8 3.57e-43
6.32 0.36 0.8 3.57e-43
6.58 0.36 0.8 3.57e-43
6.49 0.36 0.8 3.57e-43
6.55 0.36 0.8 3.57e-43
6.79 0.36 0.8 3.57e-43
6.92 0.36 0.8 3.57e-43
6.63 0.36 0.8 3.57e-43
6.67 0.36 0.8 3.57e-43
6.73 0.36 0.8 3.57e-43
6.79 0.36 0.8 3.57e-43
6.84 0.36 0.8 3.57e-43
7.33 0.36 0.8 3.57e-43
7.38 0.36 0.8 3.57e-43
7.46 0.36 0.8 3.57e-43
7.53 0.36 0.8 3.57e-43
7.18 0.36 0.8 3.57e-43
7.24 0.36 0.8 3.57e-43
7.27 0.36 0.8 3.57e-43
7.37 0.36 0.66 9.1477e-41
7.37 0.36 0.76 9.1477e-41
7.45 0.36 0.73 9.1477e-41
5.96 0.4 0.76 3.57e-43
6 0.4 0.79 9.1477e-41
6.04 0.4 0.81 9.1477e-41
6.1 0.4 0.81 3.57e-43
6.18 0.4 0.81 3.57e-43
6.26 0.4 0.81 3.57e-43
6.32 0.4 0.81 3.57e-43
6.58 0.4 0.81 3.57e-43
6.49 0.4 0.81 3.57e-43
6.55 0.4 0.81 3.57e-43
6.79 0.4 0.81 3.57e-43
6.92 0.4 0.81 3.57e-43
6.63 0.4 0.81 3.57e-43
6.67 0.4 0.81 3.57e-43
6.73 0.4 0.81 3.57e-43
6.79 0.4 0.81 3.57e-43
6.84 0.4 0.81 3.57e-43
7.33 0.4 0.81 3.57e-43
7.38 0.4 0.81 3.57e-43
7.46 0.4 0.81 3.57e-43
7.53 0.4 0.81 3.57e-43
7.18 0.4 0.81 3.57e-43
7.24 0.4 0.81 3.57e-43
7.27 0.4 0.81 3.57e-43
7.37 0.4 0.81 3.57e-43
7.37 0.4 0.76 9.1477e-41
7.41 0.4 0.79 9.1477e-41
5.96 0.44 0.76 3.57e-43
6 0.44 0.79 9.1477e-41
6.04 0.44 0.81 9.1477e-41
6.09 0.44 0.81 3.57e-43
6.18 0.44 0.81 3.57e-43
6.26 0.44 0.81 3.57e-43
6.32 0.44 0.81 3.57e-43
6.58 0.44 0.81 3.57e-43
6.49 0.44 0.81 3.57e-43
6.55 0.44 0.81 3.57e-43
6.79 0.44 0.81 3.57e-43
6.92 0.44 0.81 3.57e-43
6.63 0.44 0.81 3.57e-43
6.67 0.44 0.81 3.57e-43
6.73 0.44 0.81 3.57e-43
6.79 0.44 0.81 3.57e-43
6.84 0.44 0.81 3.57e-43
7.33 0.44 0.81 3.57e-43
7.38 0.44 0.81 3.57e-43
7.46 0.44 0.81 3.57e-43
7.53 0.44 0.81 3.57e-43
7.18 0.44 0.81 3.57e-43
7.24 0.44 0.81 3.57e-43
7.27 0.44 0.81 3.57e-43
7.37 0.44 0.81 3.57e-43
7.37 0.44 0.76 9.1477e-41
7.42 0.44 0.79 9.1477e-41
7.53 0.44 0.72 9.1477e-41
5.88 0.48 0.4 9.1477e-41
5.91 0.48 0.4 3.57e-43
6.06 0.48 0.4 3.57e-43
5.96 0.48 0.76 9.1477e-41
6 0.48 0.79 9.1477e-41
6.04 0.48 0.79 3.57e-43
6.09 0.48 0.79 3.57e-43
6.18 0.48 0.79 3.57e-43
6.26 0.48 0.79 3.57e-43
6.32 0.48 0.79 3.57e-43
6.58 0.48 0.79 3.57e-43
6.49 0.48 0.79 3.57e-43
6.55 0.48 0.79 3.57e-43
6.79 0.48 0.79 3.57e-43
6.92 0.48 0.79 3.57e-43
6.63 0.48 0.79 3.57e-43
6.67 0.48 0.79 3.57e-43
6.73 0.48 0.79 3.57e-43
6.79 0.48 0.79 3.57e-43
6.84 0.48 0.79 3.57e-43
7.33 0.48 0.79 3.57e-43
7.38 0.48 0.79 3.57e-43
7.46 0.48 0.79 3.57e-43
7.53 0.48 0.79 3.57e-43
7.18 0.48 0.79 3.57e-43
7.24 0.48 0.79 3.57e-43
7.27 0.48 0.79 3.57e-43
7.37 0.48 0.79 3.57e-43
7.37 0.48 0.79 3.57e-43
7.42 0.48 0.79 9.1477e-41
7.49 0.48 0.77 9.1477e-41
5.9 0.52 0.8 3.57e-43
5.98 0.52 0.84 9.1477e-41
6.03 0.52 0.84 3.57e-43
6.09 0.52 0.84 3.57e-43
6.18 0.52 0.84 3.57e-43
6.26 0.52 0.84 3.57e-43
6.32 0.52 0.84 3.57e-43
6.58 0.52 0.84 3.57e-43
6.49 0.52 0.84 3.57e-43
6.55 0.52 0.84 3.57e-43
6.79 0.52 0.84 3.57e-43
6.92 0.52 0.84 3.57e-43
6.63 0.52 0.84 3.57e-43
6.67 0.52 0.84 3.57e-43
6.73 0.52 0.84 3.57e-43
6.79 0.52 0.84 3.57e-43
6.84 0.52 0.84 3.57e-43
7.33 0.52 0.84 3.57e-43
7.38 0.52 0.84 3.57e-43
7.46 0.52 0.84 3.57e-43
7.53 0.52 0.84 3.57e-43
7.18 0.52 0.84 3.57e-43
7.24 0.52 0.84 3.57e-43
7.27 0.52 0.84 3.57e-43
7.37 0.52 0.84 3.57e-43
7.37 0.52 0.84 3.57e-43
7.42 0.52 0.79 9.1477e-41
7.47 0.52 0.82 9.1477e-41
5.9 0.56 0.8 3.57e-43
5.98 0.56 0.84 9.1477e-41
6.02 0.56 0.84 3.57e-43
6.09 0.56 0.84 3.57e-43
6.18 0.56 0.84 3.57e-43
6.26 0.56 0.84 3.57e-43
6.32 0.56 0.84 3.57e-43
6.58 0.56 0.84 3.57e-43
6.49 0.56 0.84 3.57e-43
6.55 0.56 0.84 3.57e-43
6.79 0.56 0.84 3.57e-43
6.92 0.56 0.84 3.57e-43
6.63 0.56 0.84 3.57e-43
6.67 0.56 0.84 3.57e-43
6.73 0.56 0.84 3.57e-43
6.79 0.56 0.84 3.57e-43
6.84 0.56 0.84 3.57e-43
7.33 0.56 0.84 3.57e-43
7.38 0.56 0.84 3.57e-43
7.46 0.56 0.84 3.57e-43
7.53 0.56 0.84 3.57e-43
7.18 0.56 0.84 3.57e-43
7.24 0.56 0.84 3.57e-43
7.27 0.56 0.84 3.57e-43
7.37 0.56 0.84 3.57e-43
7.37 0.56 0.84 3.57e-43
7.42 0.56 0.79 9.1477e-41
7.45 0.56 0.84 9.1477e-41
6.5 0.6 0.94 3.57e-43
6.56 0.6 0.95 9.1477e-41
6.61 0.6 0.94 9.1477e-41
6.67 0.6 0.95 9.1477e-41
6.73 0.6 0.93 9.1477e-41
6.79 0.6 0.93 9.1477e-41
6.84 0.6 0.94 9.1477e-41
6.91 0.6 0.94 3.57e-43
7.53 0.6 0.94 3.57e-43
7.18 0.6 0.94 3.57e-43
7.24 0.6 0.94 3.57e-43
7.27 0.6 0.94 3.57e-43
7.37 0.6 0.94 3.57e-43
7.37 0.6 0.94 3.57e-43
7.42 0.6 0.94 3.57e-43
7.45 0.6 0.84 9.1477e-41
5.9 0.64 0.84 3.57e-43
6.01 0.64 0.84 3.57e-43
6.09 0.64 0.81 9.1477e-41
6.1 0.64 0.81 3.57e-43
6.26 0.64 0.81 3.57e-43
6.32 0.64 0.81 3.57e-43
6.58 0.64 0.81 3.57e-43
6.49 0.64 0.52 9.1477e-41
6.35 0.64 0.93 9.1477e-41
6.4 0.64 0.94 9.1477e-41
6.45 0.64 0.94 9.1477e-41
6.5 0.64 0.94 9.1477e-41
6.56 0.64 0.95 9.1477e-41
6.61 0.64 0.95 9.1477e-41
6.67 0.64 0.94 9.1477e-41
6.71 0.64 0.96 9.1477e-41
6.77 0.64 0.97 9.1477e-41
6.83 0.64 0.96 9.1477e-41
6.88 0.64 0.98 9.1477e-41
6.94 0.64 0.97 9.1477e-41
7.02 0.64 0.93 9.1477e-41
7.08 0.64 0.93 9.1477e-41
7.14 0.64 0.93 3.57e-43
7.37 0.64 0.93 3.57e-43
7.37 0.64 0.93 3.57e-43
7.42 0.64 0.93 3.57e-43
7.45 0.64 0.84 9.1477e-41
5.9 0.68 0.84 3.57e-43
6.01 0.68 0.84 3.57e-43
6.04 0.68 0.93 3.57e-43
6.1 0.68 0.91 3.57e-43
6.26 0.68 0.65 9.1477e-41
6.2 0.68 0.93 9.1477e-41
6.25 0.68 0.93 9.1477e-41
6.3 0.68 0.93 9.1477e-41
6.35 0.68 0.93 9.1477e-41
6.4 0.68 0.95 9.1477e-41
6.45 0.68 0.95 9.1477e-41
6.5 0.68 0.96 9.1477e-41
6.55 0.68 0.95 9.1477e-41
6.6 0.68 0.96 9.1477e-41
6.66 0.68 0.96 3.57e-43
6.71 0.68 0.96 3.57e-43
6.77 0.68 0.96 3.57e-43
6.83 0.68 0.96 9.1477e-41
6.89 0.68 0.96 3.57e-43
6.94 0.68 0.97 9.1477e-41
7.01 0.68 0.94 9.1477e-41
7.07 0.68 0.93 9.1477e-41
7.14 0.68 0.93 9.1477e-41
7.23 0.68 0.87 9.1477e-41
7.3 0.68 0.87 3.57e-43
7.42 0.68 0.87 3.57e-43
7.45 0.68 0.84 9.1477e-41
5.9 0.72 0.84 3.57e-43
6.01 0.72 0.84 3.57e-43
6.04 0.72 0.93 3.57e-43
6.1 0.72 0.91 9.1477e-41
6.15 0.72 0.91 9.1477e-41
6.19 0.72 0.95 9.1477e-41
6.24 0.72 0.94 9.1477e-41
6.29 0.72 0.94 3.57e-43
6.35 0.72 0.94 3.57e-43
6.4 0.72 0.94 3.57e-43
6.45 0.72 0.94 3.57e-43
6.5 0.72 0.94 3.57e-43
6.55 0.72 0.94 3.57e-43
6.6 0.72 0.94 3.57e-43
6.66 0.72 0.94 3.57e-43
6.71 0.72 0.94 3.57e-43
6.77 0.72 0.94 3.57e-43
6.83 0.72 0.94 3.57e-43
6.89 0.72 0.94 3.57e-43
6.94 0.72 0.94 3.57e-43
7.01 0.72 0.94 3.57e-43
7.07 0.72 0.93 9.1477e-41
7.12 0.72 0.96 9.1477e-41
7.19 0.72 0.94 9.1477e-41
7.25 0.72 0.95 9.1477e-41
7.33 0.72 0.95 3.57e-43
7.45 0.72 0.84 9.1477e-41
6.04 0.76 0.93 3.57e-43
6.1 0.76 0.91 9.1477e-41
6.14 0.76 0.94 9.1477e-41
6.19 0.76 0.94 3.57e-43
6.24 0.76 0.94 9.1477e-41
6.27 0.76 0.94 3.57e-43
6.35 0.76 0.94 3.57e-43
6.4 0.76 0.94 3.57e-43
6.45 0.76 0.94 3.57e-43
6.5 0.76 0.94 3.57e-43
6.55 0.76 0.94 3.57e-43
6.6 0.76 0.94 3.57e-43
6.66 0.76 0.94 3.57e-43
6.71 0.76 0.94 3.57e-43
6.77 0.76 0.94 3.57e-43
6.83 0.76 0.94 3.57e-43
6.89 0.76 0.94 3.57e-43
6.94 0.76 0.94 3.57e-43
7.01 0.76 0.94 3.57e-43
7.07 0.76 0.94 3.57e-43
7.12 0.76 0.94 3.57e-43
7.19 0.76 0.94 3.57e-43
7.25 0.76 0.95 9.1477e-41
7.33 0.76 0.92 9.1477e-41
7.39 0.76 0.92 3.57e-43
5.88 0.8 0.4 9.1477e-41
5.9 0.8 0.4 3.57e-43
6.06 0.8 0.4 3.57e-43
6.14 0.8 0.4 3.57e-43
5.95 0.8 0.4 3.57e-43
5.98 0.8 0.4 3.57e-43
6.01 0.8 0.9 9.1477e-41
6.04 0.8 0.93 9.1477e-41
6.09 0.8 0.93 3.57e-43
6.14 0.8 0.93 3.57e-43
6.19 0.8 0.95 9.1477e-41
6.23 0.8 0.95 3.57e-43
6.27 0.8 0.95 3.57e-43
6.35 0.8 0.95 3.57e-43
6.4 0.8 0.95 3.57e-43
6.45 0.8 0.95 3.57e-43
6.5 0.8 0.95 3.57e-43
6.55 0.8 0.95 3.57e-43
6.6 0.8 0.95 3.57e-43
6.66 0.8 0.95 3.57e-43
6.71 0.8 0.95 3.57e-43
6.77 0.8 0.95 3.57e-43
6.83 0.8 0.95 3.57e-43
6.89 0.8 0.95 3.57e-43
6.94 0.8 0.95 3.57e-43
7.01 0.8 0.95 3.57e-43
7.07 0.8 0.95 3.57e-43
7.12 0.8 0.95 3.57e-43
7.19 0.8 0.95 3.57e-43
7.25 0.8 0.95 3.57e-43
7.33 0.8 0.92 9.1477e-41
7.39 0.8 0.92 3.57e-43
5.9 0.84 0.95 3.57e-43
6.17 0.84 0.99 9.1477e-41
6.22 0.84 0.99 3.57e-43
6.27 0.84 0.99 3.57e-43
6.35 0.84 0.99 3.57e-43
6.4 0.84 0.99 3.57e-43
6.45 0.84 0.99 3.57e-43
6.5 0.84 0.99 3.57e-43
6.55 0.84 0.99 3.57e-43
6.6 0.84 0.99 3.57e-43
6.66 0.84 0.99 3.57e-43
6.71 0.84 0.99 3.57e-43
6.77 0.84 0.99 3.57e-43
6.83 0.84 0.99 3.57e-43
6.89 0.84 0.99 3.57e-43
6.94 0.84 0.99 3.57e-43
7.01 0.84 0.99 3.57e-43
7.07 0.84 0.99 3.57e-43
7.12 0.84 0.99 3.57e-43
7.19 0.84 0.99 3.57e-43
7.25 0.84 0.99 3.57e-43
7.33 0.84 0.99 3.57e-43
7.39 0.84 0.93 9.1477e-41
7.45 0.84 0.94 9.1477e-41
6.94 0.88 0.42 3.57e-43
6.98 0.88 0.99 9.1477e-41
7.01 0.88 1.05 9.1477e-41
7.07 0.88 1.04 9.1477e-41
7.13 0.88 1.04 3.57e-43
7.25 0.88 1.04 3.57e-43
7.33 0.88 1.04 3.57e-43
7.39 0.88 0.93 9.1477e-41
7.45 0.88 0.93 9.1477e-41
6.94 0.92 0.42 3.57e-43
6.97 0.92 1.01 9.1477e-41
7.01 0.92 1.05 9.1477e-41
7.06 0.92 1.05 9.1477e-41
7.12 0.92 1.05 3.57e-43
7.25 0.92 1.05 3.57e-43
7.33 0.92 0.92 9.1477e-41
7.37 0.92 0.95 9.1477e-41
7.42 0.92 0.97 9.1477e-41
5.88 0.96 0.42 9.1477e-41
5.88 0.96 0.42 3.57e-43
6.06 0.96 0.42 3.57e-43
6.14 0.96 0.42 3.57e-43
5.95 0.96 0.42 3.57e-43
5.98 0.96 0.42 3.57e-43
6.01 0.96 0.42 3.57e-43
6.04 0.96 0.42 3.57e-43
6.09 0.96 0.42 3.57e-43
6.14 0.96 0.42 3.57e-43
6.17 0.96 0.42 3.57e-43
6.22 0.96 0.42 3.57e-43
6.27 0.96 0.42 3.57e-43
6.35 0.96 0.42 3.57e-43
6.4 0.96 0.42 3.57e-43
6.45 0.96 0.42 3.57e-43
6.5 0.96 0.42 3.57e-43
6.55 0.96 0.42 3.57e-43
6.6 0.96 0.42 3.57e-43
6.66 0.96 0.42 3.57e-43
6.71 0.96 0.42 3.57e-43
6.77 0.96 0.42 3.57e-43
6.83 0.96 0.42 3.57e-43
6.89 0.96 0.42 3.57e-43
6.94 0.96 0.42 3.57e-43
6.97 0.96 0.42 3.57e-43
7.01 0.96 0.42 3.57e-43
7.06 0.96 0.42 3.57e-43
7.12 0.96 0.42 3.57e-43
7.25 0.96 0.42 3.57e-43
7.33 0.96 0.42 3.57e-43
7.37 0.96 0.95 9.1477e-41
7.4 0.96 0.99 9.1477e-41
5.87 1 0.44 9.1477e-41
5.88 1 0.44 3.57e-43
6.06 1 0.44 3.57e-43
6.14 1 0.44 3.57e-43
5.95 1 0.44 3.57e-43
5.98 1 0.44 3.57e-43
6.01 1 0.44 3.57e-43
6.04 1 0.44 3.57e-43
6.09 1 0.44 3.57e-43
6.14 1 0.44 3.57e-43
6.17 1 0.44 3.57e-43
6.22 1 0.44 3.57e-43
6.27 1 0.44 3.57e-43
6.35 1 0.44 3.57e-43
6.4 1 0.44 3.57e-43
6.45 1 0.44 3.57e-43
6.5 1 0.44 3.57e-43
6.55 1 0.44 3.57e-43
6.6 1 0.44 3.57e-43
6.66 1 0.44 3.57e-43
6.71 1 0.44 3.57e-43
6.77 1 0.44 3.57e-43
6.83 1 0.44 3.57e-43
6.89 1 0.44 3.57e-43
6.94 1 0.44 3.57e-43
6.97 1 0.44 3.57e-43
7.01 1 0.44 3.57e-43
7.06 1 0.44 3.57e-43
7.12 1 0.44 3.57e-43
7.25 1 0.44 3.57e-43
7.33 1 0.44 3.57e-43
7.37 1 0.95 9.1477e-41
7.39 1 1.02 9.1477e-41
5.87 1.04 0.43 9.1477e-41
5.88 1.04 0.43 3.57e-43
6.06 1.04 0.43 3.57e-43
6.14 1.04 0.43 3.57e-43
5.95 1.04 0.8 9.1477e-41
5.97 1.04 0.8 3.57e-43
6.01 1.04 0.8 3.57e-43
6.04 1.04 0.8 3.57e-43
6.09 1.04 0.8 3.57e-43
6.14 1.04 0.8 3.57e-43
6.17 1.04 0.8 3.57e-43
6.22 1.04 0.8 3.57e-43
6.27 1.04 0.8 3.57e-43
6.35 1.04 0.8 3.57e-43
6.4 1.04 0.8 3.57e-43
6.45 1.04 0.8 3.57e-43
6.5 1.04 0.8 3.57e-43
6.55 1.04 0.8 3.57e-43
6.6 1.04 0.96 9.1477e-41
6.64 1.04 0.96 3.57e-43
6.71 1.04 0.96 3.57e-43
6.77 1.04 0.96 3.57e-43
6.83 1.04 0.96 3.57e-43
6.89 1.04 0.96 3.57e-43
6.94 1.04 0.96 3.57e-43
6.97 1.04 0.96 3.57e-43
7.01 1.04 0.96 3.57e-43
7.06 1.04 0.96 3.57e-43
7.12 1.04 0.96 3.57e-43
7.25 1.04 0.96 3.57e-43
7.33 1.04 0.96 3.57e-43
7.37 1.04 0.95 9.1477e-41
7.39 1.04 0.95 3.57e-43
5.87 1.08 0.43 9.1477e-41
5.88 1.08 0.43 3.57e-43
6.06 1.08 0.43 3.57e-43
6.14 1.08 0.43 3.57e-43
5.95 1.08 0.8 9.1477e-41
5.97 1.08 0.8 3.57e-43
6.01 1.08 0.8 3.57e-43
6.04 1.08 0.8 3.57e-43
6.09 1.08 0.8 3.57e-43
6.14 1.08 0.8 3.57e-43
6.17 1.08 0.8 3.57e-43
6.22 1.08 0.8 3.57e-43
6.27 1.08 0.8 3.57e-43
6.35 1.08 0.8 3.57e-43
6.4 1.08 0.8 3.57e-43
6.45 1.08 0.8 3.57e-43
6.5 1.08 0.8 3.57e-43
6.55 1.08 0.8 3.57e-43
6.6 1.08 0.96 9.1477e-41
6.65 1.08 0.97 9.1477e-41
6.71 1.08 0.96 9.1477e-41
6.77 1.08 0.96 3.57e-43
6.83 1.08 0.96 3.57e-43
6.89 1.08 0.96 3.57e-43
6.94 1.08 0.96 3.57e-43
6.97 1.08 0.96 3.57e-43
7.01 1.08 0.96 3.57e-43
7.06 1.08 0.96 3.57e-43
7.12 1.08 0.96 3.57e-43
7.25 1.08 0.96 3.57e-43
7.33 1.08 0.96 3.57e-43
7.37 1.08 0.95 9.1477e-41
7.37 1.08 0.95 3.57e-43
5.87 1.12 0.44 9.1477e-41
5.89 1.12 0.44 3.57e-43
6.06 1.12 0.44 3.57e-43
5.93 1.12 0.86 9.1477e-41
5.97 1.12 0.86 3.57e-43
6.01 1.12 0.86 3.57e-43
6.04 1.12 0.86 3.57e-43
6.09 1.12 0.86 3.57e-43
6.14 1.12 0.86 3.57e-43
6.17 1.12 0.86 3.57e-43
6.22 1.12 0.86 3.57e-43
6.27 1.12 0.86 3.57e-43
6.35 1.12 0.86 3.57e-43
6.4 1.12 0.86 3.57e-43
6.45 1.12 0.86 3.57e-43
6.5 1.12 0.86 3.57e-43
6.55 1.12 0.95 9.1477e-41
6.59 1.12 0.98 9.1477e-41
6.67 1.12 0.94 9.1477e-41
6.73 1.12 0.93 9.1477e-41
6.79 1.12 0.93 9.1477e-41
6.83 1.12 0.93 3.57e-43
6.89 1.12 0.93 3.57e-43
6.94 1.12 0.93 3.57e-43
6.97 1.12 0.93 3.57e-43
7.01 1.12 0.93 3.57e-43
7.06 1.12 0.93 3.57e-43
7.12 1.12 0.93 3.57e-43
7.25 1.12 0.93 3.57e-43
7.33 1.12 0.93 3.57e-43
7.37 1.12 0.93 3.57e-43
7.37 1.12 0.93 3.57e-43
5.87 1.16 0.43 9.1477e-41
5.88 1.16 0.43 3.57e-43
5.88 1.16 0.43 3.57e-43
5.93 1.16 0.85 9.1477e-41
5.97 1.16 0.85 3.57e-43
6.01 1.16 0.85 3.57e-43
6.04 1.16 0.85 3.57e-43
6.09 1.16 0.85 3.57e-43
6.14 1.16 0.85 3.57e-43
6.17 1.16 0.85 3.57e-43
6.22 1.16 0.85 3.57e-43
6.27 1.16 0.85 3.57e-43
6.35 1.16 0.85 3.57e-43
6.4 1.16 0.85 3.57e-43
6.45 1.16 0.85 3.57e-43
6.5 1.16 0.85 3.57e-43
6.55 1.16 0.85 3.57e-43
6.59 1.16 0.98 9.1477e-41
6.67 1.16 0.94 9.1477e-41
6.73 1.16 0.93 9.1477e-41
6.78 1.16 0.94 9.1477e-41
6.82 1.16 0.94 3.57e-43
6.89 1.16 0.94 3.57e-43
6.94 1.16 0.94 3.57e-43
6.97 1.16 0.94 3.57e-43
7.01 1.16 0.94 3.57e-43
7.06 1.16 0.94 3.57e-43
7.12 1.16 0.94 3.57e-43
7.25 1.16 0.94 3.57e-43
7.33 1.16 0.94 3.57e-43
7.37 1.16 0.94 3.57e-43
7.37 1.16 0.94 3.57e-43
5.87 1.2 0.43 9.1477e-41
5.88 1.2 0.43 3.57e-43
6.06 1.2 0.43 3.57e-43
5.88 1.2 0.43 3.57e-43
5.93 1.2 0.43 3.57e-43
5.97 1.2 0.43 3.57e-43
6.01 1.2 0.43 3.57e-43
6.04 1.2 0.43 3.57e-43
6.09 1.2 0.43 3.57e-43
6.14 1.2 0.43 3.57e-43
6.17 1.2 0.43 3.57e-43
6.22 1.2 0.43 3.57e-43
6.27 1.2 0.43 3.57e-43
6.35 1.2 0.43 3.57e-43
6.4 1.2 0.43 3.57e-43
6.45 1.2 0.43 3.57e-43
6.5 1.2 0.43 3.57e-43
6.55 1.2 0.43 3.57e-43
6.59 1.2 0.43 3.57e-43
6.67 1.2 0.43 3.57e-43
6.73 1.2 0.43 3.57e-43
6.78 1.2 0.43 3.57e-43
6.82 1.2 0.43 3.57e-43
6.89 1.2 0.43 3.57e-43
6.94 1.2 0.43 3.57e-43
6.97 1.2 0.43 3.57e-43
7.01 1.2 0.43 3.57e-43
7.06 1.2 0.43 3.57e-43
7.12 1.2 0.43 3.57e-43
7.25 1.2 0.43 3.57e-43
7.33 1.2 0.43 3.57e-43
7.37 1.2 0.43 3.57e-43
7.37 1.2 1.04 9.1477e-41
7.35 1.2 1.04 3.57e-43
5.82 1.24 1 3.57e-43
5.87 1.24 1.01 9.1477e-41
5.95 1.24 0.93 9.1477e-41
5.99 1.24 0.93 3.57e-43
6.04 1.24 0.93 3.57e-43
6.09 1.24 0.93 3.57e-43
6.14 1.24 0.93 3.57e-43
6.17 1.24 0.93 3.57e-43
6.22 1.24 0.93 3.57e-43
6.27 1.24 0.93 3.57e-43
6.35 1.24 0.93 3.57e-43
6.4 1.24 0.93 3.57e-43
6.45 1.24 0.93 3.57e-43
6.5 1.24 0.93 3.57e-43
6.55 1.24 0.93 3.57e-43
6.59 1.24 0.93 3.57e-43
6.67 1.24 0.93 3.57e-43
6.73 1.24 0.93 3.57e-43
6.78 1.24 0.93 3.57e-43
6.82 1.24 0.93 3.57e-43
6.89 1.24 0.93 3.57e-43
6.94 1.24 0.93 3.57e-43
6.97 1.24 0.93 3.57e-43
7.01 1.24 0.93 3.57e-43
7.06 1.24 0.93 3.57e-43
7.12 1.24 0.93 3.57e-43
7.25 1.24 0.93 3.57e-43
7.33 1.24 0.93 3.57e-43
7.37 1.24 0.93 3.57e-43
7.37 1.24 1.04 9.1477e-41
7.34 1.24 1.17 9.1477e-41
7.5 1.24 1.03 9.1477e-41
7.58 1.24 1.02 9.1477e-41
5.87 1.28 0.56 3.57e-43
5.78 1.28 0.98 9.1477e-41
5.82 1.28 1 9.1477e-41
5.88 1.28 0.97 9.1477e-41
5.97 1.28 0.88 9.1477e-41
6.03 1.28 0.85 9.1477e-41
6.06 1.28 0.85 3.57e-43
6.17 1.28 0.85 3.57e-43
6.22 1.28 0.85 3.57e-43
6.27 1.28 0.85 3.57e-43
6.35 1.28 0.85 3.57e-43
6.4 1.28 0.85 3.57e-43
6.45 1.28 0.85 3.57e-43
6.5 1.28 0.96 9.1477e-41
6.67 1.28 0.96 3.57e-43
6.59 1.28 0.96 3.57e-43
6.67 1.28 0.93 9.1477e-41
6.83 1.28 0.75 9.1477e-41
6.9 1.28 0.75 3.57e-43
6.82 1.28 0.75 3.57e-43
6.89 1.28 0.75 3.57e-43
6.94 1.28 0.75 3.57e-43
6.97 1.28 0.75 3.57e-43
7.01 1.28 0.75 3.57e-43
7.06 1.28 0.75 3.57e-43
7.12 1.28 0.75 3.57e-43
7.25 1.28 0.75 3.57e-43
7.33 1.28 0.75 3.57e-43
7.37 1.28 0.75 3.57e-43
7.37 1.28 1.04 9.1477e-41
7.33 1.28 1.04 3.57e-43
7.5 1.28 1.03 9.1477e-41
7.6 1.28 0.99 9.1477e-41
5.88 1.32 0.97 3.57e-43
5.97 1.32 0.88 9.1477e-41
6.03 1.32 0.85 9.1477e-41
6.44 1.32 0.85 3.57e-43
6.17 1.32 0.85 3.57e-43
6.22 1.32 0.85 3.57e-43
6.27 1.32 0.85 3.57e-43
6.35 1.32 0.85 3.57e-43
6.4 1.32 0.85 3.57e-43
6.45 1.32 0.85 3.57e-43
6.5 1.32 0.85 3.57e-43
6.67 1.32 0.85 3.57e-43
6.59 1.32 0.98 9.1477e-41
6.87 1.32 0.57 9.1477e-41
6.87 1.32 0.68 9.1477e-41
6.89 1.32 0.75 9.1477e-41
6.94 1.32 0.75 3.57e-43
6.89 1.32 0.75 3.57e-43
6.94 1.32 0.75 3.57e-43
6.97 1.32 0.75 3.57e-43
7.01 1.32 0.75 3.57e-43
7.06 1.32 0.75 3.57e-43
7.12 1.32 0.75 3.57e-43
7.25 1.32 0.75 3.57e-43
7.33 1.32 0.75 3.57e-43
7.37 1.32 0.75 3.57e-43
7.37 1.32 1.04 9.1477e-41
7.33 1.32 1.04 3.57e-43
7.5 1.32 1.03 9.1477e-41
5.88 1.36 0.42 9.1477e-41
5.88 1.36 0.42 3.57e-43
5.78 1.36 0.42 3.57e-43
5.82 1.36 0.42 3.57e-43
5.88 1.36 0.97 9.1477e-41
5.96 1.36 0.89 9.1477e-41
6.03 1.36 0.85 9.1477e-41
6.38 1.36 0.85 3.57e-43
6.17 1.36 0.85 3.57e-43
6.22 1.36 0.85 3.57e-43
6.27 1.36 0.85 3.57e-43
6.35 1.36 0.85 3.57e-43
6.4 1.36 0.85 3.57e-43
6.45 1.36 0.85 3.57e-43
6.5 1.36 0.96 9.1477e-41
6.71 1.36 0.65 9.1477e-41
6.75 1.36 0.65 3.57e-43
6.87 1.36 0.65 3.57e-43
6.87 1.36 0.68 9.1477e-41
6.61 1.36 0.68 3.57e-43
6.94 1.36 0.68 3.57e-43
6.89 1.36 0.68 3.57e-43
6.94 1.36 0.68 3.57e-43
6.97 1.36 0.68 3.57e-43
7.01 1.36 0.68 3.57e-43
7.06 1.36 0.68 3.57e-43
7.12 1.36 0.68 3.57e-43
7.25 1.36 0.68 3.57e-43
7.33 1.36 0.68 3.57e-43
7.37 1.36 0.68 3.57e-43
7.37 1.36 1.04 9.1477e-41
7.34 1.36 1.04 3.57e-43
7.5 1.36 1.03 9.1477e-41
5.88 1.4 0.97 3.57e-43
5.96 1.4 0.89 9.1477e-41
6.03 1.4 0.85 9.1477e-41
6.2 1.4 0.54 9.1477e-41
6.25 1.4 0.55 9.1477e-41
6.31 1.4 0.55 9.1477e-41
6.36 1.4 0.55 3.57e-43
6.22 1.4 0.55 3.57e-43
6.27 1.4 0.55 3.57e-43
6.35 1.4 0.55 3.57e-43
6.4 1.4 0.55 3.57e-43
6.45 1.4 0.55 3.57e-43
6.5 1.4 0.96 9.1477e-41
6.7 1.4 0.66 9.1477e-41
6.75 1.4 0.66 3.57e-43
6.87 1.4 0.58 9.1477e-41
6.91 1.4 0.62 9.1477e-41
6.57 1.4 0.62 3.57e-43
6.94 1.4 0.62 3.57e-43
6.89 1.4 0.62 3.57e-43
6.94 1.4 0.62 3.57e-43
6.97 1.4 0.62 3.57e-43
7.01 1.4 0.62 3.57e-43
7.06 1.4 0.62 3.57e-43
7.12 1.4 1.05 9.1477e-41
7.17 1.4 1.06 9.1477e-41
7.25 1.4 1.06 3.57e-43
7.37 1.4 1.06 3.57e-43
7.37 1.4 1.06 3.57e-43
7.34 1.4 1.06 3.57e-43
7.5 1.4 1.04 9.1477e-41
5.88 1.44 0.97 3.57e-43
5.96 1.44 0.89 9.1477e-41
6.05 1.44 0.79 9.1477e-41
6.19 1.44 0.56 9.1477e-41
6.26 1.44 0.54 9.1477e-41
6.31 1.44 0.55 9.1477e-41
6.37 1.44 0.55 3.57e-43
6.22 1.44 0.55 3.57e-43
6.27 1.44 0.55 3.57e-43
6.35 1.44 0.55 3.57e-43
6.4 1.44 0.95 9.1477e-41
6.27 1.44 0.95 3.57e-43
6.5 1.44 0.95 3.57e-43
6.7 1.44 0.95 3.57e-43
6.75 1.44 0.95 3.57e-43
6.87 1.44 0.95 3.57e-43
6.91 1.44 0.95 3.57e-43
6.57 1.44 0.95 3.57e-43
6.94 1.44 0.95 3.57e-43
6.89 1.44 0.95 3.57e-43
6.94 1.44 0.95 3.57e-43
6.97 1.44 0.95 3.57e-43
7.01 1.44 0.95 3.57e-43
7.06 1.44 0.95 3.57e-43
7.12 1.44 0.95 3.57e-43
7.17 1.44 0.95 3.57e-43
7.25 1.44 0.95 3.57e-43
7.37 1.44 0.95 3.57e-43
7.37 1.44 0.95 3.57e-43
7.34 1.44 0.95 3.57e-43
7.5 1.44 1.04 9.1477e-41
5.88 1.48 0.97 3.57e-43
5.96 1.48 0.9 9.1477e-41
6.04 1.48 0.82 9.1477e-41
6.2 1.48 0.55 9.1477e-41
6.26 1.48 0.53 9.1477e-41
6.32 1.48 0.52 9.1477e-41
6.36 1.48 0.55 9.1477e-41
6.43 1.48 0.55 3.57e-43
6.27 1.48 0.55 3.57e-43
6.35 1.48 0.55 3.57e-43
6.4 1.48 0.55 3.57e-43
6.27 1.48 0.55 3.57e-43
6.5 1.48 0.55 3.57e-43
6.7 1.48 0.55 3.57e-43
6.75 1.48 0.55 3.57e-43
6.87 1.48 0.55 3.57e-43
6.91 1.48 0.55 3.57e-43
6.57 1.48 0.55 3.57e-43
6.94 1.48 0.55 3.57e-43
6.89 1.48 0.55 3.57e-43
6.94 1.48 0.55 3.57e-43
6.97 1.48 0.55 3.57e-43
7.01 1.48 0.55 3.57e-43
7.06 1.48 0.55 3.57e-43
7.12 1.48 0.55 3.57e-43
7.17 1.48 0.55 3.57e-43
7.25 1.48 0.55 3.57e-43
7.37 1.48 0.55 3.57e-43
7.37 1.48 0.55 3.57e-43
7.34 1.48 0.55 3.57e-43
7.5 1.48 1.04 9.1477e-41
5.88 1.52 0.41 9.1477e-41
5.88 1.52 0.41 3.57e-43
5.78 1.52 0.41 3.57e-43
5.82 1.52 0.41 3.57e-43
5.88 1.52 0.97 9.1477e-41
5.95 1.52 0.91 9.1477e-41
6.02 1.52 0.86 9.1477e-41
6.2 1.52 0.54 9.1477e-41
6.27 1.52 0.52 9.1477e-41
6.32 1.52 0.53 9.1477e-41
6.37 1.52 0.55 9.1477e-41
6.42 1.52 0.55 9.1477e-41
6.51 1.52 0.55 3.57e-43
6.35 1.52 0.93 9.1477e-41
6.19 1.52 1.37 9.1477e-41
6.24 1.52 1.37 3.57e-43
6.5 1.52 1.37 3.57e-43
6.7 1.52 1.37 3.57e-43
6.75 1.52 1.37 3.57e-43
6.87 1.52 1.37 3.57e-43
6.91 1.52 1.37 3.57e-43
6.57 1.52 1.37 3.57e-43
6.94 1.52 1.37 3.57e-43
6.89 1.52 1.37 3.57e-43
6.94 1.52 1.37 3.57e-43
6.97 1.52 1.37 3.57e-43
7.01 1.52 1.37 3.57e-43
7.06 1.52 1.37 3.57e-43
7.12 1.52 1.37 3.57e-43
7.17 1.52 1.37 3.57e-43
7.25 1.52 1.37 3.57e-43
7.37 1.52 1.37 3.57e-43
7.37 1.52 1.37 3.57e-43
7.34 1.52 1.18 9.1477e-41
7.27 1.52 1.35 9.1477e-41
5.88 1.56 0.97 3.57e-43
5.95 1.56 0.91 9.1477e-41
6.03 1.56 0.85 9.1477e-41
6.21 1.56 0.52 9.1477e-41
6.27 1.56 0.52 9.1477e-41
6.33 1.56 0.51 9.1477e-41
6.38 1.56 0.52 9.1477e-41
6.43 1.56 0.53 9.1477e-41
6.51 1.56 0.53 3.57e-43
6.35 1.56 0.93 9.1477e-41
6.19 1.56 1.38 9.1477e-41
6.23 1.56 1.38 3.57e-43
6.5 1.56 1.38 3.57e-43
6.7 1.56 1.38 3.57e-43
6.75 1.56 1.38 3.57e-43
6.87 1.56 1.38 3.57e-43
6.91 1.56 1.38 3.57e-43
6.57 1.56 1.38 3.57e-43
6.94 1.56 1.38 3.57e-43
6.89 1.56 1.38 3.57e-43
6.94 1.56 1.38 3.57e-43
6.97 1.56 1.38 3.57e-43
7.01 1.56 1.38 3.57e-43
7.06 1.56 1.38 3.57e-43
7.12 1.56 1.38 3.57e-43
7.17 1.56 1.38 3.57e-43
7.25 1.56 1.38 3.57e-43
7.37 1.56 1.38 3.57e-43
7.37 1.56 1.38 3.57e-43
7.34 1.56 1.18 9.1477e-41
7.28 1.56 1.34 9.1477e-41
5.88 1.6 0.97 3.57e-43
5.95 1.6 0.91 9.1477e-41
6.02 1.6 0.87 9.1477e-41
6.22 1.6 0.51 9.1477e-41
6.27 1.6 0.51 9.1477e-41
6.33 1.6 0.5 9.1477e-41
6.38 1.6 0.51 9.1477e-41
6.44 1.6 0.51 9.1477e-41
6.51 1.6 0.51 3.57e-43
6.35 1.6 0.93 9.1477e-41
6.2 1.6 1.36 9.1477e-41
6.23 1.6 1.36 3.57e-43
6.5 1.6 1.36 3.57e-43
6.7 1.6 1.36 3.57e-43
6.75 1.6 1.36 3.57e-43
6.87 1.6 1.36 3.57e-43
6.91 1.6 1.36 3.57e-43
6.57 1.6 1.36 3.57e-43
6.94 1.6 1.36 3.57e-43
6.89 1.6 1.36 3.57e-43
6.94 1.6 1.36 3.57e-43
6.97 1.6 1.36 3.57e-43
7.01 1.6 1.36 3.57e-43
7.06 1.6 1.36 3.57e-43
7.12 1.6 1.36 3.57e-43
7.17 1.6 1.36 3.57e-43
7.25 1.6 1.36 3.57e-43
7.37 1.6 1.36 3.57e-43
7.37 1.6 1.36 3.57e-43
7.34 1.6 1.36 3.57e-43
7.28 1.6 1.34 9.1477e-41
5.88 1.64 0.97 3.57e-43
5.95 1.64 0.92 9.1477e-41
6 1.64 0.93 9.1477e-41
6.22 1.64 0.51 9.1477e-41
6.28 1.64 0.49 9.1477e-41
6.34 1.64 0.48 9.1477e-41
6.39 1.64 0.49 9.1477e-41
6.45 1.64 0.49 9.1477e-41
6.51 1.64 0.49 3.57e-43
6.35 1.64 0.93 9.1477e-41
6.19 1.64 1.38 9.1477e-41
6.23 1.64 1.39 9.1477e-41
6.27 1.64 1.39 3.57e-43
6.7 1.64 1.39 3.57e-43
6.75 1.64 1.39 3.57e-43
6.87 1.64 1.39 3.57e-43
6.91 1.64 1.39 3.57e-43
6.57 1.64 1.39 3.57e-43
6.94 1.64 1.39 3.57e-43
6.89 1.64 1.39 3.57e-43
6.94 1.64 1.39 3.57e-43
6.97 1.64 1.39 3.57e-43
7.01 1.64 1.39 3.57e-43
7.06 1.64 1.39 3.57e-43
7.12 1.64 1.39 3.57e-43
7.17 1.64 1.39 3.57e-43
7.25 1.64 1.39 3.57e-43
7.37 1.64 1.39 3.57e-43
7.37 1.64 1.39 3.57e-43
7.34 1.64 1.39 3.57e-43
7.28 1.64 1.34 9.1477e-41
5.88 1.68 0.97 3.57e-43
5.95 1.68 0.92 9.1477e-41
6 1.68 0.93 9.1477e-41
6.2 1.68 0.54 9.1477e-41
6.28 1.68 0.48 9.1477e-41
6.34 1.68 0.47 9.1477e-41
6.4 1.68 0.48 9.1477e-41
6.45 1.68 0.49 9.1477e-41
6.5 1.68 0.49 3.57e-43
6.35 1.68 0.93 9.1477e-41
6.19 1.68 1.38 9.1477e-41
6.22 1.68 1.41 9.1477e-41
6.27 1.68 1.41 3.57e-43
6.7 1.68 1.41 3.57e-43
6.75 1.68 1.41 3.57e-43
6.87 1.68 1.41 3.57e-43
6.91 1.68 1.41 3.57e-43
6.57 1.68 1.41 3.57e-43
6.94 1.68 1.41 3.57e-43
6.89 1.68 1.41 3.57e-43
6.94 1.68 1.41 3.57e-43
6.97 1.68 1.41 3.57e-43
7.01 1.68 1.41 3.57e-43
7.06 1.68 1.41 3.57e-43
7.12 1.68 1.41 3.57e-43
7.17 1.68 1.41 3.57e-43
7.25 1.68 1.41 3.57e-43
7.37 1.68 1.41 3.57e-43
7.37 1.68 1.41 3.57e-43
7.34 1.68 1.18 9.1477e-41
7.25 1.68 1.38 9.1477e-41
5.88 1.72 0.56 3.57e-43
5.85 1.72 0.56 3.57e-43
5.82 1.72 0.56 3.57e-43
5.88 1.72 0.97 9.1477e-41
5.95 1.72 0.93 9.1477e-41
5.99 1.72 0.94 9.1477e-41
6.13 1.72 0.71 9.1477e-41
6.21 1.72 0.66 9.1477e-41
6.35 1.72 0.45 9.1477e-41
6.4 1.72 0.47 9.1477e-41
6.46 1.72 0.47 9.1477e-41
6.51 1.72 0.47 3.57e-43
6.35 1.72 0.93 9.1477e-41
6.19 1.72 1.38 9.1477e-41
6.23 1.72 1.4 9.1477e-41
6.27 1.72 1.4 3.57e-43
6.7 1.72 1.4 3.57e-43
6.75 1.72 1.4 3.57e-43
6.87 1.72 1.4 3.57e-43
6.91 1.72 1.4 3.57e-43
6.57 1.72 1.4 3.57e-43
6.94 1.72 1.4 3.57e-43
6.89 1.72 1.4 3.57e-43
6.94 1.72 1.4 3.57e-43
6.97 1.72 1.4 3.57e-43
7.01 1.72 1.4 3.57e-43
7.06 1.72 1.4 3.57e-43
7.12 1.72 1.4 3.57e-43
7.17 1.72 1.4 3.57e-43
7.25 1.72 1.4 3.57e-43
7.37 1.72 1.4 3.57e-43
7.37 1.72 1.4 3.57e-43
7.34 1.72 1.18 9.1477e-41
7.24 1.72 1.39 9.1477e-41
5.88 1.76 0.97 3.57e-43
5.95 1.76 0.92 9.1477e-41
5.99 1.76 0.94 9.1477e-41
6.1 1.76 0.79 9.1477e-41
6.17 1.76 0.76 9.1477e-41
6.22 1.76 0.77 9.1477e-41
6.4 1.76 0.47 9.1477e-41
6.43 1.76 0.54 9.1477e-41
6.48 1.76 0.54 3.57e-43
6.35 1.76 0.93 9.1477e-41
6.19 1.76 1.38 9.1477e-41
6.23 1.76 1.4 9.1477e-41
6.27 1.76 1.4 3.57e-43
6.7 1.76 1.4 3.57e-43
6.75 1.76 1.4 3.57e-43
6.87 1.76 1.4 3.57e-43
6.91 1.76 1.4 3.57e-43
6.57 1.76 1.4 3.57e-43
6.94 1.76 1.4 3.57e-43
6.89 1.76 1.4 3.57e-43
6.94 1.76 1.4 3.57e-43
6.97 1.76 1.4 3.57e-43
7.01 1.76 1.4 3.57e-43
7.06 1.76 1.4 3.57e-43
7.12 1.76 1.4 3.57e-43
7.17 1.76 1.4 3.57e-43
7.25 1.76 1.4 3.57e-43
7.37 1.76 1.4 3.57e-43
7.37 1.76 1.4 3.57e-43
7.34 1.76 1.18 9.1477e-41
7.24 1.76 1.4 9.1477e-41
5.88 1.8 0.97 3.57e-43
5.94 1.8 0.94 3.57e-43
5.99 1.8 0.94 9.1477e-41
6.01 1.8 1.03 9.1477e-41
6.04 1.8 1.05 9.1477e-41
6.13 1.8 0.95 9.1477e-41
6.25 1.8 0.8 9.1477e-41
6.36 1.8 0.69 9.1477e-41
6.41 1.8 0.69 3.57e-43
6.35 1.8 0.93 9.1477e-41
6.18 1.8 1.39 9.1477e-41
6.22 1.8 1.41 9.1477e-41
6.26 1.8 1.41 3.57e-43
6.7 1.8 1.41 3.57e-43
6.75 1.8 1.41 3.57e-43
6.87 1.8 1.41 3.57e-43
6.91 1.8 1.41 3.57e-43
6.57 1.8 1.41 3.57e-43
6.94 1.8 1.41 3.57e-43
6.89 1.8 1.41 3.57e-43
6.94 1.8 1.41 3.57e-43
6.97 1.8 1.41 3.57e-43
7.01 1.8 1.41 3.57e-43
7.06 1.8 1.41 3.57e-43
7.12 1.8 1.41 3.57e-43
7.17 1.8 1.41 3.57e-43
7.25 1.8 1.41 3.57e-43
7.37 1.8 1.41 3.57e-43
7.37 1.8 1.41 3.57e-43
7.34 1.8 1.18 9.1477e-41
7.23 1.8 1.41 9.1477e-41
5.88 1.84 0.97 3.57e-43
5.94 1.84 0.94 3.57e-43
5.99 1.84 0.94 3.57e-43
6.01 1.84 0.94 3.57e-43
6.04 1.84 0.94 3.57e-43
6.13 1.84 0.95 9.1477e-41
6.08 1.84 1.19 9.1477e-41
6.11 1.84 1.22 9.1477e-41
6.14 1.84 1.28 9.1477e-41
6.17 1.84 1.32 9.1477e-41
6.19 1.84 1.38 9.1477e-41
6.22 1.84 1.41 9.1477e-41
6.26 1.84 1.42 9.1477e-41
6.31 1.84 1.42 3.57e-43
6.75 1.84 1.42 3.57e-43
6.87 1.84 1.42 3.57e-43
6.91 1.84 1.42 3.57e-43
6.57 1.84 1.42 3.57e-43
6.94 1.84 1.42 3.57e-43
6.89 1.84 1.42 3.57e-43
6.94 1.84 1.42 3.57e-43
6.97 1.84 1.42 3.57e-43
7.01 1.84 1.42 3.57e-43
7.06 1.84 1.42 3.57e-43
7.12 1.84 1.42 3.57e-43
7.17 1.84 1.42 3.57e-43
7.25 1.84 1.42 3.57e-43
7.37 1.84 1.42 3.57e-43
7.37 1.84 1.42 3.57e-43
7.34 1.84 1.18 9.1477e-41
7.24 1.84 1.4 9.1477e-41
5.88 1.88 0.97 3.57e-43
5.94 1.88 0.94 3.57e-43
5.99 1.88 0.94 3.57e-43
6.01 1.88 0.94 3.57e-43
6.04 1.88 0.94 3.57e-43
6.13 1.88 0.94 3.57e-43
6.08 1.88 0.94 3.57e-43
6.11 1.88 0.94 3.57e-43
6.14 1.88 0.94 3.57e-43
6.17 1.88 1.32 9.1477e-41
6.19 1.88 1.38 9.1477e-41
6.22 1.88 1.41 9.1477e-41
6.27 1.88 1.41 9.1477e-41
6.31 1.88 1.41 3.57e-43
6.75 1.88 1.41 3.57e-43
6.87 1.88 1.41 3.57e-43
6.91 1.88 1.41 3.57e-43
6.57 1.88 1.41 3.57e-43
6.94 1.88 1.41 3.57e-43
6.89 1.88 1.41 3.57e-43
6.94 1.88 1.41 3.57e-43
6.97 1.88 1.41 3.57e-43
7.01 1.88 1.41 3.57e-43
7.06 1.88 1.41 3.57e-43
7.12 1.88 1.41 3.57e-43
7.17 1.88 1.41 3.57e-43
7.25 1.88 1.41 3.57e-43
7.37 1.88 1.41 3.57e-43
7.37 1.88 1.41 3.57e-43
7.34 1.88 1.18 9.1477e-41
7.23 1.88 1.41 9.1477e-41
5.88 1.92 0.97 3.57e-43
5.94 1.92 0.94 9.1477e-41
5.99 1.92 0.94 3.57e-43
6.01 1.92 0.94 3.57e-43
6.04 1.92 0.94 3.57e-43
6.13 1.92 0.94 3.57e-43
6.08 1.92 0.94 3.57e-43
6.11 1.92 0.94 3.57e-43
6.14 1.92 0.94 3.57e-43
6.17 1.92 1.32 9.1477e-41
6.18 1.92 1.39 9.1477e-41
6.22 1.92 1.41 9.1477e-41
6.26 1.92 1.42 9.1477e-41
6.31 1.92 1.42 3.57e-43
6.75 1.92 1.42 3.57e-43
6.87 1.92 1.42 3.57e-43
6.91 1.92 1.42 3.57e-43
6.57 1.92 1.42 3.57e-43
6.94 1.92 1.42 3.57e-43
6.89 1.92 1.42 3.57e-43
6.94 1.92 1.42 3.57e-43
6.97 1.92 1.42 3.57e-43
7.01 1.92 1.42 3.57e-43
7.06 1.92 1.42 3.57e-43
7.12 1.92 1.42 3.57e-43
7.17 1.92 1.42 3.57e-43
7.25 1.92 1.42 3.57e-43
7.37 1.92 1.42 3.57e-43
7.37 1.92 1.42 3.57e-43
7.34 1.92 1.18 9.1477e-41
7.23 1.92 1.41 9.1477e-41
5.88 1.96 0.97 3.57e-43
5.95 1.96 0.93 9.1477e-41
5.99 1.96 0.93 3.57e-43
6.01 1.96 0.93 3.57e-43
6.04 1.96 0.93 3.57e-43
6.13 1.96 0.93 3.57e-43
6.08 1.96 0.93 3.57e-43
6.11 1.96 1.22 9.1477e-41
6.43 1.96 1.22 3.57e-43
6.17 1.96 1.32 9.1477e-41
6.19 1.96 1.38 9.1477e-41
6.22 1.96 1.41 9.1477e-41
6.26 1.96 1.42 9.1477e-41
6.31 1.96 1.42 3.57e-43
6.75 1.96 1.42 3.57e-43
6.87 1.96 1.42 3.57e-43
6.91 1.96 1.42 3.57e-43
6.57 1.96 1.42 3.57e-43
6.94 1.96 1.42 3.57e-43
6.89 1.96 1.42 3.57e-43
6.94 1.96 1.42 3.57e-43
6.97 1.96 1.42 3.57e-43
7.01 1.96 1.42 3.57e-43
7.06 1.96 1.42 3.57e-43
7.12 1.96 1.42 3.57e-43
7.17 1.96 1.42 3.57e-43
7.25 1.96 1.42 3.57e-43
7.37 1.96 1.42 3.57e-43
7.37 1.96 1.42 3.57e-43
7.34 1.96 1.18 9.1477e-41
7.23 1.96 1.41 9.1477e-41
5.88 2 0.97 3.57e-43
5.95 2 0.93 9.1477e-41
5.99 2 0.93 3.57e-43
6.01 2 1.03 9.1477e-41
6.22 2 0.62 9.1477e-41
6.26 2 0.66 9.1477e-41
6.3 2 0.68 9.1477e-41
6.34 2 0.71 9.1477e-41
6.41 2 0.69 9.1477e-41
6.45 2 0.72 9.1477e-41
6.19 2 1.37 9.1477e-41
6.22 2 1.41 9.1477e-41
6.26 2 1.42 9.1477e-41
6.31 2 1.42 3.57e-43
6.75 2 1.42 3.57e-43
6.87 2 1.42 3.57e-43
6.91 2 1.42 3.57e-43
6.57 2 1.42 3.57e-43
6.94 2 1.42 3.57e-43
6.89 2 1.42 3.57e-43
6.94 2 1.42 3.57e-43
6.97 2 1.42 3.57e-43
7.01 2 1.42 3.57e-43
7.06 2 1.42 3.57e-43
7.12 2 1.42 3.57e-43
7.17 2 1.42 3.57e-43
7.25 2 1.42 3.57e-43
7.37 2 1.42 3.57e-43
7.37 2 1.42 3.57e-43
7.34 2 1.18 9.1477e-41
7.23 2 1.41 9.1477e-41
5.88 2.04 0.97 3.57e-43
5.95 2.04 0.93 9.1477e-41
5.99 2.04 0.93 3.57e-43
6.01 2.04 1.03 9.1477e-41
6.19 2.04 0.69 9.1477e-41
6.24 2.04 0.71 9.1477e-41
6.28 2.04 0.74 9.1477e-41
6.32 2.04 0.77 9.1477e-41
6.38 2.04 0.77 3.57e-43
6.45 2.04 0.72 9.1477e-41
6.19 2.04 1.37 9.1477e-41
6.22 2.04 1.41 9.1477e-41
6.26 2.04 1.42 9.1477e-41
6.31 2.04 1.42 3.57e-43
6.75 2.04 1.42 3.57e-43
6.87 2.04 1.42 3.57e-43
6.91 2.04 1.42 3.57e-43
6.57 2.04 1.42 3.57e-43
6.94 2.04 1.42 3.57e-43
6.89 2.04 1.42 3.57e-43
6.94 2.04 1.42 3.57e-43
6.97 2.04 1.42 3.57e-43
7.01 2.04 1.42 3.57e-43
7.06 2.04 1.42 3.57e-43
7.12 2.04 1.42 3.57e-43
7.17 2.04 1.42 3.57e-43
7.25 2.04 1.42 3.57e-43
7.37 2.04 1.42 3.57e-43
7.37 2.04 1.42 3.57e-43
7.34 2.04 1.18 9.1477e-41
7.23 2.04 1.41 9.1477e-41
5.95 2.08 0.93 3.57e-43
5.98 2.08 0.98 3.57e-43
6.01 2.08 1.03 9.1477e-41
6.18 2.08 0.73 9.1477e-41
6.22 2.08 0.75 9.1477e-41
6.27 2.08 0.76 9.1477e-41
6.32 2.08 0.77 9.1477e-41
6.37 2.08 0.77 3.57e-43
6.45 2.08 0.72 9.1477e-41
6.19 2.08 1.37 9.1477e-41
6.22 2.08 1.41 9.1477e-41
6.26 2.08 1.42 9.1477e-41
6.31 2.08 1.42 3.57e-43
6.75 2.08 1.42 3.57e-43
6.87 2.08 1.42 3.57e-43
6.91 2.08 1.42 3.57e-43
6.57 2.08 1.42 3.57e-43
6.94 2.08 1.42 3.57e-43
6.89 2.08 1.42 3.57e-43
6.94 2.08 1.42 3.57e-43
6.97 2.08 1.42 3.57e-43
7.01 2.08 1.42 3.57e-43
7.06 2.08 1.42 3.57e-43
7.12 2.08 1.42 3.57e-43
7.17 2.08 1.42 3.57e-43
7.25 2.08 1.42 3.57e-43
7.37 2.08 1.42 3.57e-43
7.37 2.08 1.42 3.57e-43
7.34 2.08 1.18 9.1477e-41
7.23 2.08 1.41 9.1477e-41
5.95 2.12 0.93 3.57e-43
5.98 2.12 0.98 3.57e-43
6.01 2.12 1.03 9.1477e-41
6.18 2.12 0.72 9.1477e-41
6.23 2.12 0.74 9.1477e-41
6.28 2.12 0.73 9.1477e-41
6.32 2.12 0.77 9.1477e-41
6.36 2.12 0.77 3.57e-43
6.45 2.12 0.71 9.1477e-41
6.19 2.12 1.38 9.1477e-41
6.23 2.12 1.4 9.1477e-41
6.27 2.12 1.41 9.1477e-41
6.31 2.12 1.41 3.57e-43
6.75 2.12 1.41 3.57e-43
6.87 2.12 1.41 3.57e-43
6.91 2.12 1.41 3.57e-43
6.57 2.12 1.41 3.57e-43
6.94 2.12 1.41 3.57e-43
6.89 2.12 1.41 3.57e-43
6.94 2.12 1.41 3.57e-43
6.97 2.12 1.41 3.57e-43
7.01 2.12 1.41 3.57e-43
7.06 2.12 1.41 3.57e-43
7.12 2.12 1.41 3.57e-43
7.17 2.12 1.41 3.57e-43
7.25 2.12 1.41 3.57e-43
7.37 2.12 1.41 3.57e-43
7.37 2.12 1.41 3.57e-43
7.34 2.12 1.18 9.1477e-41
7.23 2.12 1.41 9.1477e-41
5.95 2.16 0.93 3.57e-43
5.98 2.16 0.98 3.57e-43
6.01 2.16 1.03 9.1477e-41
6.2 2.16 0.66 9.1477e-41
6.25 2.16 0.68 9.1477e-41
6.29 2.16 0.72 9.1477e-41
6.32 2.16 0.76 9.1477e-41
6.37 2.16 0.76 3.57e-43
6.45 2.16 0.72 9.1477e-41
6.19 2.16 1.37 9.1477e-41
6.23 2.16 1.39 9.1477e-41
6.27 2.16 1.41 9.1477e-41
6.31 2.16 1.41 3.57e-43
6.75 2.16 1.41 3.57e-43
6.87 2.16 1.41 3.57e-43
6.91 2.16 1.41 3.57e-43
6.57 2.16 1.41 3.57e-43
6.94 2.16 1.41 3.57e-43
6.89 2.16 1.41 3.57e-43
6.94 2.16 1.41 3.57e-43
6.97 2.16 1.41 3.57e-43
7.01 2.16 1.41 3.57e-43
7.06 2.16 1.41 3.57e-43
7.12 2.16 1.41 3.57e-43
7.17 2.16 1.41 3.57e-43
7.25 2.16 1.41 3.57e-43
7.37 2.16 1.41 3.57e-43
7.37 2.16 1.41 3.57e-43
7.34 2.16 1.18 9.1477e-41
7.25 2.16 1.38 9.1477e-41
5.95 2.2 0.93 3.57e-43
5.98 2.2 0.98 9.1477e-41
6.16 2.2 0.66 9.1477e-41
6.21 2.2 0.67 9.1477e-41
6.26 2.2 0.67 9.1477e-41
6.3 2.2 0.7 9.1477e-41
6.33 2.2 0.75 9.1477e-41
6.37 2.2 0.75 3.57e-43
6.45 2.2 0.72 9.1477e-41
6.19 2.2 1.37 9.1477e-41
6.23 2.2 1.4 9.1477e-41
6.27 2.2 1.41 9.1477e-41
6.31 2.2 1.41 3.57e-43
6.75 2.2 1.41 3.57e-43
6.87 2.2 1.41 3.57e-43
6.91 2.2 1.41 3.57e-43
6.57 2.2 1.41 3.57e-43
6.94 2.2 1.41 3.57e-43
6.89 2.2 1.41 3.57e-43
6.94 2.2 1.41 3.57e-43
6.97 2.2 1.41 3.57e-43
7.01 2.2 1.41 3.57e-43
7.06 2.2 1.41 3.57e-43
7.12 2.2 1.41 3.57e-43
7.17 2.2 1.41 3.57e-43
7.25 2.2 1.41 3.57e-43
7.37 2.2 1.41 3.57e-43
7.37 2.2 1.41 3.57e-43
7.34 2.2 1.18 9.1477e-41
7.28 2.2 1.18 3.57e-43
5.95 2.24 0.93 3.57e-43
5.97 2.24 0.99 3.57e-43
6.16 2.24 0.66 9.1477e-41
6.21 2.24 0.66 9.1477e-41
6.26 2.24 0.66 9.1477e-41
6.3 2.24 0.68 9.1477e-41
6.34 2.24 0.73 9.1477e-41
6.4 2.24 0.73 3.57e-43
6.45 2.24 0.72 9.1477e-41
6.2 2.24 1.36 9.1477e-41
6.23 2.24 1.39 9.1477e-41
6.27 2.24 1.41 9.1477e-41
6.32 2.24 1.41 3.57e-43
6.75 2.24 1.41 3.57e-43
6.87 2.24 1.41 3.57e-43
6.91 2.24 1.41 3.57e-43
6.57 2.24 1.41 3.57e-43
6.94 2.24 1.41 3.57e-43
6.89 2.24 1.41 3.57e-43
6.94 2.24 1.41 3.57e-43
6.97 2.24 1.41 3.57e-43
7.01 2.24 1.41 3.57e-43
7.06 2.24 1.41 3.57e-43
7.12 2.24 1.41 3.57e-43
7.17 2.24 1.41 3.57e-43
7.25 2.24 1.41 3.57e-43
7.37 2.24 1.41 3.57e-43
7.37 2.24 1.41 3.57e-43
7.34 2.24 1.18 9.1477e-41
7.27 2.24 1.35 9.1477e-41
5.95 2.28 0.93 3.57e-43
5.97 2.28 0.99 3.57e-43
6.16 2.28 0.66 9.1477e-41
6.22 2.28 0.63 9.1477e-41
6.26 2.28 0.66 9.1477e-41
6.3 2.28 0.68 9.1477e-41
6.34 2.28 0.71 9.1477e-41
6.48 2.28 0.71 3.57e-43
6.45 2.28 0.72 9.1477e-41
6.2 2.28 1.36 9.1477e-41
6.23 2.28 1.4 9.1477e-41
6.27 2.28 1.4 9.1477e-41
6.31 2.28 1.4 3.57e-43
6.75 2.28 1.4 3.57e-43
6.87 2.28 1.4 3.57e-43
6.91 2.28 1.4 3.57e-43
6.57 2.28 1.4 3.57e-43
6.94 2.28 1.4 3.57e-43
6.89 2.28 1.4 3.57e-43
6.94 2.28 1.4 3.57e-43
6.97 2.28 1.4 3.57e-43
7.01 2.28 1.4 3.57e-43
7.06 2.28 1.4 3.57e-43
7.12 2.28 1.4 3.57e-43
7.17 2.28 1.4 3.57e-43
7.25 2.28 1.4 3.57e-43
7.37 2.28 1.4 3.57e-43
7.37 2.28 1.4 3.57e-43
7.34 2.28 1.18 9.1477e-41
7.25 2.28 1.38 9.1477e-41
5.88 2.32 0.4 9.1477e-41
5.87 2.32 0.4 3.57e-43
5.85 2.32 0.4 3.57e-43
5.82 2.32 0.4 3.57e-43
5.88 2.32 0.4 3.57e-43
5.95 2.32 0.93 9.1477e-41
5.97 2.32 0.99 9.1477e-41
6.02 2.32 0.99 3.57e-43
6.22 2.32 0.62 9.1477e-41
6.26 2.32 0.66 9.1477e-41
6.3 2.32 0.69 9.1477e-41
6.35 2.32 0.69 9.1477e-41
6.48 2.32 0.55 9.1477e-41
6.53 2.32 0.55 9.1477e-41
6.2 2.32 1.35 9.1477e-41
6.23 2.32 1.39 9.1477e-41
6.28 2.32 1.39 9.1477e-41
6.32 2.32 1.39 3.57e-43
6.75 2.32 1.39 3.57e-43
6.87 2.32 1.39 3.57e-43
6.91 2.32 1.39 3.57e-43
6.57 2.32 1.39 3.57e-43
6.94 2.32 1.39 3.57e-43
6.89 2.32 1.39 3.57e-43
6.94 2.32 1.39 3.57e-43
6.97 2.32 1.39 3.57e-43
7.01 2.32 1.39 3.57e-43
7.06 2.32 1.39 3.57e-43
7.12 2.32 1.39 3.57e-43
7.17 2.32 1.39 3.57e-43
7.25 2.32 1.39 3.57e-43
7.37 2.32 1.39 3.57e-43
7.37 2.32 1.39 3.57e-43
7.34 2.32 1.18 9.1477e-41
7.25 2.32 1.38 9.1477e-41
5.88 2.36 0.4 9.1477e-41
5.87 2.36 0.4 3.57e-43
5.85 2.36 0.4 3.57e-43
5.82 2.36 0.4 3.57e-43
5.88 2.36 0.4 3.57e-43
5.95 2.36 0.4 3.57e-43
5.97 2.36 0.99 9.1477e-41
6.01 2.36 0.99 3.57e-43
6.22 2.36 0.62 9.1477e-41
6.27 2.36 0.64 9.1477e-41
6.33 2.36 0.62 9.1477e-41
6.38 2.36 0.62 3.57e-43
6.48 2.36 0.62 3.57e-43
6.53 2.36 0.55 9.1477e-41
6.2 2.36 1.35 9.1477e-41
6.23 2.36 1.38 9.1477e-41
6.28 2.36 1.38 9.1477e-41
6.32 2.36 1.38 3.57e-43
6.75 2.36 1.38 3.57e-43
6.87 2.36 1.38 3.57e-43
6.91 2.36 1.38 3.57e-43
6.57 2.36 1.38 3.57e-43
6.94 2.36 1.38 3.57e-43
6.89 2.36 1.38 3.57e-43
6.94 2.36 1.38 3.57e-43
6.97 2.36 1.38 3.57e-43
7.01 2.36 1.38 3.57e-43
7.06 2.36 1.38 3.57e-43
7.12 2.36 1.38 3.57e-43
7.17 2.36 1.38 3.57e-43
7.25 2.36 1.38 3.57e-43
7.37 2.36 1.38 3.57e-43
7.37 2.36 1.38 3.57e-43
7.34 2.36 1.18 9.1477e-41
7.28 2.36 1.34 9.1477e-41
5.87 2.4 0.78 3.57e-43
5.89 2.4 0.78 3.57e-43
5.88 2.4 0.78 3.57e-43
5.95 2.4 0.78 3.57e-43
5.97 2.4 0.78 3.57e-43
6.01 2.4 0.78 3.57e-43
6.22 2.4 0.62 9.1477e-41
6.28 2.4 0.63 9.1477e-41
6.32 2.4 0.64 9.1477e-41
6.37 2.4 0.64 3.57e-43
6.48 2.4 0.64 3.57e-43
6.53 2.4 0.55 9.1477e-41
6.2 2.4 1.35 9.1477e-41
6.23 2.4 1.38 9.1477e-41
6.28 2.4 1.39 9.1477e-41
6.32 2.4 1.39 3.57e-43
6.75 2.4 1.39 3.57e-43
6.87 2.4 1.39 3.57e-43
6.91 2.4 1.39 3.57e-43
6.57 2.4 1.39 3.57e-43
6.94 2.4 1.39 3.57e-43
6.89 2.4 1.39 3.57e-43
6.94 2.4 1.39 3.57e-43
6.97 2.4 1.39 3.57e-43
7.01 2.4 1.39 3.57e-43
7.06 2.4 1.39 3.57e-43
7.12 2.4 1.39 3.57e-43
7.17 2.4 1.39 3.57e-43
7.25 2.4 1.39 3.57e-43
7.37 2.4 1.39 3.57e-43
7.37 2.4 1.39 3.57e-43
7.34 2.4 1.18 9.1477e-41
7.28 2.4 1.34 9.1477e-41
6.28 2.44 0.4 3.57e-43
6.32 2.44 0.4 3.57e-43
6.37 2.44 0.4 3.57e-43
6.48 2.44 0.4 3.57e-43
6.53 2.44 0.55 9.1477e-41
6.2 2.44 1.34 9.1477e-41
6.23 2.44 1.38 9.1477e-41
6.28 2.44 1.38 3.57e-43
6.32 2.44 1.38 3.57e-43
6.75 2.44 1.38 3.57e-43
6.87 2.44 1.38 3.57e-43
6.91 2.44 1.38 3.57e-43
6.57 2.44 1.38 3.57e-43
6.94 2.44 1.38 3.57e-43
6.89 2.44 1.38 3.57e-43
6.94 2.44 1.38 3.57e-43
6.97 2.44 1.38 3.57e-43
7.01 2.44 1.38 3.57e-43
7.06 2.44 1.38 3.57e-43
7.12 2.44 1.38 3.57e-43
7.17 2.44 1.38 3.57e-43
7.25 2.44 1.38 3.57e-43
7.37 2.44 1.38 3.57e-43
7.37 2.44 1.04 9.1477e-41
7.19 2.44 1.04 3.57e-43
7.28 2.44 1.33 9.1477e-41
5.88 2.48 0.4 9.1477e-41
5.91 2.48 0.4 3.57e-43
5.85 2.48 0.4 3.57e-43
5.89 2.48 0.4 3.57e-43
5.88 2.48 0.4 3.57e-43
5.95 2.48 0.4 3.57e-43
5.97 2.48 0.4 3.57e-43
6.01 2.48 0.4 3.57e-43
6.22 2.48 0.4 3.57e-43
6.28 2.48 0.4 3.57e-43
6.32 2.48 0.4 3.57e-43
6.37 2.48 0.4 3.57e-43
6.48 2.48 0.4 3.57e-43
6.53 2.48 0.55 9.1477e-41
6.2 2.48 1.34 9.1477e-41
6.24 2.48 1.36 9.1477e-41
6.28 2.48 1.36 3.57e-43
6.32 2.48 1.36 3.57e-43
6.75 2.48 1.36 3.57e-43
6.87 2.48 1.36 3.57e-43
6.91 2.48 1.36 3.57e-43
6.57 2.48 1.36 3.57e-43
6.94 2.48 1.36 3.57e-43
6.89 2.48 1.36 3.57e-43
6.94 2.48 0.97 9.1477e-41
6.73 2.48 1.4 9.1477e-41
6.76 2.48 1.4 3.57e-43
7.06 2.48 1.4 3.57e-43
7.12 2.48 1.4 3.57e-43
7.17 2.48 1.4 3.57e-43
7.25 2.48 1.4 3.57e-43
7.37 2.48 1.4 3.57e-43
7.37 2.48 1.04 9.1477e-41
7.2 2.48 1.36 9.1477e-41
5.89 2.52 0.55 3.57e-43
6.2 2.52 1.34 9.1477e-41
6.24 2.52 1.36 9.1477e-41
6.29 2.52 1.36 3.57e-43
6.32 2.52 1.36 3.57e-43
6.75 2.52 1.36 3.57e-43
6.87 2.52 1.36 3.57e-43
6.91 2.52 1.36 3.57e-43
6.57 2.52 1.36 3.57e-43
6.94 2.52 1.36 3.57e-43
6.89 2.52 1.36 3.57e-43
6.94 2.52 1.36 3.57e-43
6.73 2.52 1.36 3.57e-43
6.76 2.52 1.36 3.57e-43
7.06 2.52 1.36 3.57e-43
7.12 2.52 1.36 3.57e-43
7.17 2.52 1.36 3.57e-43
7.25 2.52 1.36 3.57e-43
7.37 2.52 1.36 3.57e-43
7.37 2.52 1.04 9.1477e-41
7.2 2.52 1.36 9.1477e-41
6.22 2.56 1.32 3.57e-43
6.25 2.56 1.35 9.1477e-41
6.29 2.56 1.35 3.57e-43
6.32 2.56 1.35 3.57e-43
6.75 2.56 1.35 3.57e-43
6.87 2.56 1.35 3.57e-43
6.91 2.56 1.35 3.57e-43
6.57 2.56 1.35 3.57e-43
6.94 2.56 1.35 3.57e-43
6.89 2.56 1.35 3.57e-43
6.94 2.56 1.35 3.57e-43
6.73 2.56 1.35 3.57e-43
6.76 2.56 1.35 3.57e-43
7.06 2.56 1.35 3.57e-43
7.12 2.56 1.35 3.57e-43
7.17 2.56 1.35 3.57e-43
7.25 2.56 1.35 3.57e-43
7.37 2.56 1.35 3.57e-43
7.37 2.56 1.04 9.1477e-41
7.21 2.56 1.35 9.1477e-41
6.53 2.6 0.96 3.57e-43
6.22 2.6 1.32 9.1477e-41
6.25 2.6 1.35 9.1477e-41
6.29 2.6 1.35 9.1477e-41
6.36 2.6 1.32 9.1477e-41
6.4 2.6 1.34 9.1477e-41
6.44 2.6 1.36 9.1477e-41
6.5 2.6 1.35 9.1477e-41
6.55 2.6 1.35 3.57e-43
6.94 2.6 1.35 3.57e-43
6.89 2.6 1.35 3.57e-43
6.94 2.6 1.35 3.57e-43
6.73 2.6 1.35 3.57e-43
6.76 2.6 1.35 3.57e-43
7.06 2.6 1.35 3.57e-43
7.12 2.6 1.35 3.57e-43
7.17 2.6 1.35 3.57e-43
7.25 2.6 1.35 3.57e-43
7.37 2.6 0.95 9.1477e-41
7.18 2.6 0.95 3.57e-43
7.21 2.6 1.35 9.1477e-41
6.53 2.64 0.96 3.57e-43
6.23 2.64 1.3 9.1477e-41
6.26 2.64 1.3 3.57e-43
6.29 2.64 1.3 3.57e-43
6.36 2.64 1.3 3.57e-43
6.4 2.64 1.3 3.57e-43
6.44 2.64 1.3 3.57e-43
6.5 2.64 1.3 3.57e-43
6.55 2.64 1.3 3.57e-43
6.94 2.64 1.3 3.57e-43
6.89 2.64 1.3 3.57e-43
6.94 2.64 1.3 3.57e-43
6.73 2.64 1.3 3.57e-43
6.76 2.64 1.3 3.57e-43
7.06 2.64 1.3 3.57e-43
7.12 2.64 1.3 3.57e-43
7.17 2.64 1.3 3.57e-43
7.25 2.64 1.3 3.57e-43
7.37 2.64 1.3 3.57e-43
7.18 2.64 1.3 3.57e-43
7.21 2.64 1.35 9.1477e-41
5.95 2.68 0.91 3.57e-43
5.98 2.68 0.96 3.57e-43
6.02 2.68 0.96 3.57e-43
6.22 2.68 0.96 3.57e-43
6.28 2.68 0.96 3.57e-43
6.32 2.68 0.96 3.57e-43
6.37 2.68 0.96 3.57e-43
6.48 2.68 0.96 3.57e-43
6.53 2.68 0.96 3.57e-43
6.23 2.68 0.96 3.57e-43
6.26 2.68 0.96 3.57e-43
6.29 2.68 0.96 3.57e-43
6.37 2.68 0.96 3.57e-43
6.4 2.68 0.96 3.57e-43
6.44 2.68 0.96 3.57e-43
6.5 2.68 1.35 9.1477e-41
6.61 2.68 1.24 9.1477e-41
6.66 2.68 1.25 9.1477e-41
6.71 2.68 1.26 9.1477e-41
6.75 2.68 1.26 3.57e-43
6.73 2.68 1.4 9.1477e-41
6.85 2.68 1.4 3.57e-43
7.06 2.68 1.4 3.57e-43
7.12 2.68 1.4 3.57e-43
7.17 2.68 1.4 3.57e-43
7.25 2.68 1.4 3.57e-43
7.37 2.68 1.4 3.57e-43
7.18 2.68 1.31 9.1477e-41
5.93 2.72 0.85 3.57e-43
5.95 2.72 0.91 3.57e-43
5.98 2.72 0.96 9.1477e-41
6.02 2.72 0.96 3.57e-43
6.22 2.72 0.96 3.57e-43
6.28 2.72 0.96 3.57e-43
6.32 2.72 0.96 3.57e-43
6.37 2.72 0.96 3.57e-43
6.48 2.72 0.96 3.57e-43
6.53 2.72 0.96 3.57e-43
6.23 2.72 0.96 3.57e-43
6.26 2.72 0.96 3.57e-43
6.29 2.72 0.96 3.57e-43
6.37 2.72 0.96 3.57e-43
6.4 2.72 0.96 3.57e-43
6.44 2.72 0.96 3.57e-43
6.5 2.72 0.96 3.57e-43
6.61 2.72 1.24 9.1477e-41
6.68 2.72 1.22 9.1477e-41
6.73 2.72 1.22 9.1477e-41
6.78 2.72 1.22 9.1477e-41
6.82 2.72 1.22 3.57e-43
6.85 2.72 1.22 3.57e-43
7.06 2.72 1.22 3.57e-43
7.12 2.72 1.22 3.57e-43
7.17 2.72 1.22 3.57e-43
7.25 2.72 1.22 3.57e-43
7.37 2.72 1.22 3.57e-43
7.18 2.72 1.31 9.1477e-41
5.89 2.76 0.82 3.57e-43
5.93 2.76 0.85 9.1477e-41
5.95 2.76 0.91 9.1477e-41
5.98 2.76 0.96 9.1477e-41
6.02 2.76 0.96 3.57e-43
6.22 2.76 0.96 3.57e-43
6.28 2.76 0.96 3.57e-43
6.32 2.76 0.96 3.57e-43
6.37 2.76 0.96 3.57e-43
6.48 2.76 0.96 3.57e-43
6.53 2.76 0.96 3.57e-43
6.23 2.76 0.96 3.57e-43
6.26 2.76 0.96 3.57e-43
6.29 2.76 0.96 3.57e-43
6.37 2.76 0.96 3.57e-43
6.4 2.76 0.96 3.57e-43
6.44 2.76 0.96 3.57e-43
6.5 2.76 0.96 3.57e-43
6.61 2.76 0.96 3.57e-43
6.68 2.76 1.22 9.1477e-41
6.75 2.76 1.19 9.1477e-41
6.8 2.76 1.19 3.57e-43
6.82 2.76 1.19 3.57e-43
6.85 2.76 1.19 3.57e-43
7.06 2.76 1.19 3.57e-43
7.12 2.76 1.19 3.57e-43
7.17 2.76 1.19 3.57e-43
7.25 2.76 1.19 3.57e-43
7.37 2.76 1.19 3.57e-43
7.18 2.76 1.31 9.1477e-41
5.88 2.8 0.4 9.1477e-41
5.9 2.8 0.4 3.57e-43
5.85 2.8 0.4 3.57e-43
5.89 2.8 0.82 9.1477e-41
5.94 2.8 0.83 9.1477e-41
5.96 2.8 0.9 9.1477e-41
5.99 2.8 0.94 9.1477e-41
6.03 2.8 0.94 3.57e-43
6.22 2.8 0.94 3.57e-43
6.28 2.8 0.94 3.57e-43
6.32 2.8 0.94 3.57e-43
6.37 2.8 0.94 3.57e-43
6.48 2.8 0.94 3.57e-43
6.53 2.8 0.94 3.57e-43
6.23 2.8 0.94 3.57e-43
6.26 2.8 0.94 3.57e-43
6.29 2.8 0.94 3.57e-43
6.37 2.8 0.94 3.57e-43
6.4 2.8 0.94 3.57e-43
6.44 2.8 0.94 3.57e-43
6.5 2.8 0.94 3.57e-43
6.61 2.8 0.94 3.57e-43
6.68 2.8 0.94 3.57e-43
6.75 2.8 0.94 3.57e-43
6.8 2.8 0.94 3.57e-43
6.82 2.8 0.94 3.57e-43
6.85 2.8 0.94 3.57e-43
7.06 2.8 0.94 3.57e-43
7.12 2.8 0.94 3.57e-43
7.17 2.8 0.94 3.57e-43
7.25 2.8 0.94 3.57e-43
7.37 2.8 0.94 3.57e-43
7.18 2.8 1.31 9.1477e-41
5.9 2.84 0.82 3.57e-43
5.95 2.84 0.8 9.1477e-41
5.98 2.84 0.84 9.1477e-41
6.02 2.84 0.87 9.1477e-41
6.04 2.84 0.95 9.1477e-41
6.08 2.84 0.95 3.57e-43
6.28 2.84 0.95 3.57e-43
6.32 2.84 0.95 3.57e-43
6.37 2.84 0.95 3.57e-43
6.48 2.84 0.95 3.57e-43
6.53 2.84 0.95 3.57e-43
6.23 2.84 0.95 3.57e-43
6.26 2.84 0.95 3.57e-43
6.29 2.84 0.95 3.57e-43
6.37 2.84 0.95 3.57e-43
6.4 2.84 0.95 3.57e-43
6.44 2.84 0.95 3.57e-43
6.5 2.84 0.95 3.57e-43
6.61 2.84 0.95 3.57e-43
6.68 2.84 0.95 3.57e-43
6.75 2.84 0.95 3.57e-43
6.8 2.84 0.95 3.57e-43
6.82 2.84 0.95 3.57e-43
6.85 2.84 0.95 3.57e-43
7.06 2.84 0.95 3.57e-43
7.12 2.84 0.95 3.57e-43
7.17 2.84 0.95 3.57e-43
7.25 2.84 0.95 3.57e-43
7.37 2.84 0.95 3.57e-43
7.18 2.84 1.31 9.1477e-41
5.9 2.88 0.82 3.57e-43
5.96 2.88 0.77 9.1477e-41
5.99 2.88 0.83 9.1477e-41
