# .PCD v.7 - Point Cloud Data file format
VERSION .7
FIELDS x y z rgb
SIZE 4 4 4 4
TYPE F F F F
WIDTH 1352
HEIGHT 1
POINTS 1352
DATA ascii
1.76 0 0.56 9.1477e-41
1.83 0 0.56 3.57e-43
1.65 0 0.56 3.57e-43
1.71 0 0.56 3.57e-43
1.77 0 0.56 3.57e-43
2.14 0 0.71 9.1477e-41
2.18 0 0.68 9.1477e-41
2.24 0 0.7 9.1477e-41
2.28 0 0.7 3.57e-43
2.2 0 0.7 3.57e-43
2.23 0 0.7 3.57e-43
2.29 0 0.7 3.57e-43
2.5 0 0.6 9.1477e-41
2.53 0 0.57 9.1477e-41
2.58 0 0.55 9.1477e-41
2.63 0 0.56 9.1477e-41
2.67 0 0.53 9.1477e-41
1.77 0.07 0.69 9.1477e-41
1.81 0.07 0.69 3.57e-43
1.83 0.07 0.69 3.57e-43
1.65 0.07 0.69 3.57e-43
1.71 0.07 0.69 3.57e-43
2.11 0.07 0.75 9.1477e-41
2.15 0.07 0.73 9.1477e-41
2.21 0.07 0.76 9.1477e-41
2.26 0.07 0.76 9.1477e-41
2.3 0.07 0.73 9.1477e-41
2.35 0.07 0.73 3.57e-43
2.23 0.07 0.73 3.57e-43
2.29 0.07 0.73 3.57e-43
2.34 0.07 0.73 3.57e-43
2.5 0.07 0.73 3.57e-43
2.53 0.07 0.57 9.1477e-41
2.61 0.07 0.67 9.1477e-41
2.66 0.07 0.67 3.57e-43
2.67 0.07 0.53 9.1477e-41
2.73 0.07 0.58 9.1477e-41
2.78 0.07 0.58 9.1477e-41
2.81 0.07 0.58 3.57e-43
1.67 0.14 0.7 9.1477e-41
1.71 0.14 0.7 3.57e-43
1.77 0.14 0.7 3.57e-43
1.81 0.14 0.7 3.57e-43
1.83 0.14 0.7 3.57e-43
1.65 0.14 0.7 3.57e-43
1.71 0.14 0.7 3.57e-43
1.77 0.14 0.7 3.57e-43
2.11 0.14 0.7 3.57e-43
2.15 0.14 0.7 3.57e-43
2.21 0.14 0.7 3.57e-43
2.26 0.14 0.7 3.57e-43
2.3 0.14 0.7 3.57e-43
2.35 0.14 0.7 3.57e-43
2.23 0.14 0.7 3.57e-43
2.29 0.14 0.7 3.57e-43
2.34 0.14 0.7 3.57e-43
2.5 0.14 0.7 3.57e-43
2.53 0.14 0.7 3.57e-43
2.61 0.14 0.67 9.1477e-41
2.66 0.14 0.67 9.1477e-41
2.7 0.14 0.64 9.1477e-41
2.75 0.14 0.66 9.1477e-41
2.8 0.14 0.66 3.57e-43
2.81 0.14 0.66 3.57e-43
2.91 0.14 0.54 9.1477e-41
1.58 0.21 0.73 9.1477e-41
1.63 0.21 0.73 9.1477e-41
1.67 0.21 0.73 3.57e-43
1.71 0.21 0.73 3.57e-43
1.77 0.21 0.73 3.57e-43
1.81 0.21 0.73 3.57e-43
1.83 0.21 0.73 3.57e-43
1.65 0.21 0.73 3.57e-43
1.71 0.21 0.73 3.57e-43
1.77 0.21 0.73 3.57e-43
2.11 0.21 0.73 3.57e-43
2.15 0.21 0.73 3.57e-43
2.21 0.21 0.73 3.57e-43
2.26 0.21 0.73 3.57e-43
2.3 0.21 0.73 3.57e-43
2.35 0.21 0.73 3.57e-43
2.23 0.21 0.73 3.57e-43
2.29 0.21 0.73 3.57e-43
2.34 0.21 0.73 3.57e-43
2.5 0.21 0.73 3.57e-43
2.53 0.21 0.73 3.57e-43
2.61 0.21 0.73 3.57e-43
2.66 0.21 0.67 9.1477e-41
2.71 0.21 0.66 9.1477e-41
2.74 0.21 0.62 9.1477e-41
2.79 0.21 0.62 9.1477e-41
2.84 0.21 0.62 3.57e-43
2.74 0.21 0.62 3.57e-43
2.91 0.21 0.54 9.1477e-41
2.96 0.21 0.57 9.1477e-41
1.52 0.28 0.73 9.1477e-41
1.56 0.28 0.7 9.1477e-41
1.64 0.28 0.7 3.57e-43
1.67 0.28 0.7 3.57e-43
1.71 0.28 0.7 3.57e-43
1.77 0.28 0.7 3.57e-43
1.81 0.28 0.7 3.57e-43
1.83 0.28 0.7 3.57e-43
1.65 0.28 0.7 3.57e-43
1.71 0.28 0.7 3.57e-43
1.77 0.28 0.7 3.57e-43
2.11 0.28 0.7 3.57e-43
2.15 0.28 0.7 3.57e-43
2.21 0.28 0.7 3.57e-43
2.26 0.28 0.7 3.57e-43
2.3 0.28 0.7 3.57e-43
2.35 0.28 0.7 3.57e-43
2.23 0.28 0.7 3.57e-43
2.29 0.28 0.7 3.57e-43
2.34 0.28 0.7 3.57e-43
2.5 0.28 0.7 3.57e-43
2.53 0.28 0.7 3.57e-43
2.61 0.28 0.7 3.57e-43
2.66 0.28 0.67 9.1477e-41
2.74 0.28 0.78 9.1477e-41
2.77 0.28 0.74 9.1477e-41
2.82 0.28 0.73 9.1477e-41
2.85 0.28 0.69 9.1477e-41
2.9 0.28 0.68 9.1477e-41
2.94 0.28 0.68 3.57e-43
2.96 0.28 0.68 3.57e-43
1.46 0.35 0.71 9.1477e-41
1.54 0.35 0.77 9.1477e-41
1.59 0.35 0.77 3.57e-43
1.64 0.35 0.77 3.57e-43
1.67 0.35 0.77 3.57e-43
1.71 0.35 0.77 3.57e-43
1.77 0.35 0.77 3.57e-43
1.81 0.35 0.77 3.57e-43
1.83 0.35 0.77 3.57e-43
1.65 0.35 0.77 3.57e-43
1.71 0.35 0.77 3.57e-43
1.77 0.35 0.77 3.57e-43
2.11 0.35 0.77 3.57e-43
2.15 0.35 0.77 3.57e-43
2.21 0.35 0.77 3.57e-43
2.26 0.35 0.77 3.57e-43
2.3 0.35 0.77 3.57e-43
2.35 0.35 0.77 3.57e-43
2.23 0.35 0.77 3.57e-43
2.29 0.35 0.77 3.57e-43
2.34 0.35 0.77 3.57e-43
2.5 0.35 0.77 3.57e-43
2.53 0.35 0.77 3.57e-43
2.61 0.35 0.77 3.57e-43
2.66 0.35 0.77 3.57e-43
2.74 0.35 0.77 3.57e-43
2.77 0.35 0.74 9.1477e-41
2.82 0.35 0.73 9.1477e-41
2.85 0.35 0.67 9.1477e-41
2.9 0.35 0.69 9.1477e-41
2.94 0.35 0.69 3.57e-43
2.96 0.35 0.69 3.57e-43
1.51 0.42 0.82 9.1477e-41
1.58 0.42 0.82 3.57e-43
1.59 0.42 0.82 3.57e-43
1.64 0.42 0.82 3.57e-43
1.67 0.42 0.82 3.57e-43
1.71 0.42 0.82 3.57e-43
1.77 0.42 0.82 3.57e-43
1.81 0.42 0.82 3.57e-43
1.83 0.42 0.82 3.57e-43
1.65 0.42 0.82 3.57e-43
1.71 0.42 0.82 3.57e-43
1.77 0.42 0.82 3.57e-43
2.11 0.42 0.82 3.57e-43
2.15 0.42 0.82 3.57e-43
2.21 0.42 0.82 3.57e-43
2.26 0.42 0.82 3.57e-43
2.3 0.42 0.82 3.57e-43
2.35 0.42 0.82 3.57e-43
2.23 0.42 0.82 3.57e-43
2.29 0.42 0.82 3.57e-43
2.34 0.42 0.82 3.57e-43
2.5 0.42 0.82 3.57e-43
2.53 0.42 0.82 3.57e-43
2.61 0.42 0.82 3.57e-43
2.66 0.42 0.82 3.57e-43
2.74 0.42 0.82 3.57e-43
2.77 0.42 0.74 9.1477e-41
2.84 0.42 0.81 9.1477e-41
2.88 0.42 0.81 9.1477e-41
2.93 0.42 0.81 9.1477e-41
2.97 0.42 0.78 9.1477e-41
3 0.42 0.78 3.57e-43
2.97 0.42 0.78 3.57e-43
2.84 0.49 0.81 3.57e-43
2.89 0.49 0.83 9.1477e-41
2.94 0.49 0.86 9.1477e-41
2.94 0.49 0.69 9.1477e-41
3 0.49 0.69 3.57e-43
2.97 0.49 0.69 3.57e-43
1.49 0.56 0.88 9.1477e-41
1.54 0.56 0.88 3.57e-43
1.58 0.56 0.88 3.57e-43
1.59 0.56 0.88 3.57e-43
1.64 0.56 0.88 3.57e-43
1.67 0.56 0.88 3.57e-43
1.71 0.56 0.88 3.57e-43
1.77 0.56 0.88 3.57e-43
1.81 0.56 0.88 3.57e-43
1.83 0.56 0.88 3.57e-43
1.65 0.56 0.88 3.57e-43
1.71 0.56 0.88 3.57e-43
1.77 0.56 0.88 3.57e-43
2.11 0.56 0.88 3.57e-43
2.15 0.56 0.88 3.57e-43
2.21 0.56 0.88 3.57e-43
2.26 0.56 0.88 3.57e-43
2.3 0.56 0.88 3.57e-43
2.35 0.56 0.88 3.57e-43
2.23 0.56 0.88 3.57e-43
2.29 0.56 0.88 3.57e-43
2.34 0.56 0.88 3.57e-43
2.5 0.56 0.88 3.57e-43
2.53 0.56 0.88 3.57e-43
2.61 0.56 0.88 3.57e-43
2.66 0.56 0.88 3.57e-43
2.74 0.56 0.88 3.57e-43
2.77 0.56 0.88 3.57e-43
2.84 0.56 0.81 9.1477e-41
2.9 0.56 0.86 9.1477e-41
2.93 0.56 0.83 9.1477e-41
2.97 0.56 0.8 9.1477e-41
3.01 0.56 0.8 3.57e-43
2.97 0.56 0.8 3.57e-43
1.49 0.63 0.69 3.57e-43
1.96 0.63 0.69 3.57e-43
1.83 0.63 0.69 3.57e-43
1.65 0.63 0.69 3.57e-43
1.71 0.63 0.69 3.57e-43
1.77 0.63 0.69 3.57e-43
2.11 0.63 0.69 3.57e-43
2.15 0.63 0.69 3.57e-43
2.21 0.63 0.69 3.57e-43
2.26 0.63 0.69 3.57e-43
2.3 0.63 0.69 3.57e-43
2.35 0.63 0.69 3.57e-43
2.23 0.63 0.69 3.57e-43
2.29 0.63 0.69 3.57e-43
2.34 0.63 0.69 3.57e-43
2.5 0.63 0.69 3.57e-43
2.53 0.63 0.69 3.57e-43
2.61 0.63 0.97 3.57e-43
2.74 0.63 0.97 3.57e-43
2.74 0.63 0.78 3.57e-43
2.83 0.63 0.78 3.57e-43
2.84 0.63 0.78 3.57e-43
2.9 0.63 0.86 9.1477e-41
2.94 0.63 0.87 9.1477e-41
2.98 0.63 0.86 9.1477e-41
3.02 0.63 0.86 3.57e-43
3.04 0.63 0.47 9.1477e-41
2.61 0.7 0.97 3.57e-43
2.74 0.7 0.97 3.57e-43
2.74 0.7 0.78 3.57e-43
2.83 0.7 0.78 3.57e-43
2.84 0.7 0.78 3.57e-43
2.9 0.7 0.86 9.1477e-41
2.94 0.7 0.88 9.1477e-41
2.99 0.7 0.88 3.57e-43
3.02 0.7 0.88 3.57e-43
3.04 0.7 0.48 9.1477e-41
1.75 0.77 0.98 3.57e-43
1.81 0.77 0.98 9.1477e-41
1.86 0.77 0.99 9.1477e-41
1.91 0.77 0.98 9.1477e-41
1.96 0.77 0.98 9.1477e-41
2 0.77 0.98 9.1477e-41
2.05 0.77 0.98 9.1477e-41
2.1 0.77 0.98 9.1477e-41
2.15 0.77 0.98 9.1477e-41
2.2 0.77 0.98 9.1477e-41
2.25 0.77 0.99 9.1477e-41
2.3 0.77 1 9.1477e-41
2.34 0.77 0.99 9.1477e-41
2.4 0.77 1 9.1477e-41
2.44 0.77 0.99 9.1477e-41
2.48 0.77 0.98 9.1477e-41
2.52 0.77 0.96 9.1477e-41
2.57 0.77 0.97 9.1477e-41
2.61 0.77 0.97 3.57e-43
2.53 0.77 0.97 3.57e-43
2.61 0.77 0.97 3.57e-43
2.74 0.77 0.97 3.57e-43
2.74 0.77 0.78 9.1477e-41
2.83 0.77 0.78 3.57e-43
2.84 0.77 0.78 3.57e-43
2.9 0.77 0.86 9.1477e-41
2.95 0.77 0.92 9.1477e-41
2.99 0.77 0.92 3.57e-43
3.02 0.77 0.92 3.57e-43
3.04 0.77 0.48 9.1477e-41
1.59 0.84 0.97 3.57e-43
1.64 0.84 0.96 9.1477e-41
1.7 0.84 0.97 9.1477e-41
1.75 0.84 0.98 9.1477e-41
1.81 0.84 0.98 9.1477e-41
1.86 0.84 0.99 9.1477e-41
1.92 0.84 0.99 3.57e-43
1.96 0.84 0.98 9.1477e-41
2.02 0.84 1.02 9.1477e-41
2.07 0.84 1.01 9.1477e-41
2.12 0.84 1.03 9.1477e-41
2.17 0.84 1.03 3.57e-43
2.2 0.84 1.03 3.57e-43
2.25 0.84 0.99 9.1477e-41
2.31 0.84 1.04 9.1477e-41
2.35 0.84 1.02 9.1477e-41
2.4 0.84 1.01 9.1477e-41
2.44 0.84 1.01 9.1477e-41
2.49 0.84 1 9.1477e-41
2.53 0.84 0.99 9.1477e-41
2.57 0.84 0.99 9.1477e-41
2.61 0.84 0.96 9.1477e-41
2.65 0.84 0.96 9.1477e-41
2.7 0.84 0.96 9.1477e-41
2.74 0.84 0.95 9.1477e-41
2.78 0.84 0.95 3.57e-43
2.83 0.84 0.95 3.57e-43
2.84 0.84 0.95 3.57e-43
2.9 0.84 0.86 9.1477e-41
2.95 0.84 0.92 9.1477e-41
2.99 0.84 0.92 3.57e-43
3.02 0.84 0.92 3.57e-43
3.04 0.84 0.47 9.1477e-41
1.49 0.91 0.88 9.1477e-41
1.59 0.91 0.97 9.1477e-41
1.65 0.91 0.97 3.57e-43
1.7 0.91 0.97 9.1477e-41
1.77 0.91 0.97 3.57e-43
1.81 0.91 0.97 3.57e-43
1.86 0.91 0.97 3.57e-43
1.92 0.91 0.97 3.57e-43
1.96 0.91 0.97 3.57e-43
2.02 0.91 0.97 3.57e-43
2.07 0.91 0.97 3.57e-43
2.12 0.91 0.97 3.57e-43
2.17 0.91 0.97 3.57e-43
2.2 0.91 0.97 3.57e-43
2.25 0.91 0.97 3.57e-43
2.31 0.91 0.97 3.57e-43
2.35 0.91 0.97 3.57e-43
2.4 0.91 0.97 3.57e-43
2.44 0.91 0.97 3.57e-43
2.49 0.91 0.97 3.57e-43
2.53 0.91 0.97 3.57e-43
2.57 0.91 0.97 3.57e-43
2.61 0.91 0.97 3.57e-43
2.65 0.91 0.97 3.57e-43
2.7 0.91 0.96 9.1477e-41
2.75 0.91 0.97 9.1477e-41
2.79 0.91 0.96 9.1477e-41
2.83 0.91 0.95 9.1477e-41
2.87 0.91 0.95 3.57e-43
2.9 0.91 0.95 3.57e-43
2.95 0.91 0.92 9.1477e-41
2.99 0.91 0.92 3.57e-43
3.02 0.91 0.92 3.57e-43
2.97 0.91 0.92 3.57e-43
3.04 0.91 0.47 9.1477e-41
1.55 0.98 0.97 3.57e-43
1.73 0.98 0.97 3.57e-43
1.77 0.98 0.97 3.57e-43
1.81 0.98 0.97 3.57e-43
1.86 0.98 0.97 3.57e-43
1.92 0.98 0.97 3.57e-43
1.96 0.98 0.97 3.57e-43
2.02 0.98 0.97 3.57e-43
2.07 0.98 0.97 3.57e-43
2.12 0.98 0.97 3.57e-43
2.17 0.98 0.97 3.57e-43
2.2 0.98 0.97 3.57e-43
2.25 0.98 0.97 3.57e-43
2.31 0.98 0.97 3.57e-43
2.35 0.98 0.97 3.57e-43
2.4 0.98 0.97 3.57e-43
2.44 0.98 1.04 3.57e-43
2.51 0.98 1.08 3.57e-43
2.55 0.98 1.07 3.57e-43
2.6 0.98 1.06 3.57e-43
2.64 0.98 1.06 3.57e-43
2.65 0.98 1.06 3.57e-43
2.7 0.98 1.06 3.57e-43
2.75 0.98 1.06 3.57e-43
2.79 0.98 1.06 3.57e-43
2.83 0.98 0.95 9.1477e-41
2.88 0.98 0.96 9.1477e-41
2.92 0.98 0.96 3.57e-43
2.95 0.98 0.96 3.57e-43
2.99 0.98 0.96 3.57e-43
3.02 0.98 0.96 3.57e-43
2.97 0.98 0.96 3.57e-43
3.04 0.98 0.47 9.1477e-41
2.44 1.05 1.04 3.57e-43
2.51 1.05 1.08 9.1477e-41
2.55 1.05 1.07 9.1477e-41
2.6 1.05 1.06 9.1477e-41
2.64 1.05 1.06 3.57e-43
2.65 1.05 1.06 3.57e-43
2.7 1.05 1.06 3.57e-43
2.75 1.05 1.06 3.57e-43
2.79 1.05 1.06 3.57e-43
2.83 1.05 1.06 3.57e-43
2.88 1.05 1.06 3.57e-43
2.92 1.05 1.06 3.57e-43
2.95 1.05 1.06 3.57e-43
2.99 1.05 1.06 3.57e-43
3.02 1.05 1.06 3.57e-43
2.97 1.05 1.06 3.57e-43
3.04 1.05 0.47 9.1477e-41
2.44 1.12 1.04 3.57e-43
2.52 1.12 1.09 9.1477e-41
2.56 1.12 1.08 9.1477e-41
2.6 1.12 1.07 9.1477e-41
2.64 1.12 1.07 3.57e-43
2.65 1.12 1.07 3.57e-43
2.7 1.12 1.07 3.57e-43
2.75 1.12 1.07 3.57e-43
2.79 1.12 0.96 9.1477e-41
2.84 1.12 0.96 3.57e-43
2.88 1.12 0.96 3.57e-43
2.92 1.12 0.96 3.57e-43
2.95 1.12 0.96 3.57e-43
2.99 1.12 0.96 3.57e-43
3.02 1.12 0.96 3.57e-43
2.97 1.12 0.96 3.57e-43
3.04 1.12 0.47 9.1477e-41
2.19 1.19 0.96 3.57e-43
2.27 1.19 1.05 9.1477e-41
2.32 1.19 1.04 9.1477e-41
2.36 1.19 1.04 3.57e-43
2.4 1.19 1.04 3.57e-43
2.44 1.19 1.04 3.57e-43
2.52 1.19 1.04 3.57e-43
2.56 1.19 1.04 3.57e-43
2.6 1.19 1.04 3.57e-43
2.64 1.19 1.04 3.57e-43
2.65 1.19 1.04 3.57e-43
2.7 1.19 1.04 3.57e-43
2.75 1.19 1.04 3.57e-43
2.79 1.19 1.04 3.57e-43
2.84 1.19 1.04 3.57e-43
2.88 1.19 1.04 3.57e-43
2.92 1.19 1.04 3.57e-43
2.95 1.19 0.92 9.1477e-41
3 1.19 0.92 3.57e-43
3.02 1.19 0.92 3.57e-43
2.97 1.19 0.92 3.57e-43
3.04 1.19 0.92 3.57e-43
2.12 1.26 1.02 3.57e-43
2.15 1.26 0.97 9.1477e-41
2.19 1.26 0.96 9.1477e-41
2.24 1.26 0.96 9.1477e-41
2.29 1.26 0.96 9.1477e-41
2.34 1.26 0.96 3.57e-43
2.4 1.26 0.96 3.57e-43
2.44 1.26 0.96 3.57e-43
2.52 1.26 0.96 3.57e-43
2.56 1.26 0.96 3.57e-43
2.6 1.26 0.96 3.57e-43
2.64 1.26 0.96 3.57e-43
2.65 1.26 0.96 3.57e-43
2.7 1.26 0.96 3.57e-43
2.75 1.26 0.96 3.57e-43
2.79 1.26 0.96 3.57e-43
2.84 1.26 0.96 3.57e-43
2.88 1.26 0.96 3.57e-43
2.92 1.26 0.96 3.57e-43
2.95 1.26 0.92 9.1477e-41
2.99 1.26 0.9 9.1477e-41
3.03 1.26 0.9 3.57e-43
2.97 1.26 0.9 3.57e-43
3.04 1.26 0.47 9.1477e-41
2.12 1.33 1.02 3.57e-43
2.15 1.33 0.98 9.1477e-41
2.2 1.33 0.98 9.1477e-41
2.24 1.33 0.98 9.1477e-41
2.29 1.33 0.97 9.1477e-41
2.35 1.33 0.97 3.57e-43
2.4 1.33 0.97 3.57e-43
2.44 1.33 0.97 3.57e-43
2.52 1.33 0.97 3.57e-43
2.56 1.33 0.97 3.57e-43
2.6 1.33 0.97 3.57e-43
2.64 1.33 0.97 3.57e-43
2.65 1.33 0.97 3.57e-43
2.7 1.33 0.97 3.57e-43
2.75 1.33 0.97 3.57e-43
2.79 1.33 0.97 3.57e-43
2.84 1.33 0.97 3.57e-43
2.88 1.33 0.97 3.57e-43
2.92 1.33 0.97 3.57e-43
2.95 1.33 0.92 9.1477e-41
2.99 1.33 0.9 9.1477e-41
3.03 1.33 0.9 3.57e-43
2.97 1.33 0.9 3.57e-43
3.04 1.33 0.9 3.57e-43
1.77 1.4 1.02 3.57e-43
1.55 1.4 1.02 3.57e-43
1.86 1.4 1.02 3.57e-43
1.92 1.4 1.02 3.57e-43
1.64 1.4 1.02 3.57e-43
2.02 1.4 1.02 3.57e-43
1.75 1.4 1.02 3.57e-43
2.12 1.4 1.02 3.57e-43
2.15 1.4 1.02 3.57e-43
2.2 1.4 0.98 3.57e-43
2.23 1.4 0.98 3.57e-43
2.29 1.4 0.98 3.57e-43
2.35 1.4 0.98 3.57e-43
2.4 1.4 0.98 3.57e-43
2.44 1.4 0.98 3.57e-43
2.52 1.4 0.98 3.57e-43
2.56 1.4 0.98 3.57e-43
2.6 1.4 0.98 3.57e-43
2.64 1.4 0.98 3.57e-43
2.65 1.4 0.98 3.57e-43
2.7 1.4 0.98 3.57e-43
2.75 1.4 0.98 3.57e-43
2.79 1.4 0.98 3.57e-43
2.84 1.4 0.98 3.57e-43
2.88 1.4 0.98 3.57e-43
2.92 1.4 0.98 3.57e-43
2.95 1.4 0.92 9.1477e-41
2.99 1.4 0.89 9.1477e-41
3.04 1.4 0.89 3.57e-43
2.97 1.4 0.89 3.57e-43
3.04 1.4 0.47 9.1477e-41
1.31 1.47 0.94 9.1477e-41
0.89 1.47 0.94 3.57e-43
0.93 1.47 0.94 3.57e-43
1.6 1.47 0.94 3.57e-43
1.59 1.47 0.94 3.57e-43
1.65 1.47 0.94 3.57e-43
1.73 1.47 0.94 3.57e-43
1.77 1.47 1.02 9.1477e-41
1.55 1.47 1.02 3.57e-43
1.86 1.47 1.02 3.57e-43
1.92 1.47 1.02 9.1477e-41
1.64 1.47 1.02 3.57e-43
2.02 1.47 1.02 9.1477e-41
1.75 1.47 1.02 3.57e-43
2.12 1.47 1.02 3.57e-43
2.15 1.47 1.02 3.57e-43
2.2 1.47 0.98 9.1477e-41
2.23 1.47 0.98 3.57e-43
2.29 1.47 0.98 3.57e-43
2.35 1.47 0.98 3.57e-43
2.4 1.47 0.98 3.57e-43
2.44 1.47 0.98 3.57e-43
2.52 1.47 0.98 3.57e-43
2.56 1.47 0.98 3.57e-43
2.6 1.47 0.98 3.57e-43
2.64 1.47 0.98 3.57e-43
2.65 1.47 0.98 3.57e-43
2.7 1.47 0.98 3.57e-43
2.75 1.47 0.98 3.57e-43
2.79 1.47 0.98 3.57e-43
2.84 1.47 0.98 3.57e-43
2.88 1.47 0.98 3.57e-43
2.92 1.47 0.98 9.1477e-41
2.98 1.47 1.02 9.1477e-41
2.99 1.47 0.91 9.1477e-41
3.06 1.47 0.99 9.1477e-41
3.11 1.47 1.04 9.1477e-41
3.15 1.47 1.04 3.57e-43
1.6 1.54 1.02 3.57e-43
1.99 1.54 1.35 3.57e-43
2.04 1.54 1.35 3.57e-43
1.92 1.54 1.35 3.57e-43
1.64 1.54 1.35 3.57e-43
2.02 1.54 1.35 3.57e-43
1.75 1.54 1.35 3.57e-43
2.12 1.54 1.35 3.57e-43
2.15 1.54 1.35 3.57e-43
2.2 1.54 1.35 3.57e-43
2.23 1.54 1.35 3.57e-43
2.29 1.54 1.35 3.57e-43
2.35 1.54 1.35 3.57e-43
2.4 1.54 1.35 3.57e-43
2.44 1.54 1.35 3.57e-43
2.52 1.54 1.35 3.57e-43
2.56 1.54 1.35 3.57e-43
2.6 1.54 1.35 3.57e-43
2.64 1.54 1.35 3.57e-43
2.65 1.54 1.35 3.57e-43
2.7 1.54 1.35 3.57e-43
2.75 1.54 1.35 3.57e-43
2.79 1.54 0.96 3.57e-43
2.84 1.54 1 9.1477e-41
2.82 1.54 0.75 9.1477e-41
2.85 1.54 0.67 9.1477e-41
2.95 1.54 0.89 9.1477e-41
2.99 1.54 0.89 3.57e-43
3.06 1.54 0.89 3.57e-43
3.11 1.54 0.89 3.57e-43
3.15 1.54 1.01 9.1477e-41
3.18 1.54 0.95 9.1477e-41
1.6 1.61 1.02 3.57e-43
1.99 1.61 1.35 9.1477e-41
2.04 1.61 1.35 3.57e-43
1.92 1.61 1.35 3.57e-43
1.64 1.61 1.35 3.57e-43
2.02 1.61 1.35 3.57e-43
1.75 1.61 1.35 3.57e-43
2.12 1.61 1.35 3.57e-43
2.15 1.61 1.35 3.57e-43
2.2 1.61 1.35 3.57e-43
2.23 1.61 1.35 3.57e-43
2.29 1.61 1.35 3.57e-43
2.35 1.61 1.35 3.57e-43
2.4 1.61 1.35 3.57e-43
2.44 1.61 1.35 3.57e-43
2.52 1.61 1.35 3.57e-43
2.56 1.61 1.35 3.57e-43
2.6 1.61 1.35 3.57e-43
2.64 1.61 1.35 3.57e-43
2.65 1.61 1.35 3.57e-43
2.7 1.61 1.35 3.57e-43
2.75 1.61 1.35 3.57e-43
2.79 1.61 0.96 9.1477e-41
2.78 1.61 0.77 9.1477e-41
2.82 1.61 0.73 9.1477e-41
2.86 1.61 0.71 9.1477e-41
2.95 1.61 0.89 9.1477e-41
3 1.61 0.89 3.57e-43
3.06 1.61 0.89 3.57e-43
3.11 1.61 0.89 3.57e-43
3.15 1.61 1.01 9.1477e-41
2.8 1.68 1 3.57e-43
2.78 1.68 0.76 9.1477e-41
2.81 1.68 0.72 9.1477e-41
2.85 1.68 0.7 9.1477e-41
2.95 1.68 0.91 9.1477e-41
3 1.68 0.91 3.57e-43
3.06 1.68 0.91 3.57e-43
3.11 1.68 0.91 3.57e-43
3.15 1.68 1.01 9.1477e-41
2.44 1.75 1.01 3.57e-43
2.62 1.75 1.39 9.1477e-41
2.66 1.75 1.39 3.57e-43
2.6 1.75 1.39 3.57e-43
2.64 1.75 1.39 3.57e-43
2.65 1.75 0.96 9.1477e-41
2.81 1.75 0.96 3.57e-43
2.75 1.75 0.97 9.1477e-41
2.8 1.75 1 9.1477e-41
2.81 1.75 0.86 9.1477e-41
2.81 1.75 0.72 9.1477e-41
2.85 1.75 0.69 9.1477e-41
2.95 1.75 0.91 9.1477e-41
3 1.75 0.91 3.57e-43
3.06 1.75 0.91 3.57e-43
3.11 1.75 0.91 3.57e-43
3.15 1.75 1.01 9.1477e-41
2.44 1.82 1.01 3.57e-43
2.63 1.82 1.41 9.1477e-41
2.67 1.82 1.42 9.1477e-41
2.71 1.82 1.41 9.1477e-41
2.74 1.82 1.39 9.1477e-41
2.78 1.82 1.39 3.57e-43
2.81 1.82 1.39 3.57e-43
2.75 1.82 0.97 9.1477e-41
2.75 1.82 0.83 9.1477e-41
2.83 1.82 0.97 9.1477e-41
2.87 1.82 0.93 9.1477e-41
2.86 1.82 0.73 9.1477e-41
2.96 1.82 0.94 9.1477e-41
3 1.82 0.94 3.57e-43
3.06 1.82 0.94 3.57e-43
3.11 1.82 0.94 3.57e-43
3.15 1.82 1.01 9.1477e-41
2.44 1.89 1.01 3.57e-43
2.63 1.89 1.43 9.1477e-41
2.67 1.89 1.43 9.1477e-41
2.71 1.89 1.41 9.1477e-41
2.75 1.89 1.41 9.1477e-41
2.79 1.89 1.41 3.57e-43
2.81 1.89 1.35 9.1477e-41
2.66 1.89 0.69 9.1477e-41
2.72 1.89 0.72 9.1477e-41
2.82 1.89 0.92 9.1477e-41
2.89 1.89 1 9.1477e-41
2.92 1.89 0.97 9.1477e-41
2.96 1.89 0.94 9.1477e-41
3 1.89 0.94 3.57e-43
3.06 1.89 0.94 3.57e-43
3.11 1.89 0.94 3.57e-43
3.15 1.89 1.01 9.1477e-41
2.53 1.96 1.48 3.57e-43
2.56 1.96 1.46 3.57e-43
2.44 1.96 1.01 9.1477e-41
2.64 1.96 1.44 9.1477e-41
2.68 1.96 1.44 9.1477e-41
2.72 1.96 1.43 9.1477e-41
2.75 1.96 1.42 9.1477e-41
2.79 1.96 1.42 3.57e-43
2.81 1.96 1.35 9.1477e-41
2.67 1.96 0.71 9.1477e-41
2.72 1.96 0.71 9.1477e-41
2.81 1.96 0.88 9.1477e-41
2.89 1.96 1.01 9.1477e-41
2.92 1.96 0.98 9.1477e-41
2.97 1.96 0.97 9.1477e-41
3 1.96 0.97 3.57e-43
3.06 1.96 0.97 3.57e-43
3.11 1.96 0.97 3.57e-43
3.15 1.96 1.01 9.1477e-41
1.99 2.03 0.97 3.57e-43
2.53 2.03 1.48 9.1477e-41
2.56 2.03 1.46 9.1477e-41
2.6 2.03 1.45 9.1477e-41
2.64 2.03 1.46 9.1477e-41
2.68 2.03 1.45 9.1477e-41
2.72 2.03 1.43 9.1477e-41
2.75 2.03 1.42 9.1477e-41
2.8 2.03 1.42 3.57e-43
2.81 2.03 1.35 9.1477e-41
2.75 2.03 0.97 9.1477e-41
2.8 2.03 1.02 9.1477e-41
2.85 2.03 1.02 9.1477e-41
2.89 2.03 1.01 9.1477e-41
2.92 2.03 0.95 9.1477e-41
2.96 2.03 0.95 9.1477e-41
3 2.03 0.95 3.57e-43
3.06 2.03 0.95 3.57e-43
3.11 2.03 1.04 9.1477e-41
3.09 2.03 0.75 9.1477e-41
2.53 2.1 1.48 3.57e-43
2.56 2.1 1.46 9.1477e-41
2.61 2.1 1.47 9.1477e-41
2.64 2.1 1.45 9.1477e-41
2.68 2.1 1.45 9.1477e-41
2.72 2.1 1.44 9.1477e-41
2.76 2.1 1.43 9.1477e-41
2.79 2.1 1.42 9.1477e-41
2.79 2.1 1.28 9.1477e-41
2.78 2.1 1.08 9.1477e-41
2.81 2.1 1.04 9.1477e-41
2.84 2.1 1.01 9.1477e-41
2.87 2.1 1.01 3.57e-43
2.92 2.1 0.95 9.1477e-41
2.96 2.1 0.96 9.1477e-41
3.01 2.1 0.96 3.57e-43
3.06 2.1 0.96 3.57e-43
3.11 2.1 1.04 9.1477e-41
3.1 2.1 0.79 9.1477e-41
2.49 2.17 1.48 3.57e-43
2.53 2.17 1.48 9.1477e-41
2.56 2.17 1.47 9.1477e-41
2.6 2.17 1.46 9.1477e-41
2.64 2.17 1.46 9.1477e-41
2.68 2.17 1.45 9.1477e-41
2.72 2.17 1.44 9.1477e-41
2.76 2.17 1.44 9.1477e-41
2.79 2.17 1.41 9.1477e-41
2.79 2.17 1.26 9.1477e-41
2.77 2.17 1.05 9.1477e-41
2.79 2.17 0.98 9.1477e-41
2.81 2.17 0.88 9.1477e-41
2.92 2.17 1.13 9.1477e-41
2.95 2.17 1.13 3.57e-43
2.96 2.17 1.13 3.57e-43
3.01 2.17 1.13 3.57e-43
3.06 2.17 1.13 3.57e-43
3.11 2.17 1.13 3.57e-43
3.1 2.17 0.79 9.1477e-41
1.77 2.24 0.93 3.57e-43
2.49 2.24 1.48 9.1477e-41
2.52 2.24 1.47 9.1477e-41
2.56 2.24 1.47 9.1477e-41
2.61 2.24 1.47 9.1477e-41
2.64 2.24 1.46 9.1477e-41
2.68 2.24 1.45 9.1477e-41
2.72 2.24 1.44 9.1477e-41
2.76 2.24 1.44 9.1477e-41
2.79 2.24 1.42 9.1477e-41
2.83 2.24 1.41 9.1477e-41
2.85 2.24 1.41 3.57e-43
2.79 2.24 1.41 3.57e-43
2.81 2.24 1.41 3.57e-43
2.92 2.24 1.41 3.57e-43
2.95 2.24 1.41 3.57e-43
2.96 2.24 1.41 3.57e-43
3.01 2.24 1.41 3.57e-43
3.06 2.24 1.41 3.57e-43
3.11 2.24 1.41 3.57e-43
3.1 2.24 0.79 9.1477e-41
1.77 2.31 0.93 3.57e-43
2.49 2.31 1.49 9.1477e-41
2.53 2.31 1.48 9.1477e-41
2.57 2.31 1.47 9.1477e-41
2.61 2.31 1.47 9.1477e-41
2.64 2.31 1.46 9.1477e-41
2.68 2.31 1.45 9.1477e-41
2.72 2.31 1.44 9.1477e-41
2.76 2.31 1.43 9.1477e-41
2.79 2.31 1.43 3.57e-43
2.83 2.31 1.43 3.57e-43
2.85 2.31 1.43 3.57e-43
2.79 2.31 1.43 3.57e-43
2.81 2.31 1.43 3.57e-43
2.92 2.31 1.43 3.57e-43
2.95 2.31 1.43 3.57e-43
2.96 2.31 0.96 9.1477e-41
3.01 2.31 0.96 3.57e-43
3.06 2.31 0.96 3.57e-43
3.11 2.31 0.96 3.57e-43
3.1 2.31 0.79 9.1477e-41
1.77 2.38 0.93 3.57e-43
2.49 2.38 1.48 9.1477e-41
2.53 2.38 1.48 9.1477e-41
2.56 2.38 1.47 9.1477e-41
2.6 2.38 1.46 9.1477e-41
2.65 2.38 1.47 9.1477e-41
2.68 2.38 1.45 9.1477e-41
2.72 2.38 1.44 9.1477e-41
2.76 2.38 1.44 3.57e-43
2.79 2.38 1.44 3.57e-43
2.83 2.38 1.44 3.57e-43
2.85 2.38 1.44 3.57e-43
2.79 2.38 1.44 3.57e-43
2.81 2.38 1.44 3.57e-43
2.92 2.38 1.44 3.57e-43
2.95 2.38 1.44 3.57e-43
2.96 2.38 0.96 9.1477e-41
3.01 2.38 0.96 3.57e-43
3.06 2.38 0.96 3.57e-43
3.11 2.38 0.96 3.57e-43
3.1 2.38 0.79 9.1477e-41
1.77 2.45 0.93 3.57e-43
2.49 2.45 1.48 9.1477e-41
2.52 2.45 1.47 9.1477e-41
2.57 2.45 1.48 9.1477e-41
2.61 2.45 1.47 9.1477e-41
2.65 2.45 1.47 9.1477e-41
2.69 2.45 1.46 9.1477e-41
2.72 2.45 1.45 9.1477e-41
2.76 2.45 1.45 3.57e-43
2.79 2.45 1.45 3.57e-43
2.83 2.45 1.45 3.57e-43
2.85 2.45 1.45 3.57e-43
2.79 2.45 1.45 3.57e-43
2.81 2.45 1.45 3.57e-43
2.92 2.45 1.45 3.57e-43
2.95 2.45 1.45 3.57e-43
2.96 2.45 0.96 9.1477e-41
3.01 2.45 0.96 3.57e-43
3.06 2.45 0.96 3.57e-43
3.11 2.45 0.96 3.57e-43
3.1 2.45 0.79 9.1477e-41
1.77 2.52 0.93 3.57e-43
2.49 2.52 1.48 9.1477e-41
2.52 2.52 1.47 9.1477e-41
2.56 2.52 1.47 9.1477e-41
2.61 2.52 1.47 9.1477e-41
2.64 2.52 1.46 9.1477e-41
2.69 2.52 1.46 9.1477e-41
2.72 2.52 1.45 9.1477e-41
2.76 2.52 1.45 3.57e-43
2.79 2.52 1.45 3.57e-43
2.83 2.52 1.45 3.57e-43
2.85 2.52 1.45 3.57e-43
2.79 2.52 1.45 3.57e-43
2.81 2.52 1.45 3.57e-43
2.92 2.52 1.45 3.57e-43
2.95 2.52 1.1 9.1477e-41
2.97 2.52 0.99 9.1477e-41
3.01 2.52 0.99 3.57e-43
3.06 2.52 0.99 3.57e-43
3.11 2.52 0.99 3.57e-43
3.1 2.52 0.79 9.1477e-41
1.77 2.59 0.93 3.57e-43
2.48 2.59 1.47 9.1477e-41
2.52 2.59 1.46 9.1477e-41
2.56 2.59 1.47 9.1477e-41
2.61 2.59 1.47 9.1477e-41
2.64 2.59 1.45 9.1477e-41
2.68 2.59 1.45 9.1477e-41
2.72 2.59 1.44 9.1477e-41
2.76 2.59 1.44 3.57e-43
2.79 2.59 1.44 3.57e-43
2.83 2.59 1.44 3.57e-43
2.85 2.59 1.44 3.57e-43
2.79 2.59 1.44 3.57e-43
2.81 2.59 1.44 3.57e-43
2.92 2.59 1.44 3.57e-43
2.95 2.59 1.1 9.1477e-41
2.97 2.59 1 9.1477e-41
3.01 2.59 1 3.57e-43
3.06 2.59 1 3.57e-43
3.11 2.59 1 3.57e-43
3.1 2.59 0.79 9.1477e-41
2.56 2.66 1.47 3.57e-43
2.6 2.66 1.46 9.1477e-41
2.64 2.66 1.45 9.1477e-41
2.69 2.66 1.46 9.1477e-41
2.72 2.66 1.46 3.57e-43
2.76 2.66 1.44 9.1477e-41
2.76 2.66 1.44 3.57e-43
2.83 2.66 1.44 3.57e-43
2.85 2.66 1.44 3.57e-43
2.79 2.66 1.44 3.57e-43
2.81 2.66 1.44 3.57e-43
2.92 2.66 1.44 3.57e-43
2.95 2.66 1.1 9.1477e-41
2.97 2.66 1.1 3.57e-43
3.01 2.66 1.1 3.57e-43
3.06 2.66 1.1 3.57e-43
3.11 2.66 1.1 3.57e-43
3.1 2.66 0.79 9.1477e-41
1.75 2.73 1.45 9.1477e-41
1.79 2.73 1.45 3.57e-43
1.59 2.73 1.45 3.57e-43
1.65 2.73 1.45 3.57e-43
1.73 2.73 1.45 3.57e-43
1.77 2.73 1.45 3.57e-43
1.99 2.73 1.45 3.57e-43
2.04 2.73 1.45 3.57e-43
1.92 2.73 1.45 3.57e-43
1.64 2.73 1.45 3.57e-43
2.02 2.73 1.45 3.57e-43
1.75 2.73 1.45 3.57e-43
2.12 2.73 1.45 3.57e-43
2.15 2.73 1.45 3.57e-43
2.2 2.73 0.98 9.1477e-41
2.44 2.73 1.47 9.1477e-41
2.48 2.73 1.47 3.57e-43
2.52 2.73 1.46 9.1477e-41
2.56 2.73 1.47 9.1477e-41
2.6 2.73 1.46 9.1477e-41
2.65 2.73 1.47 9.1477e-41
2.68 2.73 1.45 9.1477e-41
2.72 2.73 1.45 3.57e-43
2.76 2.73 1.44 9.1477e-41
2.79 2.73 1.44 3.57e-43
2.83 2.73 1.44 3.57e-43
2.85 2.73 1.44 3.57e-43
2.79 2.73 1.44 3.57e-43
2.81 2.73 1.44 3.57e-43
2.92 2.73 1.44 3.57e-43
2.95 2.73 1.1 9.1477e-41
2.97 2.73 1.1 3.57e-43
3.01 2.73 1.1 3.57e-43
3.06 2.73 1.1 3.57e-43
3.11 2.73 1.1 3.57e-43
3.1 2.73 0.79 9.1477e-41
1.75 2.8 1.45 9.1477e-41
1.79 2.8 1.45 3.57e-43
1.59 2.8 1.45 3.57e-43
1.65 2.8 1.45 3.57e-43
1.73 2.8 1.45 3.57e-43
1.77 2.8 1.45 3.57e-43
1.99 2.8 1.45 3.57e-43
2.04 2.8 1.45 3.57e-43
1.92 2.8 1.45 3.57e-43
1.64 2.8 1.45 3.57e-43
2.02 2.8 1.45 3.57e-43
1.75 2.8 1.45 3.57e-43
2.12 2.8 1.45 3.57e-43
2.15 2.8 1.45 3.57e-43
2.2 2.8 1.45 3.57e-43
2.44 2.8 1.45 3.57e-43
2.48 2.8 1.45 3.57e-43
2.52 2.8 1.46 9.1477e-41
2.56 2.8 1.46 9.1477e-41
2.59 2.8 1.43 9.1477e-41
2.64 2.8 1.44 9.1477e-41
2.68 2.8 1.45 9.1477e-41
2.72 2.8 1.43 9.1477e-41
2.76 2.8 1.43 3.57e-43
2.79 2.8 1.43 3.57e-43
2.83 2.8 1.43 3.57e-43
2.85 2.8 1.43 3.57e-43
2.79 2.8 1.43 3.57e-43
2.81 2.8 1.43 3.57e-43
2.92 2.8 1.43 3.57e-43
2.95 2.8 1.1 9.1477e-41
2.98 2.8 1.1 3.57e-43
3.01 2.8 1.1 3.57e-43
3.06 2.8 1.1 3.57e-43
3.11 2.8 1.1 3.57e-43
3.1 2.8 0.79 9.1477e-41
1.74 2.87 1.43 9.1477e-41
1.79 2.87 1.43 3.57e-43
1.59 2.87 1.43 3.57e-43
1.65 2.87 1.43 3.57e-43
1.73 2.87 1.43 3.57e-43
1.77 2.87 1.43 3.57e-43
1.99 2.87 1.43 3.57e-43
2.04 2.87 1.43 3.57e-43
1.92 2.87 1.43 3.57e-43
1.64 2.87 1.43 3.57e-43
2.02 2.87 1.43 3.57e-43
1.75 2.87 1.43 3.57e-43
2.12 2.87 1.43 3.57e-43
2.15 2.87 1.43 3.57e-43
2.2 2.87 1.43 3.57e-43
2.44 2.87 1.47 9.1477e-41
2.48 2.87 1.47 3.57e-43
2.52 2.87 1.46 9.1477e-41
2.56 2.87 1.45 9.1477e-41
2.6 2.87 1.44 9.1477e-41
2.64 2.87 1.44 9.1477e-41
2.67 2.87 1.43 9.1477e-41
2.71 2.87 1.42 9.1477e-41
2.75 2.87 1.42 3.57e-43
2.79 2.87 1.42 3.57e-43
2.83 2.87 1.42 3.57e-43
2.85 2.87 1.42 3.57e-43
2.79 2.87 1.42 3.57e-43
2.81 2.87 1.42 3.57e-43
2.92 2.87 1.42 3.57e-43
2.95 2.87 1.1 9.1477e-41
2.98 2.87 1.1 3.57e-43
3.01 2.87 1.1 3.57e-43
3.06 2.87 1.1 3.57e-43
3.11 2.87 1.1 3.57e-43
3.1 2.87 0.79 9.1477e-41
1.74 2.94 1.43 9.1477e-41
1.79 2.94 1.43 3.57e-43
1.59 2.94 1.43 3.57e-43
1.65 2.94 1.43 3.57e-43
1.73 2.94 1.43 3.57e-43
1.77 2.94 1.43 3.57e-43
1.99 2.94 1.43 3.57e-43
2.04 2.94 1.43 3.57e-43
1.92 2.94 1.43 3.57e-43
1.64 2.94 1.43 3.57e-43
2.02 2.94 1.43 3.57e-43
1.75 2.94 1.43 3.57e-43
2.12 2.94 1.43 3.57e-43
2.15 2.94 1.43 3.57e-43
2.2 2.94 1.43 3.57e-43
2.44 2.94 1.43 3.57e-43
2.48 2.94 1.43 3.57e-43
2.52 2.94 1.46 9.1477e-41
2.55 2.94 1.44 9.1477e-41
2.6 2.94 1.44 9.1477e-41
2.63 2.94 1.43 9.1477e-41
2.67 2.94 1.42 9.1477e-41
2.72 2.94 1.43 9.1477e-41
2.75 2.94 1.43 3.57e-43
2.79 2.94 1.43 3.57e-43
2.83 2.94 1.43 3.57e-43
2.85 2.94 1.43 3.57e-43
2.79 2.94 1.43 3.57e-43
2.81 2.94 1.43 3.57e-43
2.92 2.94 1.43 3.57e-43
2.95 2.94 1.43 3.57e-43
2.98 2.94 1.43 3.57e-43
3.01 2.94 1.43 3.57e-43
3.06 2.94 1.43 3.57e-43
3.11 2.94 1.43 3.57e-43
3.1 2.94 0.79 9.1477e-41
1.74 3.01 1.43 9.1477e-41
1.79 3.01 1.43 3.57e-43
1.59 3.01 1.43 3.57e-43
1.65 3.01 1.43 3.57e-43
1.73 3.01 1.43 3.57e-43
1.77 3.01 1.43 3.57e-43
1.99 3.01 1.43 3.57e-43
2.04 3.01 1.43 3.57e-43
1.92 3.01 1.43 3.57e-43
2.22 3.01 1.47 9.1477e-41
2.26 3.01 1.47 3.57e-43
2.12 3.01 1.47 3.57e-43
2.15 3.01 1.47 3.57e-43
2.2 3.01 1.47 3.57e-43
2.44 3.01 1.47 3.57e-43
2.48 3.01 1.47 3.57e-43
2.52 3.01 1.46 9.1477e-41
2.55 3.01 1.43 9.1477e-41
2.59 3.01 1.43 9.1477e-41
2.63 3.01 1.42 9.1477e-41
2.67 3.01 1.42 9.1477e-41
2.71 3.01 1.4 9.1477e-41
2.74 3.01 1.4 3.57e-43
2.79 3.01 1.4 3.57e-43
2.83 3.01 1.4 3.57e-43
2.85 3.01 1.4 3.57e-43
2.79 3.01 1.4 3.57e-43
2.81 3.01 1.4 3.57e-43
2.92 3.01 1.4 3.57e-43
2.95 3.01 1.4 3.57e-43
2.98 3.01 1.4 3.57e-43
3.01 3.01 1.4 3.57e-43
3.06 3.01 1.4 3.57e-43
3.11 3.01 1.4 3.57e-43
3.1 3.01 0.79 9.1477e-41
1.74 3.08 1.43 9.1477e-41
1.78 3.08 1.43 3.57e-43
1.59 3.08 1.43 3.57e-43
1.65 3.08 1.43 3.57e-43
1.73 3.08 1.43 3.57e-43
1.77 3.08 1.43 3.57e-43
1.99 3.08 1.43 3.57e-43
2.04 3.08 1.43 3.57e-43
1.92 3.08 1.43 3.57e-43
1.64 3.08 1.43 3.57e-43
2.22 3.08 1.43 3.57e-43
2.26 3.08 1.43 3.57e-43
2.12 3.08 1.43 3.57e-43
2.15 3.08 1.43 3.57e-43
2.2 3.08 1.43 3.57e-43
2.44 3.08 1.43 3.57e-43
2.48 3.08 1.43 3.57e-43
2.52 3.08 1.46 9.1477e-41
2.55 3.08 1.43 9.1477e-41
2.59 3.08 1.43 9.1477e-41
2.63 3.08 1.41 9.1477e-41
2.67 3.08 1.41 9.1477e-41
2.7 3.08 1.4 9.1477e-41
2.74 3.08 1.4 3.57e-43
2.79 3.08 1.4 3.57e-43
2.83 3.08 1.4 3.57e-43
2.85 3.08 1.4 3.57e-43
2.79 3.08 1.4 3.57e-43
2.81 3.08 1.4 3.57e-43
2.92 3.08 1.4 3.57e-43
2.95 3.08 1.4 3.57e-43
2.98 3.08 1.4 3.57e-43
3.01 3.08 1.4 3.57e-43
3.06 3.08 1.4 3.57e-43
3.11 3.08 1.04 9.1477e-41
3.03 3.08 0.45 9.1477e-41
1.74 3.15 1.43 9.1477e-41
1.77 3.15 1.43 3.57e-43
1.59 3.15 1.43 3.57e-43
1.65 3.15 1.43 3.57e-43
1.73 3.15 1.43 3.57e-43
1.77 3.15 1.43 3.57e-43
1.99 3.15 1.43 3.57e-43
2.04 3.15 1.43 3.57e-43
1.92 3.15 1.43 3.57e-43
1.64 3.15 1.43 3.57e-43
2.22 3.15 1.43 3.57e-43
2.26 3.15 1.43 3.57e-43
2.12 3.15 1.43 3.57e-43
2.15 3.15 1.43 3.57e-43
2.2 3.15 1.43 3.57e-43
2.44 3.15 1.43 3.57e-43
2.48 3.15 1.43 3.57e-43
2.52 3.15 1.43 3.57e-43
2.55 3.15 1.43 9.1477e-41
2.59 3.15 1.43 3.57e-43
2.63 3.15 1.41 9.1477e-41
2.66 3.15 1.4 9.1477e-41
2.7 3.15 1.4 9.1477e-41
2.74 3.15 1.4 3.57e-43
2.79 3.15 1.4 3.57e-43
2.83 3.15 1.4 3.57e-43
2.85 3.15 1.4 3.57e-43
2.79 3.15 1.4 3.57e-43
2.81 3.15 1.4 3.57e-43
2.92 3.15 1.4 3.57e-43
2.95 3.15 1.4 3.57e-43
2.98 3.15 1.4 3.57e-43
3.01 3.15 1.4 3.57e-43
3.06 3.15 1.4 3.57e-43
3.11 3.15 1.04 9.1477e-41
3.03 3.15 0.42 9.1477e-41
2.52 3.22 1.27 3.57e-43
2.54 3.22 1.41 9.1477e-41
2.58 3.22 1.4 9.1477e-41
2.62 3.22 1.4 9.1477e-41
2.66 3.22 1.39 9.1477e-41
2.7 3.22 1.39 9.1477e-41
2.74 3.22 1.39 3.57e-43
2.79 3.22 1.39 3.57e-43
2.83 3.22 1.39 3.57e-43
2.85 3.22 1.39 3.57e-43
2.79 3.22 1.39 3.57e-43
2.81 3.22 1.39 3.57e-43
2.92 3.22 1.39 3.57e-43
2.95 3.22 1.39 3.57e-43
2.98 3.22 1.39 3.57e-43
3.01 3.22 1.39 3.57e-43
3.06 3.22 1.39 3.57e-43
3.11 3.22 1.04 9.1477e-41
3.03 3.22 0.42 9.1477e-41
1.92 3.29 1.06 3.57e-43
2.08 3.29 1.24 9.1477e-41
2.13 3.29 1.27 9.1477e-41
2.18 3.29 1.26 9.1477e-41
2.23 3.29 1.27 9.1477e-41
2.28 3.29 1.27 3.57e-43
2.2 3.29 1.27 3.57e-43
2.44 3.29 1.27 3.57e-43
2.48 3.29 1.27 3.57e-43
2.52 3.29 1.27 3.57e-43
2.54 3.29 1.27 3.57e-43
2.58 3.29 1.27 3.57e-43
2.62 3.29 1.27 3.57e-43
2.66 3.29 1.27 3.57e-43
2.7 3.29 1.27 3.57e-43
2.74 3.29 1.27 3.57e-43
2.79 3.29 1.27 3.57e-43
2.83 3.29 1.27 3.57e-43
2.85 3.29 1.27 3.57e-43
2.79 3.29 1.27 3.57e-43
2.81 3.29 1.27 3.57e-43
2.92 3.29 1.27 3.57e-43
2.95 3.29 1.27 3.57e-43
2.98 3.29 1.27 3.57e-43
3.01 3.29 1.27 3.57e-43
3.06 3.29 1.27 3.57e-43
3.11 3.29 1.04 9.1477e-41
3.04 3.29 0.5 9.1477e-41
1.53 3.36 0.97 3.57e-43
1.74 3.36 1.05 9.1477e-41
1.79 3.36 1.06 9.1477e-41
1.85 3.36 1.06 3.57e-43
2.04 3.36 1.06 3.57e-43
1.92 3.36 1.06 3.57e-43
2.08 3.36 1.06 3.57e-43
2.13 3.36 1.06 3.57e-43
2.18 3.36 1.06 3.57e-43
2.23 3.36 1.06 3.57e-43
2.28 3.36 1.06 3.57e-43
2.2 3.36 1.06 3.57e-43
2.44 3.36 1.06 3.57e-43
2.48 3.36 1.06 3.57e-43
2.52 3.36 1.06 3.57e-43
2.54 3.36 1.06 3.57e-43
2.58 3.36 1.06 3.57e-43
2.62 3.36 1.06 3.57e-43
2.66 3.36 1.06 3.57e-43
2.7 3.36 1.06 3.57e-43
2.74 3.36 1.06 3.57e-43
2.79 3.36 1.06 3.57e-43
2.83 3.36 1.06 3.57e-43
2.85 3.36 1.06 3.57e-43
2.79 3.36 1.06 3.57e-43
2.81 3.36 1.06 3.57e-43
2.92 3.36 1.13 9.1477e-41
2.92 3.36 0.97 9.1477e-41
2.95 3.36 0.9 9.1477e-41
2.98 3.36 0.86 9.1477e-41
3.01 3.36 0.86 3.57e-43
3.11 3.36 1.04 9.1477e-41
3.03 3.36 0.42 9.1477e-41
1.69 3.43 0.86 3.57e-43
1.83 3.43 1.03 9.1477e-41
1.89 3.43 1.05 9.1477e-41
1.95 3.43 1.08 9.1477e-41
2 3.43 1.07 9.1477e-41
2.05 3.43 1.07 9.1477e-41
2.09 3.43 1.06 9.1477e-41
2.13 3.43 1.05 9.1477e-41
2.19 3.43 1.06 9.1477e-41
2.23 3.43 1.06 3.57e-43
2.44 3.43 1.06 3.57e-43
2.48 3.43 1.06 3.57e-43
2.52 3.43 1.06 3.57e-43
2.54 3.43 1.06 3.57e-43
2.58 3.43 1.06 3.57e-43
2.62 3.43 1.06 3.57e-43
2.66 3.43 1.06 3.57e-43
2.7 3.43 1.06 3.57e-43
2.74 3.43 1.06 3.57e-43
2.79 3.43 1.39 9.1477e-41
2.71 3.43 1.39 3.57e-43
2.85 3.43 1.39 3.57e-43
2.79 3.43 1.39 3.57e-43
2.81 3.43 0.88 9.1477e-41
2.87 3.43 0.94 9.1477e-41
2.9 3.43 0.86 9.1477e-41
2.93 3.43 0.83 9.1477e-41
2.97 3.43 0.83 3.57e-43
3.01 3.43 0.83 3.57e-43
3.11 3.43 1.04 9.1477e-41
3.03 3.43 0.43 9.1477e-41
1.57 3.5 0.71 9.1477e-41
1.69 3.5 0.86 9.1477e-41
1.76 3.5 0.89 9.1477e-41
1.83 3.5 0.89 3.57e-43
1.95 3.5 0.89 3.57e-43
2 3.5 0.89 3.57e-43
2.05 3.5 0.89 3.57e-43
2.09 3.5 0.89 3.57e-43
2.13 3.5 0.89 3.57e-43
2.19 3.5 0.89 3.57e-43
2.23 3.5 0.89 3.57e-43
2.44 3.5 0.89 3.57e-43
2.48 3.5 0.89 3.57e-43
2.52 3.5 0.89 3.57e-43
2.54 3.5 0.89 3.57e-43
2.58 3.5 0.89 3.57e-43
2.62 3.5 0.89 3.57e-43
2.66 3.5 0.89 3.57e-43
2.7 3.5 0.89 3.57e-43
2.74 3.5 0.89 3.57e-43
2.79 3.5 0.89 3.57e-43
2.71 3.5 0.89 3.57e-43
2.85 3.5 0.89 3.57e-43
2.79 3.5 0.98 9.1477e-41
2.8 3.5 0.85 9.1477e-41
2.83 3.5 0.78 9.1477e-41
2.87 3.5 0.78 9.1477e-41
2.91 3.5 0.78 3.57e-43
2.97 3.5 0.78 3.57e-43
3.01 3.5 0.78 3.57e-43
3.11 3.5 1.04 9.1477e-41
1.64 3.57 0.53 9.1477e-41
1.76 3.57 0.67 9.1477e-41
1.85 3.57 0.74 9.1477e-41
1.89 3.57 0.72 9.1477e-41
1.97 3.57 0.78 9.1477e-41
2.01 3.57 0.76 9.1477e-41
2.06 3.57 0.77 9.1477e-41
2.1 3.57 0.73 9.1477e-41
2.15 3.57 0.73 9.1477e-41
2.19 3.57 0.71 9.1477e-41
2.24 3.57 0.71 9.1477e-41
2.29 3.57 0.72 9.1477e-41
2.34 3.57 0.73 9.1477e-41
2.39 3.57 0.72 9.1477e-41
2.45 3.57 0.74 9.1477e-41
2.49 3.57 0.74 9.1477e-41
2.55 3.57 0.76 9.1477e-41
2.59 3.57 0.76 9.1477e-41
2.63 3.57 0.74 9.1477e-41
2.67 3.57 0.71 9.1477e-41
2.71 3.57 0.71 3.57e-43
2.8 3.57 0.71 3.57e-43
2.83 3.57 0.71 3.57e-43
2.87 3.57 0.78 9.1477e-41
2.87 3.57 0.59 9.1477e-41
2.91 3.57 0.55 9.1477e-41
1.94 3.64 0.46 9.1477e-41
2.01 3.64 0.51 9.1477e-41
2.08 3.64 0.55 9.1477e-41
2.14 3.64 0.58 9.1477e-41
2.2 3.64 0.6 9.1477e-41
2.25 3.64 0.61 9.1477e-41
2.3 3.64 0.59 9.1477e-41
2.34 3.64 0.59 9.1477e-41
2.39 3.64 0.58 9.1477e-41
2.44 3.64 0.58 9.1477e-41
2.49 3.64 0.57 9.1477e-41
2.53 3.64 0.56 9.1477e-41
2.58 3.64 0.55 9.1477e-41
2.62 3.64 0.54 9.1477e-41
2.67 3.64 0.52 9.1477e-41
2.69 3.64 0.44 9.1477e-41
