# .PCD v.7 - Point Cloud Data file format
VERSION .7
FIELDS x y z rgb
SIZE 4 4 4 4
TYPE F F F F
WIDTH 1932
HEIGHT 1
POINTS 1932
DATA ascii
0.78 0.15 0.77 9.1477e-41
0.86 0.15 0.78 9.1477e-41
0.91 0.15 0.78 9.1477e-41
0.98 0.15 0.78 9.1477e-41
1.04 0.15 0.79 9.1477e-41
1.1 0.15 0.79 9.1477e-41
1.15 0.15 0.77 9.1477e-41
1.21 0.15 0.77 9.1477e-41
1.26 0.15 0.76 9.1477e-41
1.32 0.15 0.77 9.1477e-41
1.37 0.15 0.75 9.1477e-41
1.42 0.15 0.74 9.1477e-41
1.47 0.15 0.74 9.1477e-41
1.51 0.15 0.72 9.1477e-41
1.56 0.15 0.7 9.1477e-41
1.57 0.15 0.61 9.1477e-41
1.62 0.15 0.6 9.1477e-41
1.67 0.15 0.59 9.1477e-41
1.71 0.15 0.56 9.1477e-41
1.74 0.15 0.5 9.1477e-41
0.5 0.2 0.72 9.1477e-41
0.6 0.2 0.78 9.1477e-41
0.67 0.2 0.78 9.1477e-41
0.74 0.2 0.8 9.1477e-41
0.81 0.2 0.81 9.1477e-41
0.88 0.2 0.81 9.1477e-41
0.94 0.2 0.81 9.1477e-41
1.01 0.2 0.83 9.1477e-41
1.06 0.2 0.82 9.1477e-41
1.12 0.2 0.81 9.1477e-41
1.17 0.2 0.81 9.1477e-41
1.23 0.2 0.82 9.1477e-41
1.28 0.2 0.8 9.1477e-41
1.34 0.2 0.8 9.1477e-41
1.39 0.2 0.79 9.1477e-41
1.44 0.2 0.78 9.1477e-41
1.49 0.2 0.77 9.1477e-41
1.54 0.2 0.76 9.1477e-41
1.58 0.2 0.75 9.1477e-41
1.61 0.2 0.75 3.57e-43
1.62 0.2 0.6 9.1477e-41
1.69 0.2 0.63 9.1477e-41
1.73 0.2 0.6 9.1477e-41
1.77 0.2 0.58 9.1477e-41
1.79 0.2 0.5 9.1477e-41
0.43 0.25 0.72 9.1477e-41
0.56 0.25 0.8 9.1477e-41
0.62 0.25 0.81 9.1477e-41
0.7 0.25 0.83 9.1477e-41
0.76 0.25 0.83 9.1477e-41
0.83 0.25 0.83 9.1477e-41
0.89 0.25 0.84 9.1477e-41
0.96 0.25 0.84 9.1477e-41
1.02 0.25 0.84 9.1477e-41
1.07 0.25 0.83 9.1477e-41
1.13 0.25 0.84 9.1477e-41
1.19 0.25 0.84 9.1477e-41
1.24 0.25 0.83 9.1477e-41
1.3 0.25 0.83 9.1477e-41
1.35 0.25 0.83 9.1477e-41
1.4 0.25 0.81 9.1477e-41
1.45 0.25 0.8 9.1477e-41
1.5 0.25 0.8 9.1477e-41
1.55 0.25 0.79 9.1477e-41
1.6 0.25 0.77 9.1477e-41
1.64 0.25 0.75 9.1477e-41
1.69 0.25 0.75 9.1477e-41
1.69 0.25 0.64 9.1477e-41
1.74 0.25 0.62 9.1477e-41
1.79 0.25 0.61 9.1477e-41
1.83 0.25 0.59 9.1477e-41
1.85 0.25 0.51 9.1477e-41
0.5 0.3 0.82 9.1477e-41
0.57 0.3 0.83 9.1477e-41
0.64 0.3 0.83 9.1477e-41
0.71 0.3 0.84 9.1477e-41
0.78 0.3 0.85 9.1477e-41
0.85 0.3 0.86 9.1477e-41
0.9 0.3 0.86 9.1477e-41
0.96 0.3 0.85 9.1477e-41
1.03 0.3 0.87 9.1477e-41
1.09 0.3 0.86 9.1477e-41
1.14 0.3 0.86 9.1477e-41
1.2 0.3 0.86 9.1477e-41
1.26 0.3 0.86 9.1477e-41
1.31 0.3 0.85 9.1477e-41
1.37 0.3 0.85 9.1477e-41
1.41 0.3 0.84 9.1477e-41
1.47 0.3 0.83 9.1477e-41
1.51 0.3 0.81 9.1477e-41
1.56 0.3 0.81 9.1477e-41
1.61 0.3 0.8 9.1477e-41
1.66 0.3 0.8 9.1477e-41
1.71 0.3 0.78 9.1477e-41
1.71 0.3 0.68 9.1477e-41
1.74 0.3 0.68 3.57e-43
1.79 0.3 0.61 9.1477e-41
1.84 0.3 0.6 9.1477e-41
1.88 0.3 0.58 9.1477e-41
1.88 0.3 0.46 9.1477e-41
0.45 0.35 0.84 9.1477e-41
0.53 0.35 0.85 9.1477e-41
0.58 0.35 0.84 9.1477e-41
0.66 0.35 0.86 9.1477e-41
0.73 0.35 0.87 9.1477e-41
0.79 0.35 0.87 9.1477e-41
0.86 0.35 0.88 9.1477e-41
0.92 0.35 0.88 9.1477e-41
0.99 0.35 0.89 9.1477e-41
1.04 0.35 0.88 9.1477e-41
1.1 0.35 0.88 9.1477e-41
1.15 0.35 0.87 9.1477e-41
1.22 0.35 0.88 9.1477e-41
1.26 0.35 0.87 9.1477e-41
1.32 0.35 0.86 9.1477e-41
1.37 0.35 0.86 9.1477e-41
1.42 0.35 0.85 9.1477e-41
1.48 0.35 0.85 9.1477e-41
1.53 0.35 0.85 9.1477e-41
1.57 0.35 0.83 9.1477e-41
1.62 0.35 0.81 9.1477e-41
1.67 0.35 0.81 9.1477e-41
1.72 0.35 0.81 9.1477e-41
1.77 0.35 0.79 9.1477e-41
1.8 0.35 0.79 3.57e-43
1.79 0.35 0.61 9.1477e-41
1.86 0.35 0.65 9.1477e-41
1.89 0.35 0.6 9.1477e-41
1.9 0.35 0.5 9.1477e-41
0.47 0.4 0.87 9.1477e-41
0.53 0.4 0.86 9.1477e-41
0.6 0.4 0.87 9.1477e-41
0.67 0.4 0.88 9.1477e-41
0.74 0.4 0.88 9.1477e-41
0.81 0.4 0.9 9.1477e-41
0.87 0.4 0.89 9.1477e-41
0.93 0.4 0.89 9.1477e-41
0.99 0.4 0.89 9.1477e-41
1.05 0.4 0.89 9.1477e-41
1.11 0.4 0.89 9.1477e-41
1.17 0.4 0.9 9.1477e-41
1.22 0.4 0.88 9.1477e-41
1.28 0.4 0.89 9.1477e-41
1.33 0.4 0.89 9.1477e-41
1.38 0.4 0.88 9.1477e-41
1.43 0.4 0.87 9.1477e-41
1.48 0.4 0.87 9.1477e-41
1.54 0.4 0.86 9.1477e-41
1.58 0.4 0.85 9.1477e-41
1.63 0.4 0.84 9.1477e-41
1.68 0.4 0.83 9.1477e-41
1.73 0.4 0.83 9.1477e-41
1.78 0.4 0.83 9.1477e-41
1.82 0.4 0.83 3.57e-43
1.79 0.4 0.61 9.1477e-41
1.88 0.4 0.7 9.1477e-41
1.91 0.4 0.64 9.1477e-41
1.93 0.4 0.58 9.1477e-41
1.93 0.4 0.46 9.1477e-41
0.39 0.45 0.85 9.1477e-41
0.48 0.45 0.88 9.1477e-41
0.54 0.45 0.87 9.1477e-41
0.62 0.45 0.89 9.1477e-41
0.68 0.45 0.89 9.1477e-41
0.75 0.45 0.9 9.1477e-41
0.82 0.45 0.9 9.1477e-41
0.87 0.45 0.9 9.1477e-41
0.94 0.45 0.91 9.1477e-41
1 0.45 0.91 9.1477e-41
1.05 0.45 0.9 9.1477e-41
1.12 0.45 0.91 9.1477e-41
1.17 0.45 0.9 9.1477e-41
1.23 0.45 0.9 9.1477e-41
1.29 0.45 0.91 9.1477e-41
1.34 0.45 0.89 9.1477e-41
1.39 0.45 0.9 9.1477e-41
1.44 0.45 0.89 9.1477e-41
1.49 0.45 0.88 9.1477e-41
1.54 0.45 0.87 9.1477e-41
1.59 0.45 0.87 9.1477e-41
1.64 0.45 0.85 9.1477e-41
1.69 0.45 0.85 9.1477e-41
1.74 0.45 0.85 9.1477e-41
1.79 0.45 0.85 9.1477e-41
1.83 0.45 0.83 9.1477e-41
1.86 0.45 0.78 9.1477e-41
1.89 0.45 0.72 9.1477e-41
1.92 0.45 0.67 9.1477e-41
1.94 0.45 0.6 9.1477e-41
1.96 0.45 0.52 9.1477e-41
0.42 0.5 0.89 9.1477e-41
0.49 0.5 0.89 9.1477e-41
0.55 0.5 0.88 9.1477e-41
0.63 0.5 0.91 9.1477e-41
0.69 0.5 0.9 9.1477e-41
0.76 0.5 0.91 9.1477e-41
0.83 0.5 0.92 9.1477e-41
0.89 0.5 0.92 9.1477e-41
0.95 0.5 0.93 9.1477e-41
1.01 0.5 0.93 9.1477e-41
1.07 0.5 0.93 9.1477e-41
1.13 0.5 0.93 9.1477e-41
1.18 0.5 0.93 9.1477e-41
1.24 0.5 0.92 9.1477e-41
1.29 0.5 0.92 9.1477e-41
1.35 0.5 0.91 9.1477e-41
1.4 0.5 0.91 9.1477e-41
1.45 0.5 0.91 9.1477e-41
1.5 0.5 0.89 9.1477e-41
1.56 0.5 0.9 9.1477e-41
1.6 0.5 0.88 9.1477e-41
1.64 0.5 0.86 9.1477e-41
1.69 0.5 0.86 9.1477e-41
1.75 0.5 0.87 9.1477e-41
1.8 0.5 0.86 9.1477e-41
1.83 0.5 0.83 9.1477e-41
1.87 0.5 0.79 9.1477e-41
1.9 0.5 0.75 9.1477e-41
1.93 0.5 0.7 9.1477e-41
1.95 0.5 0.62 9.1477e-41
1.97 0.5 0.55 9.1477e-41
0.44 0.55 0.91 9.1477e-41
0.5 0.55 0.9 9.1477e-41
0.57 0.55 0.91 9.1477e-41
0.64 0.55 0.92 9.1477e-41
0.71 0.55 0.93 9.1477e-41
0.77 0.55 0.93 9.1477e-41
0.84 0.55 0.94 9.1477e-41
0.9 0.55 0.93 9.1477e-41
0.95 0.55 0.93 9.1477e-41
1.02 0.55 0.94 9.1477e-41
1.08 0.55 0.94 9.1477e-41
1.13 0.55 0.93 9.1477e-41
1.19 0.55 0.93 9.1477e-41
1.25 0.55 0.93 9.1477e-41
1.3 0.55 0.93 9.1477e-41
1.35 0.55 0.92 9.1477e-41
1.41 0.55 0.92 9.1477e-41
1.46 0.55 0.92 9.1477e-41
1.51 0.55 0.91 9.1477e-41
1.56 0.55 0.9 9.1477e-41
1.61 0.55 0.89 9.1477e-41
1.65 0.55 0.88 9.1477e-41
1.7 0.55 0.88 9.1477e-41
1.75 0.55 0.88 9.1477e-41
1.8 0.55 0.87 9.1477e-41
1.85 0.55 0.85 9.1477e-41
1.88 0.55 0.81 9.1477e-41
1.91 0.55 0.76 9.1477e-41
1.94 0.55 0.71 9.1477e-41
1.97 0.55 0.67 9.1477e-41
1.96 0.55 0.52 9.1477e-41
1.97 0.55 0.42 9.1477e-41
0.45 0.6 0.92 9.1477e-41
0.51 0.6 0.92 9.1477e-41
0.59 0.6 0.94 9.1477e-41
0.66 0.6 0.94 9.1477e-41
0.72 0.6 0.94 9.1477e-41
0.78 0.6 0.94 9.1477e-41
0.84 0.6 0.94 9.1477e-41
0.91 0.6 0.95 9.1477e-41
0.97 0.6 0.95 9.1477e-41
1.02 0.6 0.94 9.1477e-41
1.09 0.6 0.95 9.1477e-41
1.14 0.6 0.94 9.1477e-41
1.2 0.6 0.94 9.1477e-41
1.25 0.6 0.93 9.1477e-41
1.3 0.6 0.94 9.1477e-41
1.36 0.6 0.93 9.1477e-41
1.41 0.6 0.93 9.1477e-41
1.46 0.6 0.93 9.1477e-41
1.51 0.6 0.92 9.1477e-41
1.56 0.6 0.92 9.1477e-41
1.61 0.6 0.9 9.1477e-41
1.66 0.6 0.9 9.1477e-41
1.71 0.6 0.9 9.1477e-41
1.76 0.6 0.89 9.1477e-41
1.81 0.6 0.88 9.1477e-41
1.85 0.6 0.86 9.1477e-41
1.88 0.6 0.82 9.1477e-41
1.91 0.6 0.78 9.1477e-41
1.95 0.6 0.74 9.1477e-41
1.98 0.6 0.69 9.1477e-41
1.97 0.6 0.55 9.1477e-41
0.38 0.65 0.92 9.1477e-41
0.46 0.65 0.94 9.1477e-41
0.52 0.65 0.93 9.1477e-41
0.59 0.65 0.94 9.1477e-41
0.66 0.65 0.95 9.1477e-41
0.72 0.65 0.94 9.1477e-41
0.79 0.65 0.95 9.1477e-41
0.86 0.65 0.96 9.1477e-41
0.91 0.65 0.96 9.1477e-41
0.98 0.65 0.96 9.1477e-41
1.03 0.65 0.96 9.1477e-41
1.09 0.65 0.95 9.1477e-41
1.15 0.65 0.96 9.1477e-41
1.2 0.65 0.95 9.1477e-41
1.25 0.65 0.94 9.1477e-41
1.31 0.65 0.95 9.1477e-41
1.37 0.65 0.95 9.1477e-41
1.42 0.65 0.95 9.1477e-41
1.47 0.65 0.93 9.1477e-41
1.52 0.65 0.93 9.1477e-41
1.57 0.65 0.92 9.1477e-41
1.62 0.65 0.92 9.1477e-41
1.67 0.65 0.91 9.1477e-41
1.71 0.65 0.9 9.1477e-41
1.77 0.65 0.91 9.1477e-41
1.82 0.65 0.9 9.1477e-41
1.86 0.65 0.87 9.1477e-41
1.88 0.65 0.82 9.1477e-41
1.92 0.65 0.8 9.1477e-41
1.96 0.65 0.76 9.1477e-41
1.98 0.65 0.7 9.1477e-41
1.96 0.65 0.53 9.1477e-41
0.39 0.7 0.93 9.1477e-41
0.46 0.7 0.94 9.1477e-41
0.54 0.7 0.96 9.1477e-41
0.61 0.7 0.96 9.1477e-41
0.67 0.7 0.97 9.1477e-41
0.73 0.7 0.96 9.1477e-41
0.8 0.7 0.97 9.1477e-41
0.86 0.7 0.97 9.1477e-41
0.92 0.7 0.97 9.1477e-41
0.98 0.7 0.97 9.1477e-41
1.04 0.7 0.97 9.1477e-41
1.09 0.7 0.96 9.1477e-41
1.15 0.7 0.96 9.1477e-41
1.21 0.7 0.96 9.1477e-41
1.26 0.7 0.96 9.1477e-41
1.32 0.7 0.96 9.1477e-41
1.37 0.7 0.96 9.1477e-41
1.42 0.7 0.95 9.1477e-41
1.48 0.7 0.95 9.1477e-41
1.53 0.7 0.95 9.1477e-41
1.58 0.7 0.94 9.1477e-41
1.63 0.7 0.94 9.1477e-41
1.68 0.7 0.93 9.1477e-41
1.72 0.7 0.91 9.1477e-41
1.77 0.7 0.91 9.1477e-41
1.82 0.7 0.91 9.1477e-41
1.86 0.7 0.88 9.1477e-41
1.89 0.7 0.83 9.1477e-41
1.93 0.7 0.81 9.1477e-41
1.96 0.7 0.77 9.1477e-41
1.99 0.7 0.71 9.1477e-41
1.97 0.7 0.54 9.1477e-41
0.4 0.75 0.95 9.1477e-41
0.47 0.75 0.95 9.1477e-41
0.54 0.75 0.96 9.1477e-41
0.61 0.75 0.96 9.1477e-41
0.68 0.75 0.97 9.1477e-41
0.74 0.75 0.97 9.1477e-41
0.8 0.75 0.97 9.1477e-41
0.87 0.75 0.98 9.1477e-41
0.93 0.75 0.98 9.1477e-41
0.99 0.75 0.99 9.1477e-41
1.04 0.75 0.97 9.1477e-41
1.1 0.75 0.98 9.1477e-41
1.15 0.75 0.97 9.1477e-41
1.22 0.75 0.98 9.1477e-41
1.27 0.75 0.97 9.1477e-41
1.32 0.75 0.97 9.1477e-41
1.37 0.75 0.96 9.1477e-41
1.43 0.75 0.96 9.1477e-41
1.48 0.75 0.96 9.1477e-41
1.53 0.75 0.95 9.1477e-41
1.58 0.75 0.94 9.1477e-41
1.63 0.75 0.94 9.1477e-41
1.68 0.75 0.93 9.1477e-41
1.73 0.75 0.92 9.1477e-41
1.78 0.75 0.93 9.1477e-41
1.83 0.75 0.93 9.1477e-41
1.86 0.75 0.89 9.1477e-41
1.9 0.75 0.85 9.1477e-41
1.93 0.75 0.81 9.1477e-41
1.96 0.75 0.77 9.1477e-41
1.99 0.75 0.72 9.1477e-41
1.96 0.75 0.51 9.1477e-41
0.41 0.8 0.96 9.1477e-41
0.49 0.8 0.97 9.1477e-41
0.56 0.8 0.98 9.1477e-41
0.63 0.8 0.99 9.1477e-41
0.69 0.8 0.98 9.1477e-41
0.75 0.8 0.99 9.1477e-41
0.81 0.8 0.99 9.1477e-41
0.87 0.8 0.99 9.1477e-41
0.93 0.8 0.98 9.1477e-41
0.99 0.8 0.98 9.1477e-41
1.05 0.8 0.98 9.1477e-41
1.11 0.8 0.99 9.1477e-41
1.16 0.8 0.99 9.1477e-41
1.22 0.8 0.99 9.1477e-41
1.27 0.8 0.98 9.1477e-41
1.33 0.8 0.98 9.1477e-41
1.38 0.8 0.97 9.1477e-41
1.44 0.8 0.98 9.1477e-41
1.49 0.8 0.98 9.1477e-41
1.54 0.8 0.96 9.1477e-41
1.59 0.8 0.96 9.1477e-41
1.64 0.8 0.96 9.1477e-41
1.69 0.8 0.95 9.1477e-41
1.73 0.8 0.94 9.1477e-41
1.79 0.8 0.95 9.1477e-41
1.83 0.8 0.94 9.1477e-41
1.87 0.8 0.91 9.1477e-41
1.91 0.8 0.87 9.1477e-41
1.93 0.8 0.81 9.1477e-41
1.96 0.8 0.77 9.1477e-41
1.99 0.8 0.71 9.1477e-41
1.97 0.8 0.54 9.1477e-41
0.43 0.85 0.99 9.1477e-41
0.5 0.85 0.99 9.1477e-41
0.57 0.85 0.99 9.1477e-41
0.63 0.85 0.99 9.1477e-41
0.69 0.85 0.98 9.1477e-41
0.73 0.85 0.96 9.1477e-41
0.78 0.85 0.94 9.1477e-41
0.86 0.85 0.97 9.1477e-41
0.91 0.85 0.95 9.1477e-41
0.97 0.85 0.95 3.57e-43
1.05 0.85 0.95 3.57e-43
1.11 0.85 0.99 9.1477e-41
1.13 0.85 0.99 3.57e-43
1.22 0.85 0.99 9.1477e-41
1.25 0.85 0.94 9.1477e-41
1.31 0.85 0.95 9.1477e-41
1.38 0.85 0.97 9.1477e-41
1.44 0.85 0.98 9.1477e-41
1.5 0.85 0.99 9.1477e-41
1.54 0.85 0.97 9.1477e-41
1.59 0.85 0.97 9.1477e-41
1.65 0.85 0.97 9.1477e-41
1.69 0.85 0.96 9.1477e-41
1.75 0.85 0.97 9.1477e-41
1.79 0.85 0.95 9.1477e-41
1.84 0.85 0.95 9.1477e-41
1.88 0.85 0.92 9.1477e-41
1.9 0.85 0.86 9.1477e-41
1.93 0.85 0.81 9.1477e-41
1.96 0.85 0.76 9.1477e-41
1.99 0.85 0.7 9.1477e-41
1.97 0.85 0.55 9.1477e-41
0.44 0.9 1 9.1477e-41
0.51 0.9 1 9.1477e-41
0.55 0.9 0.97 9.1477e-41
0.6 0.9 0.97 3.57e-43
0.69 0.9 0.97 3.57e-43
0.73 0.9 0.97 3.57e-43
0.78 0.9 0.97 3.57e-43
0.86 0.9 0.97 3.57e-43
0.91 0.9 0.97 3.57e-43
0.97 0.9 0.97 3.57e-43
1.05 0.9 0.97 3.57e-43
1.11 0.9 0.97 3.57e-43
1.13 0.9 0.97 3.57e-43
1.22 0.9 0.97 3.57e-43
1.25 0.9 0.97 3.57e-43
1.31 0.9 0.97 3.57e-43
1.38 0.9 0.97 3.57e-43
1.44 0.9 0.98 9.1477e-41
1.47 0.9 0.94 9.1477e-41
1.53 0.9 0.96 9.1477e-41
1.6 0.9 0.98 9.1477e-41
1.65 0.9 0.98 9.1477e-41
1.7 0.9 0.97 9.1477e-41
1.75 0.9 0.97 9.1477e-41
1.8 0.9 0.97 9.1477e-41
1.84 0.9 0.95 9.1477e-41
1.88 0.9 0.93 9.1477e-41
1.91 0.9 0.88 9.1477e-41
1.93 0.9 0.81 9.1477e-41
1.96 0.9 0.77 9.1477e-41
1.98 0.9 0.7 9.1477e-41
1.95 0.9 0.5 9.1477e-41
0.43 0.95 1 3.57e-43
0.59 0.95 1 3.57e-43
0.6 0.95 1 3.57e-43
0.69 0.95 1 3.57e-43
0.73 0.95 1 3.57e-43
0.78 0.95 1 3.57e-43
0.86 0.95 1 3.57e-43
0.91 0.95 1 3.57e-43
0.97 0.95 1 3.57e-43
1.05 0.95 1 3.57e-43
1.11 0.95 1 3.57e-43
1.13 0.95 1 3.57e-43
1.22 0.95 1 3.57e-43
1.25 0.95 1 3.57e-43
1.31 0.95 1 3.57e-43
1.38 0.95 1 3.57e-43
1.44 0.95 1 3.57e-43
1.47 0.95 1 3.57e-43
1.53 0.95 1 3.57e-43
1.6 0.95 1 3.57e-43
1.65 0.95 0.98 9.1477e-41
1.71 0.95 0.99 9.1477e-41
1.76 0.95 0.99 9.1477e-41
1.8 0.95 0.97 9.1477e-41
1.85 0.95 0.97 9.1477e-41
1.88 0.95 0.94 9.1477e-41
1.91 0.95 0.88 9.1477e-41
1.94 0.95 0.82 9.1477e-41
1.96 0.95 0.77 9.1477e-41
1.99 0.95 0.7 9.1477e-41
1.97 0.95 0.55 9.1477e-41
1.97 0.95 0.42 9.1477e-41
1.76 1 0.99 3.57e-43
1.82 1 1 9.1477e-41
1.86 1 0.98 9.1477e-41
1.89 1 0.94 9.1477e-41
1.91 1 0.89 9.1477e-41
1.94 1 0.82 9.1477e-41
1.96 1 0.77 9.1477e-41
1.98 1 0.7 9.1477e-41
1.97 1 0.55 9.1477e-41
0.42 1.05 1.05 9.1477e-41
0.46 1.05 1.05 3.57e-43
0.51 1.05 1.05 3.57e-43
0.59 1.05 1.05 3.57e-43
0.6 1.05 1.05 3.57e-43
0.69 1.05 1.05 3.57e-43
0.73 1.05 1.05 3.57e-43
0.78 1.05 1.05 3.57e-43
0.86 1.05 1.05 3.57e-43
0.91 1.05 1.05 3.57e-43
0.97 1.05 1.05 3.57e-43
1.05 1.05 1.05 3.57e-43
1.11 1.05 1.05 3.57e-43
1.13 1.05 1.05 3.57e-43
1.22 1.05 1.05 3.57e-43
1.25 1.05 1.05 3.57e-43
1.31 1.05 1.05 3.57e-43
1.38 1.05 1.05 3.57e-43
1.44 1.05 1.05 3.57e-43
1.47 1.05 1.05 3.57e-43
1.53 1.05 1.05 3.57e-43
1.6 1.05 1.05 3.57e-43
1.65 1.05 1.05 3.57e-43
1.71 1.05 1.05 3.57e-43
1.76 1.05 0.99 9.1477e-41
1.83 1.05 1.03 9.1477e-41
1.86 1.05 1 9.1477e-41
1.89 1.05 0.95 9.1477e-41
1.91 1.05 0.89 9.1477e-41
1.94 1.05 0.82 9.1477e-41
1.96 1.05 0.76 9.1477e-41
1.97 1.05 0.68 9.1477e-41
1.98 1.05 0.57 9.1477e-41
0.44 1.1 1.08 9.1477e-41
0.46 1.1 1.08 3.57e-43
0.51 1.1 1.08 3.57e-43
0.59 1.1 1.08 3.57e-43
0.6 1.1 1.08 3.57e-43
0.69 1.1 1.08 3.57e-43
0.73 1.1 1.08 3.57e-43
0.78 1.1 1.08 3.57e-43
0.86 1.1 1.08 3.57e-43
0.91 1.1 1.08 3.57e-43
0.97 1.1 1.08 3.57e-43
1.05 1.1 1.08 3.57e-43
1.11 1.1 1.08 3.57e-43
1.13 1.1 1.08 3.57e-43
1.22 1.1 1.08 3.57e-43
1.25 1.1 1.08 3.57e-43
1.31 1.1 1.08 3.57e-43
1.38 1.1 1.08 3.57e-43
1.44 1.1 1.08 3.57e-43
1.47 1.1 1.08 3.57e-43
1.53 1.1 1.08 3.57e-43
1.6 1.1 1.08 3.57e-43
1.65 1.1 1.08 3.57e-43
1.71 1.1 0.99 9.1477e-41
1.78 1.1 1.03 9.1477e-41
1.83 1.1 1.04 9.1477e-41
1.87 1.1 1.01 9.1477e-41
1.9 1.1 0.96 9.1477e-41
1.92 1.1 0.9 9.1477e-41
1.94 1.1 0.83 9.1477e-41
1.96 1.1 0.76 9.1477e-41
1.97 1.1 0.68 9.1477e-41
1.98 1.1 0.57 9.1477e-41
0.46 1.15 1.1 9.1477e-41
0.47 1.15 1.1 3.57e-43
0.51 1.15 1.1 3.57e-43
0.59 1.15 1.1 3.57e-43
0.6 1.15 1.1 3.57e-43
0.69 1.15 1.1 3.57e-43
0.73 1.15 1.1 3.57e-43
0.78 1.15 1.1 3.57e-43
0.86 1.15 1.1 3.57e-43
0.91 1.15 1.1 3.57e-43
0.97 1.15 1.1 3.57e-43
1.05 1.15 1.1 3.57e-43
1.11 1.15 1.1 3.57e-43
1.13 1.15 1.1 3.57e-43
1.22 1.15 1.1 3.57e-43
1.25 1.15 1.1 3.57e-43
1.31 1.15 1.1 3.57e-43
1.38 1.15 1.1 3.57e-43
1.44 1.15 1.1 3.57e-43
1.47 1.15 1.1 3.57e-43
1.53 1.15 1.1 3.57e-43
1.6 1.15 1.1 3.57e-43
1.65 1.15 1.1 3.57e-43
1.71 1.15 0.99 9.1477e-41
1.81 1.15 1.09 9.1477e-41
1.85 1.15 1.06 9.1477e-41
1.87 1.15 1.02 9.1477e-41
1.9 1.15 0.96 9.1477e-41
1.92 1.15 0.9 9.1477e-41
1.94 1.15 0.83 9.1477e-41
1.97 1.15 0.79 9.1477e-41
1.98 1.15 0.7 9.1477e-41
1.98 1.15 0.57 9.1477e-41
0.28 1.2 1.05 9.1477e-41
0.44 1.2 1.17 9.1477e-41
0.47 1.2 1.17 3.57e-43
0.47 1.2 1.17 3.57e-43
0.51 1.2 1.17 3.57e-43
0.59 1.2 1.17 3.57e-43
0.6 1.2 1.17 3.57e-43
0.69 1.2 1.17 3.57e-43
0.73 1.2 1.17 3.57e-43
0.78 1.2 1.17 3.57e-43
0.86 1.2 1.17 3.57e-43
0.91 1.2 1.17 3.57e-43
0.97 1.2 1.17 3.57e-43
1.05 1.2 1.17 3.57e-43
1.11 1.2 1.17 3.57e-43
1.13 1.2 1.17 3.57e-43
1.22 1.2 1.17 3.57e-43
1.25 1.2 1.17 3.57e-43
1.31 1.2 1.17 3.57e-43
1.38 1.2 1.17 3.57e-43
1.44 1.2 1.17 3.57e-43
1.47 1.2 1.17 3.57e-43
1.53 1.2 1.17 3.57e-43
1.6 1.2 1.17 3.57e-43
1.65 1.2 1.17 3.57e-43
1.71 1.2 0.99 9.1477e-41
1.82 1.2 1.11 9.1477e-41
1.85 1.2 1.08 9.1477e-41
1.88 1.2 1.04 9.1477e-41
1.89 1.2 0.94 9.1477e-41
1.92 1.2 0.9 9.1477e-41
1.94 1.2 0.83 9.1477e-41
1.97 1.2 0.78 9.1477e-41
1.98 1.2 0.7 9.1477e-41
1.98 1.2 0.57 9.1477e-41
0.15 1.25 1.06 9.1477e-41
0.26 1.25 1.1 9.1477e-41
0.32 1.25 1.09 9.1477e-41
0.47 1.25 1.2 9.1477e-41
0.5 1.25 1.2 3.57e-43
0.47 1.25 1.2 3.57e-43
0.51 1.25 1.2 3.57e-43
0.59 1.25 1.2 3.57e-43
0.6 1.25 1.2 3.57e-43
0.69 1.25 1.2 3.57e-43
0.73 1.25 1.2 3.57e-43
0.78 1.25 1.2 3.57e-43
0.86 1.25 1.2 3.57e-43
0.91 1.25 1.2 3.57e-43
0.97 1.25 1.2 3.57e-43
1.05 1.25 1.2 3.57e-43
1.11 1.25 1.2 3.57e-43
1.13 1.25 1.2 3.57e-43
1.22 1.25 1.2 3.57e-43
1.25 1.25 1.2 3.57e-43
1.31 1.25 1.2 3.57e-43
1.38 1.25 1.2 3.57e-43
1.44 1.25 1.2 3.57e-43
1.47 1.25 1.2 3.57e-43
1.53 1.25 1.2 3.57e-43
1.6 1.25 1.2 3.57e-43
1.65 1.25 0.98 9.1477e-41
1.79 1.25 1.16 9.1477e-41
1.83 1.25 1.14 9.1477e-41
1.86 1.25 1.14 3.57e-43
1.88 1.25 1.04 9.1477e-41
1.91 1.25 0.99 9.1477e-41
1.97 1.25 1.01 9.1477e-41
1.97 1.25 0.91 9.1477e-41
1.97 1.25 0.78 9.1477e-41
1.98 1.25 0.7 9.1477e-41
1.98 1.25 0.57 9.1477e-41
0.18 1.3 1.09 9.1477e-41
0.22 1.3 1.06 9.1477e-41
0.4 1.3 1.19 9.1477e-41
0.48 1.3 1.21 9.1477e-41
0.5 1.3 1.21 3.57e-43
0.47 1.3 1.21 3.57e-43
0.51 1.3 1.21 3.57e-43
0.59 1.3 1.21 3.57e-43
0.6 1.3 1.21 3.57e-43
0.69 1.3 1.21 3.57e-43
0.73 1.3 1.21 3.57e-43
0.78 1.3 1.21 3.57e-43
0.86 1.3 1.21 3.57e-43
0.91 1.3 1.21 3.57e-43
0.97 1.3 1.21 3.57e-43
1.05 1.3 1.21 3.57e-43
1.11 1.3 1.21 3.57e-43
1.13 1.3 1.21 3.57e-43
1.22 1.3 1.21 3.57e-43
1.25 1.3 1.21 3.57e-43
1.31 1.3 1.21 3.57e-43
1.38 1.3 1.21 3.57e-43
1.44 1.3 1.21 3.57e-43
1.47 1.3 1.21 3.57e-43
1.53 1.3 1.21 3.57e-43
1.6 1.3 0.98 9.1477e-41
1.77 1.3 1.2 9.1477e-41
1.81 1.3 1.18 9.1477e-41
1.84 1.3 1.18 3.57e-43
1.86 1.3 1.09 9.1477e-41
1.85 1.3 0.97 9.1477e-41
1.94 1.3 1.05 9.1477e-41
1.99 1.3 1.06 9.1477e-41
2.04 1.3 1.06 9.1477e-41
2.08 1.3 1.03 9.1477e-41
2.09 1.3 0.95 9.1477e-41
1.97 1.3 0.56 9.1477e-41
0.42 1.35 1.22 9.1477e-41
0.51 1.35 1.22 3.57e-43
0.5 1.35 1.22 3.57e-43
0.47 1.35 1.22 3.57e-43
0.51 1.35 1.22 3.57e-43
0.59 1.35 1.22 3.57e-43
0.6 1.35 1.22 3.57e-43
0.69 1.35 1.22 3.57e-43
0.73 1.35 1.22 3.57e-43
0.78 1.35 1.22 3.57e-43
0.86 1.35 1.22 3.57e-43
0.91 1.35 1.22 3.57e-43
0.97 1.35 1.22 3.57e-43
1.05 1.35 1.22 3.57e-43
1.11 1.35 1.22 3.57e-43
1.13 1.35 1.22 3.57e-43
1.22 1.35 1.22 3.57e-43
1.25 1.35 1.22 3.57e-43
1.31 1.35 1.22 3.57e-43
1.38 1.35 1.22 3.57e-43
1.44 1.35 1.22 3.57e-43
1.47 1.35 1.22 3.57e-43
1.53 1.35 1.22 3.57e-43
1.6 1.35 0.98 9.1477e-41
1.78 1.35 1.23 9.1477e-41
1.81 1.35 1.19 9.1477e-41
1.82 1.35 1.11 9.1477e-41
1.79 1.35 0.95 9.1477e-41
1.85 1.35 0.96 9.1477e-41
1.89 1.35 0.95 9.1477e-41
1.99 1.35 1.05 9.1477e-41
2.05 1.35 1.07 9.1477e-41
2.09 1.35 1.05 9.1477e-41
2.13 1.35 1.05 3.57e-43
1.97 1.35 0.56 9.1477e-41
0.46 1.4 1.27 9.1477e-41
0.52 1.4 1.27 3.57e-43
0.5 1.4 1.27 3.57e-43
0.47 1.4 1.27 3.57e-43
0.51 1.4 1.27 3.57e-43
0.59 1.4 1.27 3.57e-43
0.6 1.4 1.27 3.57e-43
0.69 1.4 1.27 3.57e-43
0.73 1.4 1.27 3.57e-43
0.78 1.4 1.27 3.57e-43
0.86 1.4 1.27 3.57e-43
0.91 1.4 1.27 3.57e-43
0.97 1.4 1.27 3.57e-43
1.05 1.4 1.27 3.57e-43
1.11 1.4 1.27 3.57e-43
1.13 1.4 1.27 3.57e-43
1.22 1.4 1.27 3.57e-43
1.25 1.4 1.27 3.57e-43
1.31 1.4 1.27 3.57e-43
1.38 1.4 1.27 3.57e-43
1.44 1.4 1.27 3.57e-43
1.47 1.4 1.27 3.57e-43
1.53 1.4 0.96 9.1477e-41
1.75 1.4 1.27 9.1477e-41
1.79 1.4 1.24 9.1477e-41
1.82 1.4 1.21 9.1477e-41
1.48 1.4 0.43 9.1477e-41
1.66 1.4 0.68 9.1477e-41
1.84 1.4 0.95 9.1477e-41
1.89 1.4 0.95 9.1477e-41
1.93 1.4 0.93 9.1477e-41
1.95 1.4 0.86 9.1477e-41
2.04 1.4 0.95 9.1477e-41
2.1 1.4 0.98 9.1477e-41
1.99 1.4 0.59 9.1477e-41
0.5 1.45 1.32 9.1477e-41
0.53 1.45 1.32 3.57e-43
0.5 1.45 1.32 3.57e-43
0.47 1.45 1.32 3.57e-43
0.51 1.45 1.32 3.57e-43
0.59 1.45 1.32 3.57e-43
0.6 1.45 1.32 3.57e-43
0.69 1.45 1.32 3.57e-43
0.73 1.45 1.32 3.57e-43
0.78 1.45 1.32 3.57e-43
0.86 1.45 1.32 3.57e-43
0.91 1.45 1.32 3.57e-43
0.97 1.45 1.32 3.57e-43
1.05 1.45 1.32 3.57e-43
1.11 1.45 1.32 3.57e-43
1.13 1.45 1.32 3.57e-43
1.22 1.45 1.32 3.57e-43
1.25 1.45 1.32 3.57e-43
1.31 1.45 1.32 3.57e-43
1.38 1.45 1.32 3.57e-43
1.44 1.45 1.32 3.57e-43
1.47 1.45 1.32 3.57e-43
1.53 1.45 0.96 9.1477e-41
1.76 1.45 1.29 9.1477e-41
1.8 1.45 1.29 3.57e-43
1.82 1.45 1.21 9.1477e-41
1.6 1.45 0.67 9.1477e-41
1.65 1.45 0.67 9.1477e-41
1.83 1.45 0.94 9.1477e-41
1.9 1.45 0.96 9.1477e-41
1.93 1.45 0.93 9.1477e-41
1.95 1.45 0.86 9.1477e-41
1.97 1.45 0.8 9.1477e-41
1.99 1.45 0.7 9.1477e-41
1.98 1.45 0.58 9.1477e-41
0.53 1.5 1.35 9.1477e-41
0.57 1.5 1.35 3.57e-43
0.5 1.5 1.35 3.57e-43
0.47 1.5 1.35 3.57e-43
0.51 1.5 1.35 3.57e-43
0.59 1.5 1.35 3.57e-43
0.6 1.5 1.35 3.57e-43
0.69 1.5 1.35 3.57e-43
0.73 1.5 1.35 3.57e-43
0.78 1.5 1.35 3.57e-43
0.86 1.5 1.35 3.57e-43
0.91 1.5 1.35 3.57e-43
0.97 1.5 1.35 3.57e-43
1.05 1.5 1.35 3.57e-43
1.11 1.5 1.35 3.57e-43
1.13 1.5 1.35 3.57e-43
1.22 1.5 1.35 3.57e-43
1.25 1.5 1.35 3.57e-43
1.31 1.5 1.35 3.57e-43
1.38 1.5 1.35 3.57e-43
1.44 1.5 1.35 3.57e-43
1.47 1.5 0.94 9.1477e-41
1.73 1.5 1.32 9.1477e-41
1.77 1.5 1.3 9.1477e-41
1.78 1.5 1.23 9.1477e-41
1.54 1.5 0.66 9.1477e-41
1.62 1.5 0.72 9.1477e-41
1.66 1.5 0.69 9.1477e-41
1.8 1.5 0.86 9.1477e-41
1.89 1.5 0.95 9.1477e-41
1.93 1.5 0.93 9.1477e-41
1.95 1.5 0.86 9.1477e-41
1.97 1.5 0.8 9.1477e-41
1.99 1.5 0.7 9.1477e-41
1.98 1.5 0.58 9.1477e-41
0.53 1.55 1.35 9.1477e-41
0.61 1.55 1.38 9.1477e-41
0.7 1.55 1.41 9.1477e-41
0.76 1.55 1.4 9.1477e-41
0.82 1.55 1.41 9.1477e-41
0.88 1.55 1.41 9.1477e-41
0.94 1.55 1.41 9.1477e-41
1 1.55 1.41 9.1477e-41
1.05 1.55 1.41 9.1477e-41
1.1 1.55 1.4 9.1477e-41
1.16 1.55 1.41 9.1477e-41
1.22 1.55 1.41 9.1477e-41
1.27 1.55 1.41 9.1477e-41
1.32 1.55 1.4 9.1477e-41
1.37 1.55 1.39 9.1477e-41
1.4 1.55 1.39 3.57e-43
1.22 1.55 1.39 3.57e-43
1.25 1.55 1.39 3.57e-43
1.31 1.55 1.39 3.57e-43
1.38 1.55 0.97 9.1477e-41
1.37 1.55 0.86 9.1477e-41
1.68 1.55 1.31 9.1477e-41
1.74 1.55 1.34 9.1477e-41
1.77 1.55 1.3 9.1477e-41
1.42 1.55 0.54 9.1477e-41
1.56 1.55 0.69 9.1477e-41
1.61 1.55 0.7 9.1477e-41
1.66 1.55 0.68 9.1477e-41
1.77 1.55 0.81 9.1477e-41
1.9 1.55 0.96 9.1477e-41
1.93 1.55 0.93 9.1477e-41
1.96 1.55 0.87 9.1477e-41
1.97 1.55 0.8 9.1477e-41
1.99 1.55 0.71 9.1477e-41
1.97 1.55 0.56 9.1477e-41
0.58 1.6 1.41 9.1477e-41
0.65 1.6 1.42 9.1477e-41
0.71 1.6 1.42 9.1477e-41
0.78 1.6 1.43 9.1477e-41
0.84 1.6 1.43 9.1477e-41
0.89 1.6 1.43 9.1477e-41
0.95 1.6 1.42 9.1477e-41
1.01 1.6 1.43 9.1477e-41
1.07 1.6 1.43 9.1477e-41
1.12 1.6 1.42 9.1477e-41
1.17 1.6 1.42 9.1477e-41
1.23 1.6 1.42 9.1477e-41
1.28 1.6 1.42 9.1477e-41
1.33 1.6 1.42 9.1477e-41
1.38 1.6 1.42 9.1477e-41
1.43 1.6 1.41 9.1477e-41
1.48 1.6 1.4 9.1477e-41
1.52 1.6 1.4 9.1477e-41
1.57 1.6 1.39 9.1477e-41
1.62 1.6 1.38 9.1477e-41
1.67 1.6 1.38 9.1477e-41
1.71 1.6 1.37 9.1477e-41
1.75 1.6 1.35 9.1477e-41
1.37 1.6 0.55 9.1477e-41
1.43 1.6 0.56 9.1477e-41
1.55 1.6 0.69 9.1477e-41
1.61 1.6 0.69 9.1477e-41
1.66 1.6 0.68 9.1477e-41
1.76 1.6 0.78 9.1477e-41
1.9 1.6 0.96 9.1477e-41
1.93 1.6 0.93 9.1477e-41
1.96 1.6 0.88 9.1477e-41
1.98 1.6 0.81 9.1477e-41
1.99 1.6 0.7 9.1477e-41
1.98 1.6 0.58 9.1477e-41
0.59 1.65 1.42 9.1477e-41
0.66 1.65 1.43 9.1477e-41
0.72 1.65 1.43 9.1477e-41
0.78 1.65 1.44 9.1477e-41
0.85 1.65 1.45 9.1477e-41
0.91 1.65 1.44 9.1477e-41
0.96 1.65 1.44 9.1477e-41
1.02 1.65 1.44 9.1477e-41
1.08 1.65 1.44 9.1477e-41
1.14 1.65 1.45 9.1477e-41
1.19 1.65 1.45 9.1477e-41
1.24 1.65 1.44 9.1477e-41
1.29 1.65 1.44 9.1477e-41
1.34 1.65 1.43 9.1477e-41
1.38 1.65 1.42 9.1477e-41
1.43 1.65 1.42 9.1477e-41
1.49 1.65 1.42 9.1477e-41
1.54 1.65 1.41 9.1477e-41
1.58 1.65 1.41 9.1477e-41
1.63 1.65 1.41 9.1477e-41
1.68 1.65 1.4 9.1477e-41
1.72 1.65 1.4 9.1477e-41
1.75 1.65 1.36 9.1477e-41
1.39 1.65 0.58 9.1477e-41
1.45 1.65 0.6 9.1477e-41
1.54 1.65 0.66 9.1477e-41
1.6 1.65 0.67 9.1477e-41
1.64 1.65 0.65 9.1477e-41
1.77 1.65 0.81 9.1477e-41
1.9 1.65 0.97 9.1477e-41
1.93 1.65 0.93 9.1477e-41
1.96 1.65 0.88 9.1477e-41
1.97 1.65 0.8 9.1477e-41
1.99 1.65 0.71 9.1477e-41
1.97 1.65 0.56 9.1477e-41
0.6 1.7 1.43 9.1477e-41
0.67 1.7 1.44 9.1477e-41
0.73 1.7 1.44 9.1477e-41
0.79 1.7 1.44 9.1477e-41
0.85 1.7 1.45 9.1477e-41
0.91 1.7 1.45 9.1477e-41
0.97 1.7 1.45 9.1477e-41
1.03 1.7 1.45 9.1477e-41
1.09 1.7 1.46 9.1477e-41
1.14 1.7 1.45 9.1477e-41
1.2 1.7 1.46 9.1477e-41
1.24 1.7 1.45 9.1477e-41
1.3 1.7 1.45 9.1477e-41
1.34 1.7 1.44 9.1477e-41
1.4 1.7 1.44 9.1477e-41
1.45 1.7 1.43 9.1477e-41
1.49 1.7 1.43 9.1477e-41
1.54 1.7 1.42 9.1477e-41
1.59 1.7 1.42 9.1477e-41
1.63 1.7 1.41 9.1477e-41
1.68 1.7 1.4 9.1477e-41
1.72 1.7 1.39 9.1477e-41
1.75 1.7 1.35 9.1477e-41
1.42 1.7 0.64 9.1477e-41
1.47 1.7 0.64 9.1477e-41
1.53 1.7 0.64 9.1477e-41
1.6 1.7 0.66 9.1477e-41
1.64 1.7 0.64 9.1477e-41
1.77 1.7 0.81 9.1477e-41
1.9 1.7 0.97 9.1477e-41
1.93 1.7 0.93 9.1477e-41
1.96 1.7 0.89 9.1477e-41
1.98 1.7 0.81 9.1477e-41
1.99 1.7 0.71 9.1477e-41
1.98 1.7 0.58 9.1477e-41
0.6 1.75 1.44 9.1477e-41
0.68 1.75 1.46 9.1477e-41
0.73 1.75 1.45 9.1477e-41
0.81 1.75 1.47 9.1477e-41
0.86 1.75 1.46 9.1477e-41
0.92 1.75 1.47 9.1477e-41
0.98 1.75 1.46 9.1477e-41
1.03 1.75 1.46 9.1477e-41
1.1 1.75 1.47 9.1477e-41
1.14 1.75 1.46 9.1477e-41
1.2 1.75 1.46 9.1477e-41
1.25 1.75 1.46 9.1477e-41
1.31 1.75 1.46 9.1477e-41
1.36 1.75 1.46 9.1477e-41
1.4 1.75 1.45 9.1477e-41
1.45 1.75 1.44 9.1477e-41
1.5 1.75 1.45 9.1477e-41
1.55 1.75 1.44 9.1477e-41
1.6 1.75 1.44 9.1477e-41
1.65 1.75 1.43 9.1477e-41
1.69 1.75 1.43 9.1477e-41
1.72 1.75 1.39 9.1477e-41
1.37 1.75 0.65 9.1477e-41
1.44 1.75 0.69 9.1477e-41
1.49 1.75 0.67 9.1477e-41
1.54 1.75 0.66 9.1477e-41
1.59 1.75 0.65 9.1477e-41
1.63 1.75 0.62 9.1477e-41
1.83 1.75 0.92 9.1477e-41
1.9 1.75 0.97 9.1477e-41
1.93 1.75 0.93 9.1477e-41
1.96 1.75 0.88 9.1477e-41
1.97 1.75 0.8 9.1477e-41
1.99 1.75 0.71 9.1477e-41
1.97 1.75 0.56 9.1477e-41
0.55 1.8 1.45 9.1477e-41
0.62 1.8 1.45 9.1477e-41
0.68 1.8 1.46 9.1477e-41
0.75 1.8 1.47 9.1477e-41
0.81 1.8 1.47 9.1477e-41
0.87 1.8 1.47 9.1477e-41
0.94 1.8 1.48 9.1477e-41
1 1.8 1.49 9.1477e-41
1.04 1.8 1.48 9.1477e-41
1.09 1.8 1.47 9.1477e-41
1.15 1.8 1.47 9.1477e-41
1.21 1.8 1.47 9.1477e-41
1.26 1.8 1.47 9.1477e-41
1.31 1.8 1.46 9.1477e-41
1.36 1.8 1.46 9.1477e-41
1.41 1.8 1.47 9.1477e-41
1.46 1.8 1.45 9.1477e-41
1.5 1.8 1.45 9.1477e-41
1.56 1.8 1.45 9.1477e-41
1.6 1.8 1.44 9.1477e-41
1.65 1.8 1.43 9.1477e-41
1.7 1.8 1.44 9.1477e-41
1.71 1.8 1.38 9.1477e-41
1.4 1.8 0.72 9.1477e-41
1.52 1.8 0.83 9.1477e-41
1.57 1.8 0.83 9.1477e-41
1.63 1.8 0.85 9.1477e-41
1.67 1.8 0.81 9.1477e-41
1.68 1.8 0.71 9.1477e-41
1.84 1.8 0.95 9.1477e-41
1.9 1.8 0.97 9.1477e-41
1.93 1.8 0.93 9.1477e-41
1.96 1.8 0.87 9.1477e-41
1.98 1.8 0.81 9.1477e-41
1.99 1.8 0.72 9.1477e-41
1.97 1.8 0.55 9.1477e-41
0.56 1.85 1.46 9.1477e-41
0.63 1.85 1.47 9.1477e-41
0.69 1.85 1.47 9.1477e-41
0.76 1.85 1.48 9.1477e-41
0.82 1.85 1.48 9.1477e-41
0.87 1.85 1.48 9.1477e-41
0.94 1.85 1.48 9.1477e-41
0.99 1.85 1.48 9.1477e-41
1.05 1.85 1.48 9.1477e-41
1.1 1.85 1.48 9.1477e-41
1.16 1.85 1.48 9.1477e-41
1.21 1.85 1.48 9.1477e-41
1.27 1.85 1.48 9.1477e-41
1.31 1.85 1.47 9.1477e-41
1.37 1.85 1.47 9.1477e-41
1.41 1.85 1.47 9.1477e-41
1.46 1.85 1.46 9.1477e-41
1.51 1.85 1.46 9.1477e-41
1.56 1.85 1.45 9.1477e-41
1.61 1.85 1.45 9.1477e-41
1.65 1.85 1.44 9.1477e-41
1.7 1.85 1.45 9.1477e-41
1.72 1.85 1.4 9.1477e-41
1.6 1.85 1.08 9.1477e-41
1.58 1.85 0.94 9.1477e-41
1.6 1.85 0.89 9.1477e-41
1.64 1.85 0.86 9.1477e-41
1.68 1.85 0.83 9.1477e-41
1.7 1.85 0.76 9.1477e-41
1.85 1.85 0.97 9.1477e-41
1.91 1.85 0.99 9.1477e-41
1.94 1.85 0.94 9.1477e-41
1.96 1.85 0.87 9.1477e-41
2 1.85 0.85 9.1477e-41
1.99 1.85 0.7 9.1477e-41
1.97 1.85 0.55 9.1477e-41
0.56 1.9 1.46 9.1477e-41
0.63 1.9 1.48 9.1477e-41
0.7 1.9 1.48 9.1477e-41
0.76 1.9 1.49 9.1477e-41
0.82 1.9 1.48 9.1477e-41
0.88 1.9 1.49 9.1477e-41
0.94 1.9 1.48 9.1477e-41
1 1.9 1.49 9.1477e-41
1.05 1.9 1.48 9.1477e-41
1.11 1.9 1.49 9.1477e-41
1.16 1.9 1.49 9.1477e-41
1.21 1.9 1.48 9.1477e-41
1.27 1.9 1.48 9.1477e-41
1.32 1.9 1.48 9.1477e-41
1.37 1.9 1.47 9.1477e-41
1.41 1.9 1.47 9.1477e-41
1.47 1.9 1.47 9.1477e-41
1.51 1.9 1.46 9.1477e-41
1.56 1.9 1.46 9.1477e-41
1.61 1.9 1.45 9.1477e-41
1.65 1.9 1.44 9.1477e-41
1.69 1.9 1.43 9.1477e-41
1.72 1.9 1.4 9.1477e-41
1.58 1.9 1.04 9.1477e-41
1.57 1.9 0.92 9.1477e-41
1.61 1.9 0.9 9.1477e-41
1.65 1.9 0.88 9.1477e-41
1.69 1.9 0.84 9.1477e-41
1.7 1.9 0.77 9.1477e-41
1.86 1.9 0.99 9.1477e-41
1.91 1.9 0.98 9.1477e-41
1.93 1.9 0.93 9.1477e-41
1.96 1.9 0.88 9.1477e-41
1.99 1.9 0.84 9.1477e-41
1.99 1.9 0.71 9.1477e-41
1.97 1.9 0.54 9.1477e-41
0.57 1.95 1.47 9.1477e-41
0.63 1.95 1.47 9.1477e-41
0.7 1.95 1.49 9.1477e-41
0.76 1.95 1.48 9.1477e-41
0.83 1.95 1.49 9.1477e-41
0.88 1.95 1.49 9.1477e-41
0.95 1.95 1.5 9.1477e-41
1 1.95 1.49 9.1477e-41
1.06 1.95 1.49 9.1477e-41
1.12 1.95 1.5 9.1477e-41
1.16 1.95 1.49 9.1477e-41
1.22 1.95 1.49 9.1477e-41
1.27 1.95 1.49 9.1477e-41
1.32 1.95 1.48 9.1477e-41
1.37 1.95 1.48 9.1477e-41
1.42 1.95 1.47 9.1477e-41
1.47 1.95 1.48 9.1477e-41
1.52 1.95 1.47 9.1477e-41
1.57 1.95 1.47 9.1477e-41
1.61 1.95 1.46 9.1477e-41
1.66 1.95 1.46 9.1477e-41
1.7 1.95 1.44 9.1477e-41
1.72 1.95 1.4 9.1477e-41
1.56 1.95 1 9.1477e-41
1.58 1.95 0.94 9.1477e-41
1.62 1.95 0.92 9.1477e-41
1.67 1.95 0.91 9.1477e-41
1.69 1.95 0.84 9.1477e-41
1.72 1.95 0.81 9.1477e-41
1.87 1.95 1.02 9.1477e-41
1.91 1.95 0.99 9.1477e-41
1.93 1.95 0.93 9.1477e-41
1.96 1.95 0.89 9.1477e-41
2 1.95 0.85 9.1477e-41
1.99 1.95 0.71 9.1477e-41
1.97 1.95 0.56 9.1477e-41
0.57 2 1.48 9.1477e-41
0.64 2 1.49 9.1477e-41
0.7 2 1.49 9.1477e-41
0.77 2 1.5 9.1477e-41
0.83 2 1.5 9.1477e-41
0.89 2 1.49 9.1477e-41
0.95 2 1.51 9.1477e-41
1.01 2 1.5 9.1477e-41
1.06 2 1.5 9.1477e-41
1.11 2 1.49 9.1477e-41
1.16 2 1.49 9.1477e-41
1.22 2 1.5 9.1477e-41
1.28 2 1.5 9.1477e-41
1.32 2 1.49 9.1477e-41
1.38 2 1.49 9.1477e-41
1.42 2 1.48 9.1477e-41
1.47 2 1.48 9.1477e-41
1.52 2 1.48 9.1477e-41
1.57 2 1.47 9.1477e-41
1.62 2 1.47 9.1477e-41
1.67 2 1.47 9.1477e-41
1.69 2 1.43 9.1477e-41
1.67 2 1.3 9.1477e-41
1.56 2 1.01 9.1477e-41
1.61 2 1 9.1477e-41
1.68 2 1.04 9.1477e-41
1.74 2 1.05 9.1477e-41
1.8 2 1.08 9.1477e-41
1.86 2 1.08 3.57e-43
1.87 2 1.02 9.1477e-41
1.91 2 0.99 9.1477e-41
1.93 2 0.93 9.1477e-41
1.96 2 0.87 9.1477e-41
1.99 2 0.84 9.1477e-41
1.99 2 0.71 9.1477e-41
1.97 2 0.54 9.1477e-41
0.57 2.05 1.48 9.1477e-41
0.64 2.05 1.49 9.1477e-41
0.71 2.05 1.49 9.1477e-41
0.77 2.05 1.5 9.1477e-41
0.83 2.05 1.5 9.1477e-41
0.9 2.05 1.51 9.1477e-41
0.95 2.05 1.5 9.1477e-41
1 2.05 1.49 9.1477e-41
1.06 2.05 1.5 9.1477e-41
1.12 2.05 1.5 9.1477e-41
1.17 2.05 1.5 9.1477e-41
1.22 2.05 1.5 9.1477e-41
1.28 2.05 1.5 9.1477e-41
1.33 2.05 1.5 9.1477e-41
1.38 2.05 1.49 9.1477e-41
1.42 2.05 1.48 9.1477e-41
1.48 2.05 1.49 9.1477e-41
1.52 2.05 1.48 9.1477e-41
1.57 2.05 1.47 9.1477e-41
1.62 2.05 1.47 9.1477e-41
1.68 2.05 1.48 9.1477e-41
1.7 2.05 1.44 9.1477e-41
1.72 2.05 1.4 9.1477e-41
1.73 2.05 1.32 9.1477e-41
1.77 2.05 1.32 3.57e-43
1.68 2.05 1.32 3.57e-43
1.74 2.05 1.32 3.57e-43
1.8 2.05 1.32 3.57e-43
1.86 2.05 1.09 9.1477e-41
1.88 2.05 1.03 9.1477e-41
1.91 2.05 0.98 9.1477e-41
1.93 2.05 0.93 9.1477e-41
1.96 2.05 0.89 9.1477e-41
1.98 2.05 0.81 9.1477e-41
1.99 2.05 0.7 9.1477e-41
1.96 2.05 0.53 9.1477e-41
0.58 2.1 1.48 9.1477e-41
0.65 2.1 1.49 9.1477e-41
0.72 2.1 1.5 9.1477e-41
0.77 2.1 1.5 9.1477e-41
0.84 2.1 1.51 9.1477e-41
0.9 2.1 1.51 9.1477e-41
0.96 2.1 1.51 9.1477e-41
1.01 2.1 1.51 9.1477e-41
1.07 2.1 1.51 9.1477e-41
1.12 2.1 1.5 9.1477e-41
1.18 2.1 1.51 9.1477e-41
1.23 2.1 1.5 9.1477e-41
1.28 2.1 1.5 9.1477e-41
1.33 2.1 1.5 9.1477e-41
1.38 2.1 1.49 9.1477e-41
1.43 2.1 1.49 9.1477e-41
1.48 2.1 1.49 9.1477e-41
1.52 2.1 1.48 9.1477e-41
1.57 2.1 1.47 9.1477e-41
1.62 2.1 1.47 9.1477e-41
1.68 2.1 1.48 9.1477e-41
1.69 2.1 1.43 9.1477e-41
1.72 2.1 1.43 3.57e-43
1.73 2.1 1.43 3.57e-43
1.77 2.1 1.43 3.57e-43
1.68 2.1 1.43 3.57e-43
1.74 2.1 1.43 3.57e-43
1.8 2.1 1.43 3.57e-43
1.86 2.1 1.09 9.1477e-41
1.87 2.1 1.02 9.1477e-41
1.91 2.1 0.99 9.1477e-41
1.93 2.1 0.93 9.1477e-41
1.96 2.1 0.89 9.1477e-41
1.98 2.1 0.81 9.1477e-41
1.99 2.1 0.7 9.1477e-41
1.96 2.1 0.53 9.1477e-41
0.59 2.15 1.49 9.1477e-41
0.65 2.15 1.5 9.1477e-41
0.72 2.15 1.5 9.1477e-41
0.78 2.15 1.5 9.1477e-41
0.84 2.15 1.51 9.1477e-41
0.89 2.15 1.5 9.1477e-41
0.96 2.15 1.51 9.1477e-41
1.01 2.15 1.5 9.1477e-41
1.07 2.15 1.51 9.1477e-41
1.12 2.15 1.51 9.1477e-41
1.18 2.15 1.51 9.1477e-41
1.23 2.15 1.5 9.1477e-41
1.28 2.15 1.5 9.1477e-41
1.33 2.15 1.5 9.1477e-41
1.38 2.15 1.5 9.1477e-41
1.43 2.15 1.49 9.1477e-41
1.48 2.15 1.49 9.1477e-41
1.52 2.15 1.48 9.1477e-41
1.58 2.15 1.48 9.1477e-41
1.62 2.15 1.47 9.1477e-41
1.68 2.15 1.48 9.1477e-41
1.69 2.15 1.42 9.1477e-41
1.73 2.15 1.42 3.57e-43
1.73 2.15 1.42 3.57e-43
1.77 2.15 1.42 3.57e-43
1.68 2.15 1.42 3.57e-43
1.74 2.15 1.42 3.57e-43
1.8 2.15 1.42 3.57e-43
1.86 2.15 1.09 9.1477e-41
1.87 2.15 1.02 9.1477e-41
1.91 2.15 0.98 9.1477e-41
1.94 2.15 0.94 9.1477e-41
1.96 2.15 0.89 9.1477e-41
1.98 2.15 0.81 9.1477e-41
1.99 2.15 0.7 9.1477e-41
1.96 2.15 0.53 9.1477e-41
0.59 2.2 1.49 9.1477e-41
0.65 2.2 1.5 9.1477e-41
0.72 2.2 1.5 9.1477e-41
0.78 2.2 1.51 9.1477e-41
0.84 2.2 1.51 9.1477e-41
0.9 2.2 1.51 9.1477e-41
0.96 2.2 1.51 9.1477e-41
1.02 2.2 1.52 9.1477e-41
1.07 2.2 1.51 9.1477e-41
1.13 2.2 1.51 9.1477e-41
1.18 2.2 1.51 9.1477e-41
1.23 2.2 1.5 9.1477e-41
1.28 2.2 1.5 9.1477e-41
1.33 2.2 1.5 9.1477e-41
1.38 2.2 1.5 9.1477e-41
1.44 2.2 1.5 9.1477e-41
1.48 2.2 1.49 9.1477e-41
1.53 2.2 1.49 9.1477e-41
1.58 2.2 1.48 9.1477e-41
1.62 2.2 1.48 9.1477e-41
1.68 2.2 1.48 9.1477e-41
1.68 2.2 1.48 3.57e-43
1.73 2.2 1.48 3.57e-43
1.73 2.2 1.48 3.57e-43
1.77 2.2 1.48 3.57e-43
1.68 2.2 1.48 3.57e-43
1.74 2.2 1.48 3.57e-43
1.8 2.2 1.48 3.57e-43
1.86 2.2 1.09 9.1477e-41
1.88 2.2 1.03 9.1477e-41
1.91 2.2 0.99 9.1477e-41
1.94 2.2 0.94 9.1477e-41
1.96 2.2 0.88 9.1477e-41
1.98 2.2 0.81 9.1477e-41
1.99 2.2 0.7 9.1477e-41
1.96 2.2 0.51 9.1477e-41
0.59 2.25 1.49 9.1477e-41
0.65 2.25 1.5 9.1477e-41
0.72 2.25 1.5 9.1477e-41
0.78 2.25 1.51 9.1477e-41
0.84 2.25 1.51 9.1477e-41
0.9 2.25 1.51 9.1477e-41
0.95 2.25 1.51 9.1477e-41
1.01 2.25 1.51 9.1477e-41
1.07 2.25 1.52 9.1477e-41
1.13 2.25 1.51 9.1477e-41
1.18 2.25 1.51 9.1477e-41
1.23 2.25 1.5 9.1477e-41
1.28 2.25 1.5 9.1477e-41
1.34 2.25 1.51 9.1477e-41
1.39 2.25 1.51 9.1477e-41
1.44 2.25 1.5 9.1477e-41
1.48 2.25 1.49 9.1477e-41
1.53 2.25 1.49 9.1477e-41
1.58 2.25 1.48 9.1477e-41
1.62 2.25 1.48 9.1477e-41
1.68 2.25 1.48 9.1477e-41
1.68 2.25 1.48 3.57e-43
1.73 2.25 1.48 3.57e-43
1.73 2.25 1.48 3.57e-43
1.77 2.25 1.48 3.57e-43
1.68 2.25 1.48 3.57e-43
1.74 2.25 1.48 3.57e-43
1.8 2.25 1.48 3.57e-43
1.86 2.25 1.09 9.1477e-41
1.88 2.25 1.03 9.1477e-41
1.91 2.25 0.99 9.1477e-41
1.94 2.25 0.94 9.1477e-41
1.96 2.25 0.89 9.1477e-41
1.98 2.25 0.81 9.1477e-41
1.98 2.25 0.7 9.1477e-41
1.95 2.25 0.5 9.1477e-41
0.59 2.3 1.49 9.1477e-41
0.65 2.3 1.5 9.1477e-41
0.72 2.3 1.51 9.1477e-41
0.78 2.3 1.51 9.1477e-41
0.84 2.3 1.51 9.1477e-41
0.91 2.3 1.52 9.1477e-41
0.96 2.3 1.51 9.1477e-41
1.01 2.3 1.51 9.1477e-41
1.07 2.3 1.52 9.1477e-41
1.13 2.3 1.51 9.1477e-41
1.18 2.3 1.51 9.1477e-41
1.23 2.3 1.51 9.1477e-41
1.29 2.3 1.51 9.1477e-41
1.34 2.3 1.51 9.1477e-41
1.39 2.3 1.51 9.1477e-41
1.44 2.3 1.5 9.1477e-41
1.48 2.3 1.49 9.1477e-41
1.53 2.3 1.49 9.1477e-41
1.58 2.3 1.48 9.1477e-41
1.62 2.3 1.48 9.1477e-41
1.68 2.3 1.48 9.1477e-41
1.69 2.3 1.48 3.57e-43
1.73 2.3 1.48 3.57e-43
1.73 2.3 1.48 3.57e-43
1.77 2.3 1.48 3.57e-43
1.68 2.3 1.48 3.57e-43
1.74 2.3 1.48 3.57e-43
1.8 2.3 1.48 3.57e-43
1.86 2.3 1.09 9.1477e-41
1.88 2.3 1.03 9.1477e-41
1.91 2.3 1 9.1477e-41
1.93 2.3 0.93 9.1477e-41
1.96 2.3 0.88 9.1477e-41
1.98 2.3 0.81 9.1477e-41
1.98 2.3 0.69 9.1477e-41
1.94 2.3 0.48 9.1477e-41
0.6 2.35 1.51 9.1477e-41
0.65 2.35 1.5 9.1477e-41
0.72 2.35 1.51 9.1477e-41
0.78 2.35 1.5 9.1477e-41
0.84 2.35 1.51 9.1477e-41
0.9 2.35 1.51 9.1477e-41
0.96 2.35 1.51 9.1477e-41
1.02 2.35 1.52 9.1477e-41
1.07 2.35 1.52 9.1477e-41
1.12 2.35 1.51 9.1477e-41
1.18 2.35 1.51 9.1477e-41
1.23 2.35 1.5 9.1477e-41
1.29 2.35 1.51 9.1477e-41
1.34 2.35 1.51 9.1477e-41
1.39 2.35 1.51 9.1477e-41
1.44 2.35 1.5 9.1477e-41
1.48 2.35 1.49 9.1477e-41
1.53 2.35 1.49 9.1477e-41
1.58 2.35 1.48 9.1477e-41
1.63 2.35 1.49 9.1477e-41
1.68 2.35 1.48 9.1477e-41
1.7 2.35 1.48 3.57e-43
1.73 2.35 1.41 9.1477e-41
1.33 2.35 1.41 3.57e-43
1.77 2.35 1.41 3.57e-43
1.68 2.35 1.41 3.57e-43
1.74 2.35 1.41 3.57e-43
1.8 2.35 1.41 3.57e-43
1.86 2.35 1.09 9.1477e-41
1.88 2.35 1.03 9.1477e-41
1.91 2.35 1 9.1477e-41
1.93 2.35 0.93 9.1477e-41
1.96 2.35 0.88 9.1477e-41
1.97 2.35 0.8 9.1477e-41
1.98 2.35 0.7 9.1477e-41
1.95 2.35 0.5 9.1477e-41
0.6 2.4 1.51 9.1477e-41
0.65 2.4 1.49 9.1477e-41
0.72 2.4 1.51 9.1477e-41
0.78 2.4 1.51 9.1477e-41
0.84 2.4 1.51 9.1477e-41
0.9 2.4 1.51 9.1477e-41
0.97 2.4 1.52 9.1477e-41
1.01 2.4 1.51 9.1477e-41
1.07 2.4 1.51 9.1477e-41
1.12 2.4 1.51 9.1477e-41
1.18 2.4 1.51 9.1477e-41
1.23 2.4 1.5 9.1477e-41
1.29 2.4 1.51 9.1477e-41
1.34 2.4 1.51 9.1477e-41
1.38 2.4 1.5 9.1477e-41
1.44 2.4 1.51 9.1477e-41
1.48 2.4 1.49 9.1477e-41
1.53 2.4 1.49 9.1477e-41
1.58 2.4 1.48 9.1477e-41
1.62 2.4 1.48 9.1477e-41
1.67 2.4 1.47 9.1477e-41
1.7 2.4 1.47 3.57e-43
1.73 2.4 1.41 9.1477e-41
1.31 2.4 1.41 3.57e-43
1.77 2.4 1.41 3.57e-43
1.68 2.4 1.41 3.57e-43
1.74 2.4 1.41 3.57e-43
1.8 2.4 1.41 3.57e-43
1.86 2.4 1.09 9.1477e-41
1.88 2.4 1.04 9.1477e-41
1.91 2.4 0.99 9.1477e-41
1.93 2.4 0.93 9.1477e-41
1.96 2.4 0.89 9.1477e-41
1.97 2.4 0.8 9.1477e-41
1.98 2.4 0.69 9.1477e-41
1.96 2.4 0.51 9.1477e-41
0.6 2.45 1.51 9.1477e-41
0.65 2.45 1.49 9.1477e-41
0.72 2.45 1.51 9.1477e-41
0.78 2.45 1.5 9.1477e-41
0.84 2.45 1.51 9.1477e-41
0.9 2.45 1.51 9.1477e-41
0.96 2.45 1.51 9.1477e-41
1.01 2.45 1.51 9.1477e-41
1.07 2.45 1.51 9.1477e-41
1.13 2.45 1.52 9.1477e-41
1.18 2.45 1.51 9.1477e-41
1.23 2.45 1.51 9.1477e-41
1.28 2.45 1.5 9.1477e-41
1.34 2.45 1.51 9.1477e-41
1.39 2.45 1.51 9.1477e-41
1.44 2.45 1.5 9.1477e-41
1.48 2.45 1.49 9.1477e-41
1.53 2.45 1.5 9.1477e-41
1.58 2.45 1.49 9.1477e-41
1.63 2.45 1.49 9.1477e-41
1.67 2.45 1.47 9.1477e-41
1.7 2.45 1.47 3.57e-43
1.73 2.45 1.41 9.1477e-41
1.31 2.45 1.41 3.57e-43
1.77 2.45 1.41 3.57e-43
1.68 2.45 1.41 3.57e-43
1.74 2.45 1.41 3.57e-43
1.8 2.45 1.41 3.57e-43
1.86 2.45 1.09 9.1477e-41
1.88 2.45 1.04 9.1477e-41
1.91 2.45 0.99 9.1477e-41
1.93 2.45 0.93 9.1477e-41
1.96 2.45 0.89 9.1477e-41
1.97 2.45 0.8 9.1477e-41
1.98 2.45 0.7 9.1477e-41
1.95 2.45 0.49 9.1477e-41
0.59 2.5 1.5 9.1477e-41
0.65 2.5 1.5 9.1477e-41
0.72 2.5 1.51 9.1477e-41
0.78 2.5 1.51 9.1477e-41
0.84 2.5 1.51 9.1477e-41
0.9 2.5 1.51 9.1477e-41
0.96 2.5 1.51 9.1477e-41
1.01 2.5 1.5 9.1477e-41
1.07 2.5 1.51 9.1477e-41
1.12 2.5 1.51 9.1477e-41
1.18 2.5 1.51 9.1477e-41
1.23 2.5 1.5 9.1477e-41
1.28 2.5 1.5 9.1477e-41
1.34 2.5 1.51 9.1477e-41
1.39 2.5 1.51 9.1477e-41
1.44 2.5 1.5 9.1477e-41
1.49 2.5 1.5 9.1477e-41
1.53 2.5 1.49 9.1477e-41
1.58 2.5 1.48 9.1477e-41
1.62 2.5 1.48 9.1477e-41
1.68 2.5 1.48 9.1477e-41
1.69 2.5 1.48 3.57e-43
1.73 2.5 1.41 9.1477e-41
1.3 2.5 1.41 3.57e-43
1.77 2.5 1.41 3.57e-43
1.68 2.5 1.41 3.57e-43
1.74 2.5 1.41 3.57e-43
1.8 2.5 1.41 3.57e-43
1.86 2.5 1.09 9.1477e-41
1.88 2.5 1.03 9.1477e-41
1.91 2.5 0.99 9.1477e-41
1.94 2.5 0.94 9.1477e-41
1.96 2.5 0.87 9.1477e-41
1.97 2.5 0.79 9.1477e-41
1.97 2.5 0.68 9.1477e-41
1.96 2.5 0.52 9.1477e-41
0.65 2.55 1.49 9.1477e-41
0.72 2.55 1.5 9.1477e-41
0.78 2.55 1.51 9.1477e-41
0.84 2.55 1.51 9.1477e-41
0.89 2.55 1.5 9.1477e-41
0.96 2.55 1.51 9.1477e-41
1.01 2.55 1.51 9.1477e-41
1.07 2.55 1.52 9.1477e-41
1.13 2.55 1.51 9.1477e-41
1.18 2.55 1.51 9.1477e-41
1.23 2.55 1.5 9.1477e-41
1.28 2.55 1.5 9.1477e-41
1.34 2.55 1.51 9.1477e-41
1.39 2.55 1.51 9.1477e-41
1.44 2.55 1.5 9.1477e-41
1.48 2.55 1.49 9.1477e-41
1.53 2.55 1.5 9.1477e-41
1.58 2.55 1.48 9.1477e-41
1.62 2.55 1.48 9.1477e-41
1.69 2.55 1.51 9.1477e-41
1.7 2.55 1.51 3.57e-43
1.73 2.55 1.41 9.1477e-41
1.3 2.55 1.41 3.57e-43
1.77 2.55 1.41 3.57e-43
1.68 2.55 1.41 3.57e-43
1.74 2.55 1.41 3.57e-43
1.8 2.55 1.41 3.57e-43
1.86 2.55 1.09 9.1477e-41
1.88 2.55 1.03 9.1477e-41
1.91 2.55 0.98 9.1477e-41
1.94 2.55 0.94 9.1477e-41
1.95 2.55 0.86 9.1477e-41
1.97 2.55 0.78 9.1477e-41
1.97 2.55 0.67 9.1477e-41
1.96 2.55 0.51 9.1477e-41
0.64 2.6 1.49 9.1477e-41
0.72 2.6 1.5 9.1477e-41
0.78 2.6 1.51 9.1477e-41
0.84 2.6 1.51 9.1477e-41
0.9 2.6 1.51 9.1477e-41
0.96 2.6 1.51 9.1477e-41
1.02 2.6 1.52 9.1477e-41
1.07 2.6 1.51 9.1477e-41
1.12 2.6 1.51 9.1477e-41
1.18 2.6 1.51 9.1477e-41
1.23 2.6 1.51 9.1477e-41
1.28 2.6 1.5 9.1477e-41
1.33 2.6 1.5 9.1477e-41
1.39 2.6 1.51 9.1477e-41
1.44 2.6 1.5 9.1477e-41
1.48 2.6 1.49 9.1477e-41
1.53 2.6 1.49 9.1477e-41
1.58 2.6 1.48 9.1477e-41
1.62 2.6 1.48 9.1477e-41
1.68 2.6 1.49 9.1477e-41
1.69 2.6 1.49 3.57e-43
1.73 2.6 1.41 9.1477e-41
1.29 2.6 1.41 3.57e-43
1.77 2.6 1.41 3.57e-43
1.68 2.6 1.41 3.57e-43
1.74 2.6 1.41 3.57e-43
1.8 2.6 1.41 3.57e-43
1.86 2.6 1.09 9.1477e-41
1.88 2.6 1.04 9.1477e-41
1.91 2.6 0.98 9.1477e-41
1.93 2.6 0.92 9.1477e-41
1.97 2.6 0.91 9.1477e-41
1.97 2.6 0.79 9.1477e-41
1.97 2.6 0.66 9.1477e-41
1.96 2.6 0.53 9.1477e-41
0.64 2.65 1.49 9.1477e-41
0.71 2.65 1.49 9.1477e-41
0.78 2.65 1.5 9.1477e-41
0.84 2.65 1.51 9.1477e-41
0.89 2.65 1.5 9.1477e-41
0.95 2.65 1.51 9.1477e-41
1.01 2.65 1.5 9.1477e-41
1.07 2.65 1.51 9.1477e-41
1.12 2.65 1.5 9.1477e-41
1.18 2.65 1.51 9.1477e-41
1.23 2.65 1.5 9.1477e-41
1.28 2.65 1.5 9.1477e-41
1.34 2.65 1.51 9.1477e-41
1.38 2.65 1.5 9.1477e-41
1.43 2.65 1.49 9.1477e-41
1.48 2.65 1.49 9.1477e-41
1.52 2.65 1.48 9.1477e-41
1.58 2.65 1.48 9.1477e-41
1.62 2.65 1.48 9.1477e-41
1.69 2.65 1.51 9.1477e-41
1.67 2.65 1.51 3.57e-43
1.73 2.65 1.51 3.57e-43
1.29 2.65 1.51 3.57e-43
1.77 2.65 1.51 3.57e-43
1.68 2.65 1.51 3.57e-43
1.74 2.65 1.51 3.57e-43
1.8 2.65 1.08 9.1477e-41
1.84 2.65 1.06 9.1477e-41
1.88 2.65 1.04 9.1477e-41
1.91 2.65 0.98 9.1477e-41
1.93 2.65 0.93 9.1477e-41
1.98 2.65 0.92 9.1477e-41
1.98 2.65 0.81 9.1477e-41
1.97 2.65 0.67 9.1477e-41
1.94 2.65 0.46 9.1477e-41
0.63 2.7 1.48 9.1477e-41
0.71 2.7 1.49 9.1477e-41
0.78 2.7 1.5 9.1477e-41
0.84 2.7 1.51 9.1477e-41
0.89 2.7 1.5 9.1477e-41
0.95 2.7 1.5 9.1477e-41
1.01 2.7 1.51 9.1477e-41
1.07 2.7 1.52 9.1477e-41
1.12 2.7 1.51 9.1477e-41
1.17 2.7 1.5 9.1477e-41
1.23 2.7 1.5 9.1477e-41
1.28 2.7 1.5 9.1477e-41
1.33 2.7 1.5 9.1477e-41
1.38 2.7 1.5 9.1477e-41
1.43 2.7 1.49 9.1477e-41
1.48 2.7 1.49 9.1477e-41
1.53 2.7 1.5 9.1477e-41
1.58 2.7 1.48 9.1477e-41
1.62 2.7 1.48 9.1477e-41
1.68 2.7 1.48 9.1477e-41
1.69 2.7 1.48 3.57e-43
1.73 2.7 1.48 3.57e-43
1.29 2.7 1.48 3.57e-43
1.77 2.7 1.48 3.57e-43
1.68 2.7 1.48 3.57e-43
1.74 2.7 1.48 3.57e-43
1.8 2.7 1.08 9.1477e-41
1.85 2.7 1.06 9.1477e-41
1.88 2.7 1.03 9.1477e-41
1.9 2.7 0.97 9.1477e-41
1.93 2.7 0.93 9.1477e-41
1.98 2.7 0.92 9.1477e-41
1.96 2.7 0.77 9.1477e-41
1.97 2.7 0.67 9.1477e-41
1.94 2.7 0.46 9.1477e-41
0.64 2.75 1.49 9.1477e-41
0.72 2.75 1.5 9.1477e-41
0.78 2.75 1.5 9.1477e-41
0.84 2.75 1.51 9.1477e-41
0.9 2.75 1.51 9.1477e-41
0.95 2.75 1.5 9.1477e-41
1.01 2.75 1.51 9.1477e-41
1.06 2.75 1.5 9.1477e-41
1.12 2.75 1.51 9.1477e-41
1.18 2.75 1.51 9.1477e-41
1.22 2.75 1.5 9.1477e-41
1.28 2.75 1.5 9.1477e-41
1.34 2.75 1.51 9.1477e-41
1.38 2.75 1.49 9.1477e-41
1.43 2.75 1.49 9.1477e-41
1.48 2.75 1.49 9.1477e-41
1.53 2.75 1.49 9.1477e-41
1.57 2.75 1.47 9.1477e-41
1.62 2.75 1.48 9.1477e-41
1.66 2.75 1.46 9.1477e-41
1.69 2.75 1.46 3.57e-43
1.73 2.75 1.46 3.57e-43
1.29 2.75 1.46 3.57e-43
1.77 2.75 1.46 3.57e-43
1.68 2.75 1.46 3.57e-43
1.74 2.75 1.46 3.57e-43
1.8 2.75 1.08 9.1477e-41
1.85 2.75 1.06 9.1477e-41
1.88 2.75 1.04 9.1477e-41
1.91 2.75 0.98 9.1477e-41
1.93 2.75 0.93 9.1477e-41
1.96 2.75 0.88 9.1477e-41
1.96 2.75 0.77 9.1477e-41
1.97 2.75 0.66 9.1477e-41
1.95 2.75 0.49 9.1477e-41
0.63 2.8 1.48 9.1477e-41
0.71 2.8 1.49 9.1477e-41
0.78 2.8 1.5 9.1477e-41
0.84 2.8 1.51 9.1477e-41
0.89 2.8 1.5 9.1477e-41
0.95 2.8 1.51 9.1477e-41
1.01 2.8 1.5 9.1477e-41
1.07 2.8 1.51 9.1477e-41
1.12 2.8 1.51 9.1477e-41
1.17 2.8 1.5 9.1477e-41
1.23 2.8 1.5 9.1477e-41
1.28 2.8 1.5 9.1477e-41
1.33 2.8 1.5 9.1477e-41
1.38 2.8 1.49 9.1477e-41
1.43 2.8 1.49 9.1477e-41
1.48 2.8 1.49 9.1477e-41
1.52 2.8 1.48 9.1477e-41
1.57 2.8 1.47 9.1477e-41
1.62 2.8 1.47 9.1477e-41
1.67 2.8 1.47 9.1477e-41
1.69 2.8 1.47 3.57e-43
1.73 2.8 1.47 3.57e-43
1.29 2.8 1.47 3.57e-43
1.77 2.8 1.47 3.57e-43
1.68 2.8 1.47 3.57e-43
1.74 2.8 1.47 3.57e-43
1.8 2.8 1.08 9.1477e-41
1.84 2.8 1.06 9.1477e-41
1.88 2.8 1.04 9.1477e-41
1.9 2.8 0.97 9.1477e-41
1.93 2.8 0.93 9.1477e-41
1.95 2.8 0.85 9.1477e-41
1.96 2.8 0.76 9.1477e-41
1.97 2.8 0.66 9.1477e-41
1.93 2.8 0.46 9.1477e-41
0.64 2.85 1.49 9.1477e-41
0.7 2.85 1.49 9.1477e-41
0.76 2.85 1.49 9.1477e-41
0.83 2.85 1.49 9.1477e-41
0.89 2.85 1.49 9.1477e-41
0.95 2.85 1.5 9.1477e-41
1 2.85 1.49 9.1477e-41
1.06 2.85 1.5 9.1477e-41
1.12 2.85 1.5 9.1477e-41
1.18 2.85 1.51 9.1477e-41
1.23 2.85 1.5 9.1477e-41
1.28 2.85 1.5 9.1477e-41
1.33 2.85 1.5 9.1477e-41
1.38 2.85 1.5 9.1477e-41
1.42 2.85 1.48 9.1477e-41
1.48 2.85 1.49 9.1477e-41
1.52 2.85 1.48 9.1477e-41
1.57 2.85 1.47 9.1477e-41
1.62 2.85 1.48 9.1477e-41
1.66 2.85 1.46 9.1477e-41
1.69 2.85 1.42 9.1477e-41
1.71 2.85 1.38 9.1477e-41
1.73 2.85 1.38 3.57e-43
1.77 2.85 1.38 3.57e-43
1.68 2.85 1.38 3.57e-43
1.74 2.85 1.38 3.57e-43
1.8 2.85 1.08 9.1477e-41
1.85 2.85 1.06 9.1477e-41
1.88 2.85 1.03 9.1477e-41
1.91 2.85 0.98 9.1477e-41
1.93 2.85 0.92 9.1477e-41
1.94 2.85 0.84 9.1477e-41
1.97 2.85 0.78 9.1477e-41
1.95 2.85 0.63 9.1477e-41
1.92 2.85 0.43 9.1477e-41
0.63 2.9 1.48 9.1477e-41
0.7 2.9 1.48 9.1477e-41
0.77 2.9 1.5 9.1477e-41
0.83 2.9 1.49 9.1477e-41
0.9 2.9 1.51 9.1477e-41
0.94 2.9 1.49 9.1477e-41
1 2.9 1.49 9.1477e-41
1.06 2.9 1.49 9.1477e-41
1.12 2.9 1.51 9.1477e-41
1.17 2.9 1.5 9.1477e-41
1.22 2.9 1.5 9.1477e-41
1.27 2.9 1.49 9.1477e-41
1.32 2.9 1.49 9.1477e-41
1.37 2.9 1.48 9.1477e-41
1.42 2.9 1.48 9.1477e-41
1.48 2.9 1.49 9.1477e-41
1.52 2.9 1.47 9.1477e-41
1.57 2.9 1.47 9.1477e-41
1.62 2.9 1.47 9.1477e-41
1.66 2.9 1.45 9.1477e-41
1.68 2.9 1.41 9.1477e-41
1.71 2.9 1.37 9.1477e-41
1.73 2.9 1.32 9.1477e-41
1.76 2.9 1.28 9.1477e-41
1.78 2.9 1.23 9.1477e-41
1.8 2.9 1.18 9.1477e-41
1.82 2.9 1.12 9.1477e-41
1.84 2.9 1.06 9.1477e-41
1.87 2.9 1.02 9.1477e-41
1.91 2.9 0.98 9.1477e-41
1.93 2.9 0.92 9.1477e-41
1.94 2.9 0.84 9.1477e-41
1.96 2.9 0.77 9.1477e-41
1.95 2.9 0.62 9.1477e-41
1.93 2.9 0.45 9.1477e-41
0.63 2.95 1.48 9.1477e-41
0.7 2.95 1.48 9.1477e-41
0.77 2.95 1.5 9.1477e-41
0.82 2.95 1.48 9.1477e-41
0.89 2.95 1.49 9.1477e-41
0.94 2.95 1.49 9.1477e-41
1 2.95 1.49 9.1477e-41
1.06 2.95 1.49 9.1477e-41
1.11 2.95 1.49 9.1477e-41
1.16 2.95 1.49 9.1477e-41
1.22 2.95 1.49 9.1477e-41
1.27 2.95 1.48 9.1477e-41
1.32 2.95 1.48 9.1477e-41
1.38 2.95 1.49 9.1477e-41
1.42 2.95 1.48 9.1477e-41
1.47 2.95 1.48 9.1477e-41
1.52 2.95 1.47 9.1477e-41
1.56 2.95 1.46 9.1477e-41
1.62 2.95 1.48 9.1477e-41
1.66 2.95 1.45 9.1477e-41
1.68 2.95 1.41 9.1477e-41
1.7 2.95 1.36 9.1477e-41
1.73 2.95 1.32 9.1477e-41
1.75 2.95 1.27 9.1477e-41
1.78 2.95 1.22 9.1477e-41
1.8 2.95 1.17 9.1477e-41
1.82 2.95 1.11 9.1477e-41
1.85 2.95 1.06 9.1477e-41
1.87 2.95 1.01 9.1477e-41
1.9 2.95 0.97 9.1477e-41
1.92 2.95 0.9 9.1477e-41
1.94 2.95 0.83 9.1477e-41
1.96 2.95 0.77 9.1477e-41
1.93 2.95 0.58 9.1477e-41
1.93 2.95 0.44 9.1477e-41
0.63 3 1.47 9.1477e-41
0.69 3 1.47 9.1477e-41
0.76 3 1.49 9.1477e-41
0.82 3 1.48 9.1477e-41
0.88 3 1.49 9.1477e-41
0.94 3 1.49 9.1477e-41
1 3 1.49 9.1477e-41
1.05 3 1.48 9.1477e-41
1.1 3 1.48 9.1477e-41
1.16 3 1.49 9.1477e-41
1.21 3 1.48 9.1477e-41
1.27 3 1.49 9.1477e-41
1.31 3 1.47 9.1477e-41
1.37 3 1.48 9.1477e-41
1.42 3 1.48 9.1477e-41
1.47 3 1.47 9.1477e-41
1.52 3 1.47 9.1477e-41
1.57 3 1.47 9.1477e-41
1.62 3 1.47 9.1477e-41
1.65 3 1.43 9.1477e-41
1.67 3 1.39 9.1477e-41
1.7 3 1.35 9.1477e-41
1.73 3 1.32 9.1477e-41
1.75 3 1.27 9.1477e-41
1.78 3 1.22 9.1477e-41
1.8 3 1.17 9.1477e-41
1.81 3 1.1 9.1477e-41
1.84 3 1.06 9.1477e-41
1.87 3 1.01 9.1477e-41
1.9 3 0.97 9.1477e-41
1.92 3 0.91 9.1477e-41
1.94 3 0.83 9.1477e-41
1.97 3 0.78 9.1477e-41
1.95 3 0.62 9.1477e-41
1.92 3 0.43 9.1477e-41
0.68 3.05 1.46 9.1477e-41
0.75 3.05 1.47 9.1477e-41
