# .PCD v.7 - Point Cloud Data file format
VERSION .7
FIELDS x y z rgb
SIZE 4 4 4 4
TYPE F F F F
WIDTH 496
HEIGHT 1
POINTS 496
DATA ascii
6.28 0 0.5 9.1477e-41
6.32 0 0.53 9.1477e-41
6.38 0 0.52 9.1477e-41
6.42 0 0.52 3.57e-43
6.74 0 0.52 3.57e-43
6.8 0 0.52 3.57e-43
6.86 0 0.52 3.57e-43
6.92 0 0.52 3.57e-43
6.72 0 0.64 9.1477e-41
6.77 0 0.64 9.1477e-41
6.83 0 0.64 3.57e-43
7.25 0 0.64 3.57e-43
7.31 0 0.64 3.57e-43
6.13 0.22 0.59 9.1477e-41
6.16 0.22 0.65 9.1477e-41
6.21 0.22 0.67 9.1477e-41
6.28 0.22 0.67 3.57e-43
6.38 0.22 0.67 3.57e-43
6.42 0.22 0.67 3.57e-43
6.74 0.22 0.67 3.57e-43
6.8 0.22 0.67 3.57e-43
6.86 0.22 0.67 3.57e-43
6.92 0.22 0.67 3.57e-43
6.99 0.22 0.67 3.57e-43
6.72 0.22 0.67 3.57e-43
6.77 0.22 0.67 3.57e-43
6.83 0.22 0.67 3.57e-43
7.25 0.22 0.67 3.57e-43
7.31 0.22 0.67 3.57e-43
7.38 0.22 0.67 3.57e-43
7.23 0.22 0.67 3.57e-43
7.52 0.22 0.67 3.57e-43
7.59 0.22 0.67 3.57e-43
7.32 0.22 0.64 9.1477e-41
7.39 0.22 0.64 9.1477e-41
5.98 0.44 0.71 9.1477e-41
6.02 0.44 0.74 9.1477e-41
6.06 0.44 0.77 9.1477e-41
6.1 0.44 0.77 3.57e-43
6.21 0.44 0.77 3.57e-43
6.28 0.44 0.77 3.57e-43
6.38 0.44 0.77 3.57e-43
6.42 0.44 0.77 3.57e-43
6.74 0.44 0.77 3.57e-43
6.8 0.44 0.77 3.57e-43
6.86 0.44 0.77 3.57e-43
6.92 0.44 0.77 3.57e-43
6.99 0.44 0.77 3.57e-43
6.72 0.44 0.77 3.57e-43
6.77 0.44 0.77 3.57e-43
6.83 0.44 0.77 3.57e-43
7.25 0.44 0.77 3.57e-43
7.31 0.44 0.77 3.57e-43
7.38 0.44 0.77 3.57e-43
7.23 0.44 0.77 3.57e-43
7.52 0.44 0.77 3.57e-43
7.59 0.44 0.77 3.57e-43
7.66 0.44 0.77 3.57e-43
7.32 0.44 0.77 3.57e-43
7.39 0.44 0.77 3.57e-43
7.42 0.44 0.79 9.1477e-41
7.52 0.44 0.72 9.1477e-41
5.93 0.66 0.41 9.1477e-41
5.95 0.66 0.41 3.57e-43
6.2 0.66 0.41 3.57e-43
5.98 0.66 0.41 3.57e-43
6.02 0.66 0.74 9.1477e-41
6.03 0.66 0.74 3.57e-43
6.1 0.66 0.74 3.57e-43
6.21 0.66 0.74 3.57e-43
6.28 0.66 0.74 3.57e-43
6.38 0.66 0.74 3.57e-43
6.42 0.66 0.74 3.57e-43
6.74 0.66 0.74 3.57e-43
6.8 0.66 0.74 3.57e-43
6.86 0.66 0.74 3.57e-43
6.92 0.66 0.74 3.57e-43
6.99 0.66 0.74 3.57e-43
6.72 0.66 0.74 3.57e-43
6.77 0.66 0.74 3.57e-43
6.83 0.66 0.74 3.57e-43
7.25 0.66 0.74 3.57e-43
7.31 0.66 0.74 3.57e-43
7.38 0.66 0.74 3.57e-43
7.23 0.66 0.74 3.57e-43
7.52 0.66 0.74 3.57e-43
7.59 0.66 0.74 3.57e-43
7.66 0.66 0.74 3.57e-43
7.32 0.66 0.74 3.57e-43
7.39 0.66 0.74 3.57e-43
7.92 0.66 0.74 3.57e-43
7.42 0.66 0.74 3.57e-43
7.52 0.66 0.74 3.57e-43
6.1 0.88 0.45 3.57e-43
6.09 0.88 0.93 9.1477e-41
6.14 0.88 0.93 9.1477e-41
6.19 0.88 0.93 3.57e-43
6.42 0.88 0.54 9.1477e-41
6.28 0.88 0.96 9.1477e-41
6.32 0.88 0.96 3.57e-43
6.86 0.88 0.96 3.57e-43
6.92 0.88 0.96 3.57e-43
6.99 0.88 0.96 3.57e-43
6.72 0.88 0.96 3.57e-43
6.77 0.88 0.96 3.57e-43
6.83 0.88 0.96 3.57e-43
7.25 0.88 0.96 3.57e-43
7.31 0.88 0.96 3.57e-43
7.38 0.88 0.96 3.57e-43
7.23 0.88 0.96 3.57e-43
7.52 0.88 0.96 3.57e-43
7.59 0.88 0.96 3.57e-43
7.66 0.88 0.96 3.57e-43
7.32 0.88 0.96 3.57e-43
7.39 0.88 0.96 3.57e-43
7.92 0.88 0.96 3.57e-43
7.42 0.88 0.79 9.1477e-41
7.41 0.88 0.9 9.1477e-41
7.46 0.88 0.91 9.1477e-41
5.92 1.1 0.45 9.1477e-41
5.93 1.1 0.45 3.57e-43
6.2 1.1 0.45 3.57e-43
5.98 1.1 0.45 3.57e-43
6.02 1.1 0.45 3.57e-43
6.03 1.1 0.45 3.57e-43
6.1 1.1 0.45 3.57e-43
6.09 1.1 0.45 3.57e-43
6.14 1.1 0.45 3.57e-43
6.19 1.1 0.45 3.57e-43
6.42 1.1 0.45 3.57e-43
6.28 1.1 0.45 3.57e-43
6.32 1.1 0.45 3.57e-43
6.86 1.1 0.45 3.57e-43
6.92 1.1 0.45 3.57e-43
6.99 1.1 0.45 3.57e-43
6.72 1.1 0.45 3.57e-43
6.77 1.1 0.45 3.57e-43
6.83 1.1 0.45 3.57e-43
7.25 1.1 0.45 3.57e-43
7.31 1.1 0.45 3.57e-43
7.38 1.1 0.45 3.57e-43
7.23 1.1 0.45 3.57e-43
7.52 1.1 0.45 3.57e-43
7.59 1.1 0.45 3.57e-43
7.07 1.1 0.45 3.57e-43
7.39 1.1 0.45 3.57e-43
7.92 1.1 0.45 3.57e-43
7.42 1.1 0.45 3.57e-43
7.41 1.1 0.9 9.1477e-41
7.43 1.1 0.9 3.57e-43
5.91 1.32 0.46 9.1477e-41
5.93 1.32 0.46 3.57e-43
5.93 1.32 0.84 9.1477e-41
5.97 1.32 0.87 9.1477e-41
6.02 1.32 0.87 3.57e-43
6.1 1.32 0.87 3.57e-43
6.09 1.32 0.87 3.57e-43
6.14 1.32 0.87 3.57e-43
6.19 1.32 0.87 3.57e-43
6.42 1.32 0.87 3.57e-43
6.28 1.32 0.87 3.57e-43
6.32 1.32 0.87 3.57e-43
6.86 1.32 0.87 3.57e-43
6.92 1.32 0.87 3.57e-43
6.99 1.32 0.87 3.57e-43
6.72 1.32 0.87 3.57e-43
6.77 1.32 0.64 9.1477e-41
6.65 1.32 0.97 9.1477e-41
6.73 1.32 0.92 9.1477e-41
6.79 1.32 0.92 9.1477e-41
6.84 1.32 0.94 9.1477e-41
6.89 1.32 0.94 3.57e-43
7.52 1.32 0.94 3.57e-43
7.59 1.32 0.94 3.57e-43
7.66 1.32 0.94 3.57e-43
7.07 1.32 0.94 3.57e-43
7.39 1.32 0.94 3.57e-43
7.92 1.32 0.94 3.57e-43
7.42 1.32 0.94 3.57e-43
7.41 1.32 0.94 3.57e-43
7.43 1.32 0.96 9.1477e-41
7.41 1.32 0.96 3.57e-43
5.97 1.54 0.46 3.57e-43
5.99 1.54 0.94 3.57e-43
6.1 1.54 0.79 3.57e-43
6.09 1.54 0.93 3.57e-43
6.31 1.54 0.53 3.57e-43
6.37 1.54 0.54 3.57e-43
6.43 1.54 0.54 3.57e-43
6.28 1.54 0.54 3.57e-43
6.32 1.54 0.99 3.57e-43
6.21 1.54 1.33 3.57e-43
6.25 1.54 1.34 3.57e-43
6.81 1.54 1.34 3.57e-43
6.77 1.54 1.34 3.57e-43
6.65 1.54 0.96 9.1477e-41
6.91 1.54 0.61 9.1477e-41
6.92 1.54 0.61 3.57e-43
6.84 1.54 0.61 3.57e-43
6.89 1.54 0.61 3.57e-43
7.52 1.54 0.61 3.57e-43
7.59 1.54 0.61 3.57e-43
7.66 1.54 0.61 3.57e-43
7.07 1.54 0.61 3.57e-43
7.39 1.54 0.61 3.57e-43
7.92 1.54 0.61 3.57e-43
7.42 1.54 0.61 3.57e-43
7.41 1.54 0.61 3.57e-43
7.43 1.54 0.61 3.57e-43
7.41 1.54 1.07 9.1477e-41
7.36 1.54 1.07 3.57e-43
7.75 1.54 1.06 9.1477e-41
5.97 1.76 0.46 3.57e-43
5.99 1.76 0.94 3.57e-43
6.1 1.76 0.79 3.57e-43
6.09 1.76 0.93 9.1477e-41
6.31 1.76 0.53 9.1477e-41
6.37 1.76 0.54 9.1477e-41
6.43 1.76 0.54 3.57e-43
6.28 1.76 0.54 3.57e-43
6.32 1.76 0.99 9.1477e-41
6.21 1.76 1.33 9.1477e-41
6.25 1.76 1.34 9.1477e-41
6.29 1.76 1.34 3.57e-43
6.81 1.76 1.34 3.57e-43
6.77 1.76 1.34 3.57e-43
6.65 1.76 1.34 3.57e-43
6.91 1.76 1.34 3.57e-43
6.92 1.76 1.34 3.57e-43
6.84 1.76 1.34 3.57e-43
6.89 1.76 1.34 3.57e-43
7.52 1.76 1.34 3.57e-43
7.59 1.76 1.34 3.57e-43
7.66 1.76 1.34 3.57e-43
7.07 1.76 1.34 3.57e-43
7.39 1.76 1.34 3.57e-43
7.92 1.76 1.34 3.57e-43
7.42 1.76 1.34 3.57e-43
7.41 1.76 1.34 3.57e-43
7.43 1.76 1.34 3.57e-43
7.41 1.76 1.34 3.57e-43
7.36 1.76 1.34 3.57e-43
5.97 1.98 0.46 3.57e-43
5.99 1.98 0.94 3.57e-43
6.1 1.98 0.79 9.1477e-41
6.27 1.98 0.5 9.1477e-41
6.33 1.98 0.5 9.1477e-41
6.39 1.98 0.48 9.1477e-41
6.45 1.98 0.48 3.57e-43
6.28 1.98 0.48 3.57e-43
6.32 1.98 0.48 3.57e-43
6.21 1.98 1.33 9.1477e-41
6.23 1.98 1.38 9.1477e-41
6.28 1.98 1.39 9.1477e-41
6.32 1.98 1.39 3.57e-43
6.77 1.98 1.39 3.57e-43
6.65 1.98 1.39 3.57e-43
6.91 1.98 1.39 3.57e-43
6.92 1.98 1.39 3.57e-43
6.84 1.98 1.39 3.57e-43
6.89 1.98 1.39 3.57e-43
7.52 1.98 1.39 3.57e-43
7.59 1.98 1.39 3.57e-43
7.66 1.98 1.39 3.57e-43
7.07 1.98 1.39 3.57e-43
7.39 1.98 1.39 3.57e-43
7.92 1.98 1.39 3.57e-43
7.42 1.98 1.39 3.57e-43
7.41 1.98 1.39 3.57e-43
7.43 1.98 1.39 3.57e-43
7.41 1.98 1.39 3.57e-43
7.36 1.98 1.22 9.1477e-41
7.3 1.98 1.39 9.1477e-41
5.97 2.2 0.46 3.57e-43
5.99 2.2 0.94 3.57e-43
6.04 2.2 0.94 3.57e-43
6.27 2.2 0.5 3.57e-43
6.28 2.2 0.62 3.57e-43
6.34 2.2 0.62 3.57e-43
6.45 2.2 0.62 3.57e-43
6.28 2.2 0.62 3.57e-43
6.32 2.2 0.62 3.57e-43
6.21 2.2 1.33 9.1477e-41
6.23 2.2 1.39 9.1477e-41
6.27 2.2 1.41 9.1477e-41
6.32 2.2 1.41 9.1477e-41
6.36 2.2 1.41 3.57e-43
6.65 2.2 1.41 3.57e-43
6.91 2.2 1.41 3.57e-43
6.92 2.2 1.41 3.57e-43
6.84 2.2 1.41 3.57e-43
6.89 2.2 1.41 3.57e-43
7.52 2.2 1.41 3.57e-43
7.59 2.2 1.41 3.57e-43
7.66 2.2 1.41 3.57e-43
7.07 2.2 1.41 3.57e-43
7.39 2.2 1.41 3.57e-43
7.92 2.2 1.41 3.57e-43
7.42 2.2 1.41 3.57e-43
7.41 2.2 1.41 3.57e-43
7.43 2.2 1.41 3.57e-43
7.41 2.2 1.41 3.57e-43
7.36 2.2 1.22 9.1477e-41
7.29 2.2 1.41 9.1477e-41
5.97 2.42 0.46 3.57e-43
5.99 2.42 0.94 9.1477e-41
6.04 2.42 0.94 3.57e-43
6.27 2.42 0.5 9.1477e-41
6.28 2.42 0.62 9.1477e-41
6.34 2.42 0.62 3.57e-43
6.45 2.42 0.62 3.57e-43
6.28 2.42 0.62 3.57e-43
6.32 2.42 0.62 3.57e-43
6.21 2.42 1.33 9.1477e-41
6.24 2.42 1.36 9.1477e-41
6.27 2.42 1.41 9.1477e-41
6.31 2.42 1.43 9.1477e-41
6.35 2.42 1.43 3.57e-43
6.65 2.42 1.43 3.57e-43
6.91 2.42 1.43 3.57e-43
6.92 2.42 1.43 3.57e-43
6.84 2.42 1.43 3.57e-43
6.89 2.42 1.43 3.57e-43
7.52 2.42 1.43 3.57e-43
7.59 2.42 1.43 3.57e-43
7.66 2.42 1.43 3.57e-43
7.07 2.42 1.43 3.57e-43
7.39 2.42 1.43 3.57e-43
7.92 2.42 1.43 3.57e-43
7.42 2.42 1.43 3.57e-43
7.41 2.42 1.43 3.57e-43
7.43 2.42 1.43 3.57e-43
7.41 2.42 1.43 3.57e-43
7.36 2.42 1.22 9.1477e-41
7.29 2.42 1.41 9.1477e-41
5.92 2.64 0.46 9.1477e-41
5.92 2.64 0.46 3.57e-43
6.2 2.64 0.46 3.57e-43
5.93 2.64 0.46 3.57e-43
5.97 2.64 0.46 3.57e-43
5.99 2.64 0.94 9.1477e-41
6.02 2.64 0.94 3.57e-43
6.27 2.64 0.94 3.57e-43
6.28 2.64 0.94 3.57e-43
6.34 2.64 0.61 9.1477e-41
6.38 2.64 0.62 9.1477e-41
6.44 2.64 0.63 9.1477e-41
6.51 2.64 0.6 9.1477e-41
6.57 2.64 0.59 9.1477e-41
6.23 2.64 1.38 9.1477e-41
6.27 2.64 1.4 9.1477e-41
6.32 2.64 1.4 9.1477e-41
6.36 2.64 1.4 3.57e-43
6.65 2.64 1.4 3.57e-43
6.91 2.64 1.4 3.57e-43
6.92 2.64 1.4 3.57e-43
6.84 2.64 1.4 3.57e-43
6.89 2.64 1.4 3.57e-43
7.52 2.64 1.4 3.57e-43
7.59 2.64 1.4 3.57e-43
7.66 2.64 1.4 3.57e-43
7.07 2.64 1.4 3.57e-43
7.39 2.64 1.4 3.57e-43
7.92 2.64 1.4 3.57e-43
7.42 2.64 1.4 3.57e-43
7.41 2.64 1.4 3.57e-43
7.43 2.64 1.4 3.57e-43
7.41 2.64 1.4 3.57e-43
7.36 2.64 1.22 9.1477e-41
7.32 2.64 1.37 9.1477e-41
5.92 2.86 0.98 3.57e-43
6.05 2.86 1.03 9.1477e-41
6.27 2.86 0.64 9.1477e-41
6.31 2.86 0.68 9.1477e-41
6.36 2.86 0.67 9.1477e-41
6.42 2.86 0.67 3.57e-43
6.51 2.86 0.67 3.57e-43
6.57 2.86 0.59 9.1477e-41
6.25 2.86 1.35 9.1477e-41
6.28 2.86 1.39 9.1477e-41
6.32 2.86 1.39 9.1477e-41
6.37 2.86 1.39 3.57e-43
6.65 2.86 1.39 3.57e-43
6.91 2.86 1.39 3.57e-43
6.92 2.86 1.39 3.57e-43
6.84 2.86 1.39 3.57e-43
6.89 2.86 1.39 3.57e-43
7.52 2.86 1.39 3.57e-43
7.59 2.86 1.39 3.57e-43
7.66 2.86 1.39 3.57e-43
7.07 2.86 1.39 3.57e-43
7.39 2.86 1.39 3.57e-43
7.92 2.86 1.39 3.57e-43
7.42 2.86 1.39 3.57e-43
7.41 2.86 1.39 3.57e-43
7.43 2.86 1.39 3.57e-43
7.41 2.86 1.39 3.57e-43
7.36 2.86 1.22 9.1477e-41
6.57 3.08 0.98 3.57e-43
6.26 3.08 1.33 9.1477e-41
6.29 3.08 1.36 9.1477e-41
6.33 3.08 1.36 3.57e-43
6.37 3.08 1.36 3.57e-43
6.65 3.08 1.36 3.57e-43
6.91 3.08 1.36 3.57e-43
6.92 3.08 1.36 3.57e-43
6.84 3.08 1.36 3.57e-43
6.89 3.08 1.36 3.57e-43
7.52 3.08 1.36 3.57e-43
7.59 3.08 1.36 3.57e-43
7.66 3.08 1.36 3.57e-43
7.07 3.08 1.36 3.57e-43
7.39 3.08 1.36 3.57e-43
7.92 3.08 1.36 3.57e-43
7.42 3.08 1.36 3.57e-43
7.41 3.08 1.36 3.57e-43
7.43 3.08 1.36 3.57e-43
7.41 3.08 1.07 9.1477e-41
7.26 3.08 1.37 9.1477e-41
6.03 3.3 0.84 3.57e-43
6.02 3.3 0.98 9.1477e-41
6.07 3.3 0.98 3.57e-43
6.27 3.3 0.98 3.57e-43
6.31 3.3 0.98 3.57e-43
6.36 3.3 0.98 3.57e-43
6.42 3.3 0.98 3.57e-43
6.51 3.3 0.98 3.57e-43
6.57 3.3 0.98 3.57e-43
6.26 3.3 0.98 3.57e-43
6.29 3.3 0.98 3.57e-43
6.33 3.3 0.98 3.57e-43
6.37 3.3 0.98 3.57e-43
6.65 3.3 0.98 3.57e-43
6.91 3.3 0.98 3.57e-43
6.92 3.3 0.98 3.57e-43
6.84 3.3 0.98 3.57e-43
6.89 3.3 0.98 3.57e-43
7.52 3.3 0.98 3.57e-43
7.59 3.3 0.98 3.57e-43
7.66 3.3 0.98 3.57e-43
7.07 3.3 0.98 3.57e-43
7.39 3.3 0.98 3.57e-43
7.92 3.3 0.98 3.57e-43
7.42 3.3 0.98 3.57e-43
7.41 3.3 0.98 3.57e-43
7.43 3.3 0.98 3.57e-43
7.41 3.3 1.07 9.1477e-41
5.94 3.52 0.84 3.57e-43
6 3.52 0.8 9.1477e-41
6.03 3.52 0.84 9.1477e-41
6.07 3.52 0.86 9.1477e-41
6.08 3.52 0.95 9.1477e-41
6.13 3.52 0.95 3.57e-43
6.31 3.52 0.95 3.57e-43
6.36 3.52 0.95 3.57e-43
6.42 3.52 0.95 3.57e-43
6.51 3.52 0.95 3.57e-43
6.57 3.52 0.95 3.57e-43
6.26 3.52 0.95 3.57e-43
6.29 3.52 0.95 3.57e-43
6.33 3.52 0.95 3.57e-43
6.37 3.52 0.95 3.57e-43
6.65 3.52 0.95 3.57e-43
6.91 3.52 0.95 3.57e-43
6.92 3.52 0.95 3.57e-43
6.84 3.52 0.95 3.57e-43
6.89 3.52 0.95 3.57e-43
7.52 3.52 0.95 3.57e-43
7.59 3.52 0.95 3.57e-43
7.66 3.52 0.95 3.57e-43
7.07 3.52 0.95 3.57e-43
7.39 3.52 0.95 3.57e-43
7.92 3.52 0.95 3.57e-43
7.42 3.52 0.95 3.57e-43
7.41 3.52 0.95 3.57e-43
7.43 3.52 0.96 9.1477e-41
6.06 3.74 0.95 3.57e-43
6.26 3.74 0.66 9.1477e-41
6.3 3.74 0.69 9.1477e-41
6.34 3.74 0.71 9.1477e-41
6.38 3.74 0.71 3.57e-43
6.51 3.74 0.6 9.1477e-41
6.5 3.74 0.6 3.57e-43
6.26 3.74 0.6 3.57e-43
6.29 3.74 0.6 3.57e-43
6.33 3.74 0.6 3.57e-43
6.37 3.74 0.6 3.57e-43
6.65 3.74 0.96 9.1477e-41
6.73 3.74 0.93 9.1477e-41
6.78 3.74 0.93 3.57e-43
6.84 3.74 0.93 3.57e-43
6.89 3.74 0.93 3.57e-43
7.52 3.74 0.93 3.57e-43
7.59 3.74 0.93 3.57e-43
7.2 3.74 0.84 9.1477e-41
7.29 3.74 0.79 9.1477e-41
