# .PCD v.7 - Point Cloud Data file format
VERSION .7
FIELDS x y z rgb
SIZE 4 4 4 4
TYPE F F F F
WIDTH 1139
HEIGHT 1
POINTS 1139
DATA ascii
0.89 0 0.74 3.57e-43
0.96 0 0.75 9.1477e-41
1.02 0 0.75 9.1477e-41
1.06 0 0.75 3.57e-43
0.84 0 0.75 3.57e-43
0.83 0 0.75 3.57e-43
0.86 0 0.75 3.57e-43
1.2 0 0.75 3.57e-43
1.25 0 0.75 3.57e-43
1.39 0 0.59 9.1477e-41
1.44 0 0.58 9.1477e-41
1.48 0 0.58 3.57e-43
0.43 0.06 0.72 9.1477e-41
0.51 0.06 0.72 3.57e-43
0.54 0.06 0.72 3.57e-43
0.41 0.06 0.72 3.57e-43
0.23 0.06 0.72 3.57e-43
0.87 0.06 0.72 3.57e-43
0.89 0.06 0.74 9.1477e-41
0.98 0.06 0.79 9.1477e-41
1.04 0.06 0.79 3.57e-43
1.06 0.06 0.79 3.57e-43
0.84 0.06 0.79 3.57e-43
0.83 0.06 0.79 3.57e-43
0.86 0.06 0.79 3.57e-43
1.2 0.06 0.79 3.57e-43
1.25 0.06 0.54 9.1477e-41
1.37 0.06 0.66 9.1477e-41
1.42 0.06 0.66 3.57e-43
1.44 0.06 0.66 3.57e-43
1.48 0.06 0.66 3.57e-43
1.29 0.06 0.66 3.57e-43
1.45 0.06 0.66 3.57e-43
0.39 0.12 0.76 9.1477e-41
0.41 0.12 0.76 3.57e-43
0.51 0.12 0.76 3.57e-43
0.54 0.12 0.76 3.57e-43
0.41 0.12 0.76 3.57e-43
0.23 0.12 0.76 3.57e-43
0.31 0.12 0.76 3.57e-43
0.87 0.12 0.76 3.57e-43
0.89 0.12 0.76 3.57e-43
0.98 0.12 0.76 3.57e-43
1.04 0.12 0.76 3.57e-43
1.06 0.12 0.76 3.57e-43
0.84 0.12 0.76 3.57e-43
0.83 0.12 0.76 3.57e-43
0.86 0.12 0.76 3.57e-43
1.2 0.12 0.76 3.57e-43
1.25 0.12 0.54 9.1477e-41
1.41 0.12 0.73 9.1477e-41
1.42 0.12 0.64 9.1477e-41
1.47 0.12 0.64 9.1477e-41
1.54 0.12 0.64 3.57e-43
1.29 0.12 0.64 3.57e-43
1.45 0.12 0.64 3.57e-43
1.44 0.12 0.64 3.57e-43
1.6 0.12 0.64 3.57e-43
0.31 0.18 0.74 9.1477e-41
0.39 0.18 0.74 3.57e-43
0.41 0.18 0.74 3.57e-43
0.51 0.18 0.74 3.57e-43
0.54 0.18 0.74 3.57e-43
0.41 0.18 0.74 3.57e-43
0.23 0.18 0.74 3.57e-43
0.31 0.18 0.74 3.57e-43
0.87 0.18 0.74 3.57e-43
0.89 0.18 0.74 3.57e-43
0.98 0.18 0.74 3.57e-43
1.04 0.18 0.74 3.57e-43
1.06 0.18 0.74 3.57e-43
0.84 0.18 0.74 3.57e-43
0.83 0.18 0.74 3.57e-43
0.86 0.18 0.74 3.57e-43
1.2 0.18 0.74 3.57e-43
1.25 0.18 0.74 3.57e-43
1.41 0.18 0.73 9.1477e-41
1.45 0.18 0.7 9.1477e-41
1.47 0.18 0.64 9.1477e-41
1.55 0.18 0.68 9.1477e-41
1.61 0.18 0.68 3.57e-43
1.45 0.18 0.68 3.57e-43
1.44 0.18 0.68 3.57e-43
1.6 0.18 0.68 3.57e-43
1.55 0.18 0.68 3.57e-43
0.26 0.24 0.77 9.1477e-41
0.3 0.24 0.77 3.57e-43
0.39 0.24 0.77 3.57e-43
0.41 0.24 0.77 3.57e-43
0.51 0.24 0.77 3.57e-43
0.54 0.24 0.77 3.57e-43
0.41 0.24 0.77 3.57e-43
0.23 0.24 0.77 3.57e-43
0.31 0.24 0.77 3.57e-43
0.87 0.24 0.77 3.57e-43
0.89 0.24 0.77 3.57e-43
0.98 0.24 0.77 3.57e-43
1.04 0.24 0.77 3.57e-43
1.06 0.24 0.77 3.57e-43
0.84 0.24 0.77 3.57e-43
0.83 0.24 0.77 3.57e-43
0.86 0.24 0.77 3.57e-43
1.2 0.24 0.77 3.57e-43
1.25 0.24 0.77 3.57e-43
1.41 0.24 0.73 9.1477e-41
1.5 0.24 0.79 9.1477e-41
1.55 0.24 0.78 9.1477e-41
1.56 0.24 0.7 9.1477e-41
1.61 0.24 0.69 9.1477e-41
1.67 0.24 0.69 3.57e-43
1.44 0.24 0.69 3.57e-43
1.6 0.24 0.69 3.57e-43
1.55 0.24 0.69 3.57e-43
0.24 0.3 0.82 9.1477e-41
0.33 0.3 0.82 3.57e-43
0.3 0.3 0.82 3.57e-43
0.39 0.3 0.82 3.57e-43
0.41 0.3 0.82 3.57e-43
0.51 0.3 0.82 3.57e-43
0.54 0.3 0.82 3.57e-43
0.41 0.3 0.82 3.57e-43
0.23 0.3 0.82 3.57e-43
0.31 0.3 0.82 3.57e-43
0.87 0.3 0.82 3.57e-43
0.89 0.3 0.82 3.57e-43
0.98 0.3 0.82 3.57e-43
1.04 0.3 0.82 3.57e-43
1.06 0.3 0.82 3.57e-43
0.84 0.3 0.82 3.57e-43
0.83 0.3 0.82 3.57e-43
0.86 0.3 0.82 3.57e-43
1.2 0.3 0.82 3.57e-43
1.25 0.3 0.82 3.57e-43
1.41 0.3 0.82 3.57e-43
1.5 0.3 0.79 9.1477e-41
1.55 0.3 0.79 9.1477e-41
1.56 0.3 0.7 9.1477e-41
1.63 0.3 0.73 9.1477e-41
1.69 0.3 0.74 9.1477e-41
1.73 0.3 0.74 3.57e-43
1.6 0.3 0.74 3.57e-43
1.55 0.3 0.74 3.57e-43
0.89 0.36 0.79 3.57e-43
1.58 0.36 0.84 9.1477e-41
1.63 0.36 0.85 9.1477e-41
1.68 0.36 0.82 9.1477e-41
1.72 0.36 0.8 9.1477e-41
1.74 0.36 0.8 3.57e-43
1.6 0.36 0.8 3.57e-43
1.55 0.36 0.8 3.57e-43
0.98 0.42 0.84 3.57e-43
1.63 0.42 0.83 9.1477e-41
1.69 0.42 0.84 9.1477e-41
1.72 0.42 0.8 9.1477e-41
1.75 0.42 0.8 3.57e-43
1.6 0.42 0.8 3.57e-43
1.78 0.42 0.48 9.1477e-41
1.63 0.48 0.83 3.57e-43
1.68 0.48 0.83 9.1477e-41
1.73 0.48 0.83 3.57e-43
1.75 0.48 0.83 3.57e-43
1.6 0.48 0.83 3.57e-43
1.79 0.48 0.5 9.1477e-41
1.63 0.54 0.83 3.57e-43
1.7 0.54 0.88 9.1477e-41
1.75 0.54 0.88 3.57e-43
1.75 0.54 0.88 3.57e-43
1.78 0.54 0.6 9.1477e-41
1.79 0.54 0.5 9.1477e-41
0.65 0.6 1.01 3.57e-43
0.69 0.6 0.98 9.1477e-41
0.75 0.6 0.99 9.1477e-41
0.81 0.6 0.99 9.1477e-41
0.88 0.6 1 9.1477e-41
0.94 0.6 0.99 9.1477e-41
1 0.6 1 9.1477e-41
1.05 0.6 0.98 9.1477e-41
1.11 0.6 0.98 3.57e-43
1.04 0.6 0.98 3.57e-43
1.06 0.6 0.98 3.57e-43
0.84 0.6 0.98 3.57e-43
0.83 0.6 0.98 3.57e-43
0.86 0.6 0.98 3.57e-43
1.2 0.6 0.98 3.57e-43
1.25 0.6 0.98 3.57e-43
1.41 0.6 0.98 3.57e-43
1.5 0.6 0.98 3.57e-43
1.58 0.6 0.98 3.57e-43
1.63 0.6 0.83 9.1477e-41
1.72 0.6 0.91 9.1477e-41
1.75 0.6 0.91 3.57e-43
1.75 0.6 0.91 3.57e-43
1.79 0.6 0.62 9.1477e-41
1.79 0.6 0.5 9.1477e-41
0.37 0.66 0.99 3.57e-43
0.42 0.66 0.97 9.1477e-41
0.49 0.66 0.98 9.1477e-41
0.56 0.66 0.99 9.1477e-41
0.65 0.66 1.01 9.1477e-41
0.71 0.66 1.02 9.1477e-41
0.77 0.66 1.01 9.1477e-41
0.83 0.66 1.01 9.1477e-41
0.9 0.66 1.03 9.1477e-41
0.95 0.66 1.01 9.1477e-41
1.01 0.66 1.01 9.1477e-41
1.08 0.66 1.03 9.1477e-41
1.13 0.66 1.02 9.1477e-41
1.18 0.66 1 9.1477e-41
1.23 0.66 1 9.1477e-41
1.28 0.66 0.99 9.1477e-41
1.33 0.66 0.98 9.1477e-41
1.39 0.66 0.98 9.1477e-41
1.44 0.66 0.98 3.57e-43
1.25 0.66 0.98 3.57e-43
1.41 0.66 0.98 3.57e-43
1.5 0.66 0.98 3.57e-43
1.58 0.66 0.98 3.57e-43
1.63 0.66 0.83 9.1477e-41
1.73 0.66 0.83 3.57e-43
1.75 0.66 0.83 3.57e-43
1.75 0.66 0.83 3.57e-43
1.79 0.66 0.62 9.1477e-41
1.8 0.66 0.51 9.1477e-41
0.2 0.72 0.86 9.1477e-41
0.37 0.72 0.99 9.1477e-41
0.44 0.72 0.99 9.1477e-41
0.52 0.72 1.02 9.1477e-41
0.6 0.72 1.03 9.1477e-41
0.65 0.72 1.03 3.57e-43
0.71 0.72 1.03 3.57e-43
0.77 0.72 1.03 3.57e-43
0.83 0.72 1.03 3.57e-43
0.9 0.72 1.03 3.57e-43
0.95 0.72 1.03 3.57e-43
1.01 0.72 1.03 3.57e-43
1.08 0.72 1.03 3.57e-43
1.13 0.72 1.03 3.57e-43
1.18 0.72 1.03 3.57e-43
1.23 0.72 1 9.1477e-41
1.3 0.72 1 3.57e-43
1.33 0.72 0.98 9.1477e-41
1.4 0.72 1 9.1477e-41
1.45 0.72 0.99 9.1477e-41
1.5 0.72 0.99 9.1477e-41
1.55 0.72 0.99 3.57e-43
1.5 0.72 0.99 3.57e-43
1.58 0.72 0.84 9.1477e-41
1.69 0.72 0.95 9.1477e-41
1.73 0.72 0.95 3.57e-43
1.75 0.72 0.95 3.57e-43
1.75 0.72 0.95 3.57e-43
1.79 0.72 0.62 9.1477e-41
1.79 0.72 0.5 9.1477e-41
0.95 0.78 0.99 3.57e-43
1.54 0.78 0.96 9.1477e-41
1.59 0.78 0.96 9.1477e-41
1.65 0.78 0.96 3.57e-43
1.69 0.78 0.95 9.1477e-41
1.73 0.78 0.95 3.57e-43
1.75 0.78 0.95 3.57e-43
1.75 0.78 0.95 3.57e-43
1.79 0.78 0.62 9.1477e-41
1.8 0.78 0.51 9.1477e-41
1.59 0.84 1.08 3.57e-43
1.66 0.84 0.99 9.1477e-41
1.7 0.84 0.97 9.1477e-41
1.74 0.84 0.97 3.57e-43
1.75 0.84 0.97 3.57e-43
1.75 0.84 0.97 3.57e-43
1.6 0.84 0.97 3.57e-43
1.79 0.84 0.62 9.1477e-41
1.8 0.84 0.51 9.1477e-41
0.22 0.9 0.98 9.1477e-41
0.33 0.9 0.98 3.57e-43
0.37 0.9 0.98 3.57e-43
0.44 0.9 0.98 3.57e-43
0.52 0.9 0.98 3.57e-43
0.6 0.9 0.98 3.57e-43
0.65 0.9 0.98 3.57e-43
0.71 0.9 0.98 3.57e-43
0.77 0.9 0.98 3.57e-43
0.83 0.9 0.98 3.57e-43
0.9 0.9 0.98 3.57e-43
0.95 0.9 0.98 3.57e-43
1.01 0.9 0.98 3.57e-43
1.08 0.9 0.98 3.57e-43
1.13 0.9 1.02 9.1477e-41
1.24 0.9 1.1 9.1477e-41
1.28 0.9 1.09 9.1477e-41
1.33 0.9 1.08 9.1477e-41
1.38 0.9 1.08 3.57e-43
1.4 0.9 1.08 3.57e-43
1.45 0.9 1.08 3.57e-43
1.5 0.9 1.08 3.57e-43
1.54 0.9 1.08 3.57e-43
1.59 0.9 1.08 3.57e-43
1.66 0.9 1.08 3.57e-43
1.7 0.9 1.08 3.57e-43
1.74 0.9 1.08 3.57e-43
1.75 0.9 1.08 3.57e-43
1.75 0.9 1.08 3.57e-43
1.6 0.9 1.08 3.57e-43
1.79 0.9 0.62 9.1477e-41
1.78 0.9 0.48 9.1477e-41
0.3 0.96 1.08 9.1477e-41
0.34 0.96 1.08 3.57e-43
0.37 0.96 1.08 3.57e-43
0.44 0.96 1.08 3.57e-43
0.52 0.96 1.08 3.57e-43
0.6 0.96 1.08 3.57e-43
0.65 0.96 1.08 3.57e-43
0.71 0.96 1.08 3.57e-43
0.77 0.96 1.08 3.57e-43
0.83 0.96 1.08 3.57e-43
0.9 0.96 1.08 3.57e-43
0.95 0.96 1.08 3.57e-43
1.01 0.96 1.08 3.57e-43
1.08 0.96 1.08 3.57e-43
1.13 0.96 1.08 3.57e-43
1.24 0.96 1.1 9.1477e-41
1.27 0.96 1.07 9.1477e-41
1.34 0.96 1.07 3.57e-43
1.38 0.96 1.07 3.57e-43
1.4 0.96 1.07 3.57e-43
1.45 0.96 1.07 3.57e-43
1.5 0.96 1.07 3.57e-43
1.54 0.96 1.07 3.57e-43
1.59 0.96 1.07 3.57e-43
1.66 0.96 1.07 3.57e-43
1.7 0.96 1.07 3.57e-43
1.74 0.96 1.07 3.57e-43
1.75 0.96 1.07 3.57e-43
1.75 0.96 1.07 3.57e-43
1.6 0.96 1.07 3.57e-43
1.79 0.96 0.62 9.1477e-41
1.79 0.96 0.5 9.1477e-41
0.99 1.02 0.99 3.57e-43
1.06 1.02 0.99 3.57e-43
1.13 1.02 0.99 3.57e-43
1.24 1.02 0.99 3.57e-43
1.27 1.02 0.99 3.57e-43
1.34 1.02 0.99 3.57e-43
1.38 1.02 0.99 3.57e-43
1.4 1.02 0.99 3.57e-43
1.45 1.02 0.99 3.57e-43
1.5 1.02 0.99 3.57e-43
1.54 1.02 0.99 3.57e-43
1.59 1.02 0.99 3.57e-43
1.66 1.02 0.99 3.57e-43
1.7 1.02 0.99 3.57e-43
1.74 1.02 0.95 9.1477e-41
1.77 1.02 0.95 3.57e-43
1.75 1.02 0.95 3.57e-43
1.6 1.02 0.95 3.57e-43
1.79 1.02 0.62 9.1477e-41
1.82 1.02 0.56 9.1477e-41
0.83 1.08 1.03 3.57e-43
0.88 1.08 0.99 9.1477e-41
0.93 1.08 0.98 9.1477e-41
0.99 1.08 0.99 9.1477e-41
1.06 1.08 0.99 3.57e-43
1.13 1.08 0.99 3.57e-43
1.24 1.08 0.99 3.57e-43
1.27 1.08 0.99 3.57e-43
1.34 1.08 0.99 3.57e-43
1.38 1.08 0.99 3.57e-43
1.4 1.08 0.99 3.57e-43
1.45 1.08 0.99 3.57e-43
1.5 1.08 0.99 3.57e-43
1.54 1.08 0.99 3.57e-43
1.59 1.08 0.99 3.57e-43
1.66 1.08 0.99 3.57e-43
1.7 1.08 0.99 3.57e-43
1.74 1.08 0.95 9.1477e-41
1.76 1.08 0.95 3.57e-43
1.75 1.08 0.95 3.57e-43
1.6 1.08 0.95 3.57e-43
1.79 1.08 0.62 9.1477e-41
1.82 1.08 0.57 9.1477e-41
0.83 1.14 1.03 3.57e-43
0.88 1.14 1 9.1477e-41
0.95 1.14 1.01 9.1477e-41
1.01 1.14 1.01 3.57e-43
1.06 1.14 1.01 3.57e-43
1.13 1.14 1.01 3.57e-43
1.24 1.14 1.01 3.57e-43
1.27 1.14 1.01 3.57e-43
1.34 1.14 1.01 3.57e-43
1.38 1.14 1.01 3.57e-43
1.4 1.14 1.01 3.57e-43
1.45 1.14 1.01 3.57e-43
1.5 1.14 1.01 3.57e-43
1.54 1.14 1.01 3.57e-43
1.59 1.14 1.01 3.57e-43
1.66 1.14 1.01 3.57e-43
1.7 1.14 1.01 3.57e-43
1.74 1.14 0.95 9.1477e-41
1.77 1.14 0.9 9.1477e-41
1.81 1.14 0.89 9.1477e-41
1.85 1.14 0.89 3.57e-43
1.79 1.14 0.62 9.1477e-41
1.82 1.14 0.57 9.1477e-41
0.1 1.2 1.08 9.1477e-41
0.19 1.2 1.1 9.1477e-41
0.39 1.2 1.1 3.57e-43
0.35 1.2 1.1 3.57e-43
0.34 1.2 1.1 3.57e-43
0.37 1.2 1.1 3.57e-43
0.44 1.2 1.1 3.57e-43
0.52 1.2 1.1 3.57e-43
0.6 1.2 1.03 9.1477e-41
0.26 1.2 1.03 3.57e-43
0.71 1.2 1.03 3.57e-43
0.77 1.2 1.03 3.57e-43
0.83 1.2 1.03 3.57e-43
0.88 1.2 1 9.1477e-41
0.91 1.2 1 3.57e-43
1.01 1.2 1 3.57e-43
1.06 1.2 1 3.57e-43
1.13 1.2 1 3.57e-43
1.24 1.2 1 3.57e-43
1.27 1.2 1 3.57e-43
1.34 1.2 1 3.57e-43
1.38 1.2 1 3.57e-43
1.4 1.2 1 3.57e-43
1.45 1.2 1 3.57e-43
1.5 1.2 1 3.57e-43
1.54 1.2 1 3.57e-43
1.59 1.2 1 3.57e-43
1.66 1.2 1 3.57e-43
1.7 1.2 1 3.57e-43
1.74 1.2 1 3.57e-43
1.77 1.2 1 3.57e-43
1.81 1.2 1 3.57e-43
1.85 1.2 1 3.57e-43
1.79 1.2 0.62 9.1477e-41
1.83 1.2 0.58 9.1477e-41
1.5 1.26 0.99 3.57e-43
1.66 1.26 1.19 9.1477e-41
1.68 1.26 1.13 9.1477e-41
1.62 1.26 0.91 9.1477e-41
1.64 1.26 0.86 9.1477e-41
1.73 1.26 0.94 9.1477e-41
1.83 1.26 1.04 9.1477e-41
1.89 1.26 1.04 9.1477e-41
1.93 1.26 1.04 3.57e-43
1.79 1.26 0.62 9.1477e-41
1.83 1.26 0.58 9.1477e-41
1.24 1.32 1.01 3.57e-43
1.34 1.32 1.18 9.1477e-41
1.39 1.32 1.17 9.1477e-41
1.48 1.32 1.24 9.1477e-41
1.56 1.32 1.24 3.57e-43
1.45 1.32 1.24 3.57e-43
1.5 1.32 0.99 9.1477e-41
1.47 1.32 0.74 9.1477e-41
1.54 1.32 0.76 9.1477e-41
1.59 1.32 0.77 9.1477e-41
1.73 1.32 0.93 9.1477e-41
1.77 1.32 0.93 3.57e-43
1.89 1.32 0.93 3.57e-43
1.93 1.32 0.93 3.57e-43
1.79 1.32 0.62 9.1477e-41
1.83 1.32 0.59 9.1477e-41
0.37 1.38 1.01 3.57e-43
0.81 1.38 1.01 3.57e-43
1.13 1.38 1.01 3.57e-43
1.24 1.38 1.01 3.57e-43
1.34 1.38 1.18 9.1477e-41
1.41 1.38 1.2 9.1477e-41
1.48 1.38 1.24 9.1477e-41
1.58 1.38 1.24 3.57e-43
1.45 1.38 1.24 3.57e-43
1.5 1.38 0.99 9.1477e-41
1.37 1.38 0.66 9.1477e-41
1.48 1.38 0.77 9.1477e-41
1.54 1.38 0.76 9.1477e-41
1.59 1.38 0.77 9.1477e-41
1.73 1.38 0.93 9.1477e-41
1.77 1.38 0.93 3.57e-43
1.89 1.38 0.93 3.57e-43
1.93 1.38 0.93 3.57e-43
1.79 1.38 0.62 9.1477e-41
1.82 1.38 0.57 9.1477e-41
1.52 1.44 1.39 3.57e-43
1.55 1.44 1.36 9.1477e-41
1.59 1.44 1.36 3.57e-43
1.45 1.44 0.99 9.1477e-41
1.32 1.44 0.67 9.1477e-41
1.4 1.44 0.71 9.1477e-41
1.48 1.44 0.75 9.1477e-41
1.53 1.44 0.75 9.1477e-41
1.59 1.44 0.77 9.1477e-41
1.73 1.44 0.93 9.1477e-41
1.77 1.44 0.93 3.57e-43
1.89 1.44 0.93 3.57e-43
1.93 1.44 0.93 3.57e-43
1.79 1.44 0.62 9.1477e-41
1.82 1.44 0.56 9.1477e-41
1.49 1.5 1.42 3.57e-43
1.52 1.5 1.39 9.1477e-41
1.56 1.5 1.39 3.57e-43
1.59 1.5 1.34 9.1477e-41
1.5 1.5 1.09 9.1477e-41
1.4 1.5 0.81 9.1477e-41
1.4 1.5 0.72 9.1477e-41
1.48 1.5 0.76 9.1477e-41
1.52 1.5 0.73 9.1477e-41
1.59 1.5 0.76 9.1477e-41
1.73 1.5 0.94 9.1477e-41
1.77 1.5 0.94 3.57e-43
1.89 1.5 0.94 3.57e-43
1.93 1.5 0.94 3.57e-43
1.79 1.5 0.62 9.1477e-41
1.82 1.5 0.57 9.1477e-41
1.46 1.56 1.46 3.57e-43
1.49 1.56 1.42 9.1477e-41
1.54 1.56 1.41 9.1477e-41
1.56 1.56 1.38 9.1477e-41
1.53 1.56 1.23 9.1477e-41
1.48 1.56 1.04 9.1477e-41
1.5 1.56 1 9.1477e-41
1.43 1.56 0.77 9.1477e-41
1.48 1.56 0.75 9.1477e-41
1.52 1.56 0.73 9.1477e-41
1.59 1.56 0.76 9.1477e-41
1.74 1.56 0.76 3.57e-43
1.77 1.56 0.76 3.57e-43
1.89 1.56 0.76 3.57e-43
1.93 1.56 0.76 3.57e-43
1.79 1.56 0.62 9.1477e-41
1.82 1.56 0.57 9.1477e-41
1.46 1.62 1.46 3.57e-43
1.49 1.62 1.43 9.1477e-41
1.54 1.62 1.41 9.1477e-41
1.56 1.62 1.38 9.1477e-41
1.4 1.62 1 9.1477e-41
1.47 1.62 1.04 9.1477e-41
1.5 1.62 0.99 9.1477e-41
1.43 1.62 0.76 9.1477e-41
1.47 1.62 0.74 9.1477e-41
1.51 1.62 0.71 9.1477e-41
1.59 1.62 0.77 9.1477e-41
1.74 1.62 0.77 3.57e-43
1.77 1.62 0.77 3.57e-43
1.89 1.62 0.77 3.57e-43
1.93 1.62 0.77 3.57e-43
1.79 1.62 0.62 9.1477e-41
1.82 1.62 0.57 9.1477e-41
1.46 1.68 1.46 3.57e-43
1.49 1.68 1.43 9.1477e-41
1.54 1.68 1.42 9.1477e-41
1.57 1.68 1.38 9.1477e-41
1.39 1.68 0.99 9.1477e-41
1.48 1.68 1.04 9.1477e-41
1.5 1.68 0.99 9.1477e-41
1.45 1.68 0.8 9.1477e-41
1.46 1.68 0.72 9.1477e-41
1.5 1.68 0.69 9.1477e-41
1.61 1.68 0.79 9.1477e-41
1.74 1.68 0.79 3.57e-43
1.77 1.68 0.79 3.57e-43
1.89 1.68 0.79 3.57e-43
1.93 1.68 0.79 3.57e-43
1.79 1.68 0.62 9.1477e-41
1.83 1.68 0.58 9.1477e-41
1.13 1.74 1.02 3.57e-43
1.46 1.74 1.46 9.1477e-41
1.5 1.74 1.45 9.1477e-41
1.54 1.74 1.42 9.1477e-41
1.5 1.74 1.27 9.1477e-41
1.45 1.74 1.09 9.1477e-41
1.48 1.74 1.05 9.1477e-41
1.51 1.74 1 9.1477e-41
1.46 1.74 0.82 9.1477e-41
1.47 1.74 0.73 9.1477e-41
1.49 1.74 0.67 9.1477e-41
1.64 1.74 0.85 9.1477e-41
1.74 1.74 0.85 3.57e-43
1.77 1.74 0.85 3.57e-43
1.89 1.74 1.04 9.1477e-41
1.83 1.74 1.04 3.57e-43
1.79 1.74 0.62 9.1477e-41
1.82 1.74 0.56 9.1477e-41
1.13 1.8 1.02 3.57e-43
1.46 1.8 1.45 9.1477e-41
1.51 1.8 1.45 9.1477e-41
1.55 1.8 1.43 9.1477e-41
1.53 1.8 1.32 9.1477e-41
1.45 1.8 1.09 9.1477e-41
1.48 1.8 1.05 9.1477e-41
1.5 1.8 1 9.1477e-41
1.47 1.8 0.83 9.1477e-41
1.48 1.8 0.77 9.1477e-41
1.54 1.8 0.77 9.1477e-41
1.71 1.8 0.99 9.1477e-41
1.75 1.8 0.99 3.57e-43
1.77 1.8 0.99 3.57e-43
1.89 1.8 1.04 9.1477e-41
1.83 1.8 1.04 3.57e-43
1.79 1.8 1.04 3.57e-43
1.82 1.8 0.56 9.1477e-41
1.13 1.86 1.02 3.57e-43
1.46 1.86 1.46 9.1477e-41
1.51 1.86 1.45 9.1477e-41
1.55 1.86 1.43 9.1477e-41
1.5 1.86 1.27 9.1477e-41
1.47 1.86 1.12 9.1477e-41
1.49 1.86 1.06 9.1477e-41
1.55 1.86 1.08 9.1477e-41
1.58 1.86 1.03 9.1477e-41
1.69 1.86 1.03 3.57e-43
1.54 1.86 1.03 3.57e-43
1.71 1.86 0.99 9.1477e-41
1.74 1.86 0.99 3.57e-43
1.77 1.86 0.99 3.57e-43
1.89 1.86 0.99 3.57e-43
1.83 1.86 0.99 3.57e-43
1.79 1.86 0.62 9.1477e-41
1.82 1.86 0.56 9.1477e-41
1.13 1.92 1.02 3.57e-43
1.46 1.92 1.46 9.1477e-41
1.51 1.92 1.45 9.1477e-41
1.55 1.92 1.45 3.57e-43
1.5 1.92 1.45 3.57e-43
1.47 1.92 1.45 3.57e-43
1.49 1.92 1.45 3.57e-43
1.55 1.92 1.45 3.57e-43
1.58 1.92 1.45 3.57e-43
1.69 1.92 1.45 3.57e-43
1.54 1.92 1.45 3.57e-43
1.71 1.92 0.99 9.1477e-41
1.75 1.92 0.99 3.57e-43
1.77 1.92 0.99 3.57e-43
1.89 1.92 0.99 3.57e-43
1.83 1.92 0.99 3.57e-43
1.79 1.92 0.99 3.57e-43
1.82 1.92 0.56 9.1477e-41
1.13 1.98 1.02 3.57e-43
1.47 1.98 1.47 9.1477e-41
1.5 1.98 1.45 9.1477e-41
1.54 1.98 1.45 3.57e-43
1.5 1.98 1.45 3.57e-43
1.47 1.98 1.45 3.57e-43
1.49 1.98 1.45 3.57e-43
1.55 1.98 1.45 3.57e-43
1.58 1.98 1.45 3.57e-43
1.69 1.98 1.45 3.57e-43
1.54 1.98 1.45 3.57e-43
1.71 1.98 0.99 9.1477e-41
1.75 1.98 0.99 3.57e-43
1.77 1.98 0.99 3.57e-43
1.89 1.98 0.99 3.57e-43
1.83 1.98 0.99 3.57e-43
1.79 1.98 0.99 3.57e-43
1.82 1.98 0.56 9.1477e-41
1.13 2.04 1.02 3.57e-43
1.47 2.04 1.47 9.1477e-41
1.51 2.04 1.45 9.1477e-41
1.54 2.04 1.45 3.57e-43
1.5 2.04 1.45 3.57e-43
1.47 2.04 1.12 9.1477e-41
1.1 2.04 1.12 3.57e-43
1.55 2.04 1.12 3.57e-43
1.58 2.04 1.12 3.57e-43
1.69 2.04 1.12 3.57e-43
1.54 2.04 0.77 9.1477e-41
1.72 2.04 1.01 9.1477e-41
1.76 2.04 1.01 3.57e-43
1.77 2.04 1.01 3.57e-43
1.89 2.04 1.01 3.57e-43
1.83 2.04 1.01 3.57e-43
1.79 2.04 1.01 3.57e-43
1.82 2.04 0.56 9.1477e-41
1.13 2.1 1.02 3.57e-43
1.46 2.1 1.46 3.57e-43
1.51 2.1 1.45 9.1477e-41
1.51 2.1 1.45 3.57e-43
1.5 2.1 1.45 3.57e-43
1.47 2.1 1.45 3.57e-43
1.1 2.1 1.45 3.57e-43
1.55 2.1 1.45 3.57e-43
1.58 2.1 1.45 3.57e-43
1.69 2.1 1.45 3.57e-43
1.54 2.1 0.77 9.1477e-41
1.72 2.1 1.01 9.1477e-41
1.75 2.1 1.01 3.57e-43
1.77 2.1 1.01 3.57e-43
1.89 2.1 1.01 3.57e-43
1.83 2.1 1.01 3.57e-43
1.79 2.1 1.01 3.57e-43
1.82 2.1 0.56 9.1477e-41
1.13 2.16 1.02 3.57e-43
1.46 2.16 1.46 9.1477e-41
1.51 2.16 1.45 9.1477e-41
1.54 2.16 1.45 3.57e-43
1.5 2.16 1.45 3.57e-43
1.47 2.16 1.45 3.57e-43
1.1 2.16 1.45 3.57e-43
1.55 2.16 1.45 3.57e-43
1.58 2.16 1.45 3.57e-43
1.69 2.16 1.45 3.57e-43
1.54 2.16 0.77 9.1477e-41
1.72 2.16 1.02 9.1477e-41
1.76 2.16 1.02 3.57e-43
1.77 2.16 1.02 3.57e-43
1.89 2.16 1.02 3.57e-43
1.83 2.16 1.02 3.57e-43
1.79 2.16 1.02 3.57e-43
1.82 2.16 0.56 9.1477e-41
1.13 2.22 1.02 3.57e-43
1.46 2.22 1.46 9.1477e-41
1.5 2.22 1.45 9.1477e-41
1.54 2.22 1.45 3.57e-43
1.5 2.22 1.45 3.57e-43
1.47 2.22 1.45 3.57e-43
1.1 2.22 1.45 3.57e-43
1.55 2.22 1.45 3.57e-43
1.58 2.22 1.45 3.57e-43
1.69 2.22 1.45 3.57e-43
1.54 2.22 0.77 9.1477e-41
1.72 2.22 0.77 3.57e-43
1.76 2.22 0.77 3.57e-43
1.77 2.22 0.77 3.57e-43
1.89 2.22 0.77 3.57e-43
1.83 2.22 0.77 3.57e-43
1.79 2.22 0.77 3.57e-43
1.82 2.22 0.56 9.1477e-41
1.13 2.28 1.02 3.57e-43
1.46 2.28 1.46 9.1477e-41
1.5 2.28 1.45 9.1477e-41
1.52 2.28 1.45 3.57e-43
1.5 2.28 1.45 3.57e-43
1.47 2.28 1.45 3.57e-43
1.1 2.28 1.45 3.57e-43
1.55 2.28 1.45 3.57e-43
1.58 2.28 1.45 3.57e-43
1.69 2.28 1.45 3.57e-43
1.54 2.28 0.77 9.1477e-41
1.72 2.28 0.77 3.57e-43
1.76 2.28 0.77 3.57e-43
1.77 2.28 0.77 3.57e-43
1.89 2.28 0.77 3.57e-43
1.83 2.28 0.77 3.57e-43
1.79 2.28 0.77 3.57e-43
1.82 2.28 0.77 3.57e-43
1.13 2.34 1.02 3.57e-43
1.45 2.34 1.44 9.1477e-41
1.5 2.34 1.44 9.1477e-41
1.52 2.34 1.44 3.57e-43
1.5 2.34 1.44 3.57e-43
1.47 2.34 1.44 3.57e-43
1.1 2.34 1.44 3.57e-43
1.55 2.34 1.44 3.57e-43
1.58 2.34 1.44 3.57e-43
1.69 2.34 1.44 3.57e-43
1.54 2.34 0.77 9.1477e-41
1.72 2.34 0.77 3.57e-43
1.76 2.34 0.77 3.57e-43
1.77 2.34 0.77 3.57e-43
1.89 2.34 0.77 3.57e-43
1.83 2.34 0.81 9.1477e-41
1.81 2.34 0.81 3.57e-43
1.82 2.34 0.81 3.57e-43
1.13 2.4 1.02 3.57e-43
1.45 2.4 1.44 9.1477e-41
1.5 2.4 1.44 9.1477e-41
1.52 2.4 1.44 3.57e-43
1.5 2.4 1.44 3.57e-43
1.47 2.4 1.44 3.57e-43
1.1 2.4 1.44 3.57e-43
1.55 2.4 1.44 3.57e-43
1.58 2.4 1.44 3.57e-43
1.69 2.4 1.44 3.57e-43
1.54 2.4 0.77 9.1477e-41
1.73 2.4 0.77 3.57e-43
1.76 2.4 0.77 3.57e-43
1.77 2.4 0.77 3.57e-43
1.89 2.4 0.77 3.57e-43
1.83 2.4 0.81 9.1477e-41
1.81 2.4 0.81 3.57e-43
1.82 2.4 0.56 9.1477e-41
1.13 2.46 1.02 3.57e-43
1.45 2.46 1.44 9.1477e-41
1.49 2.46 1.43 9.1477e-41
1.52 2.46 1.43 3.57e-43
1.5 2.46 1.43 3.57e-43
1.47 2.46 1.43 3.57e-43
1.1 2.46 1.43 3.57e-43
1.55 2.46 1.43 3.57e-43
1.58 2.46 1.43 3.57e-43
1.69 2.46 1.43 3.57e-43
1.54 2.46 1.43 3.57e-43
1.73 2.46 1.43 3.57e-43
1.76 2.46 1.43 3.57e-43
1.77 2.46 1.43 3.57e-43
1.89 2.46 1.43 3.57e-43
1.83 2.46 0.81 9.1477e-41
1.81 2.46 0.81 3.57e-43
1.82 2.46 0.56 9.1477e-41
0.53 2.52 1.03 3.57e-43
0.99 2.52 1.03 3.57e-43
0.71 2.52 1.03 3.57e-43
0.77 2.52 1.03 3.57e-43
0.83 2.52 1.03 3.57e-43
0.88 2.52 1.03 3.57e-43
0.91 2.52 1.03 3.57e-43
1.01 2.52 1.03 3.57e-43
0.81 2.52 1.03 3.57e-43
1.13 2.52 1.02 9.1477e-41
1.45 2.52 1.43 9.1477e-41
1.49 2.52 1.42 9.1477e-41
1.52 2.52 1.42 3.57e-43
1.5 2.52 1.42 3.57e-43
1.47 2.52 1.42 3.57e-43
1.1 2.52 1.42 3.57e-43
1.55 2.52 1.42 3.57e-43
1.58 2.52 1.42 3.57e-43
1.69 2.52 1.42 3.57e-43
1.54 2.52 1.42 3.57e-43
1.73 2.52 1.42 3.57e-43
1.76 2.52 1.42 3.57e-43
1.77 2.52 0.9 9.1477e-41
1.81 2.52 0.9 3.57e-43
1.83 2.52 0.9 3.57e-43
1.81 2.52 0.66 9.1477e-41
0.53 2.58 1.03 3.57e-43
0.99 2.58 1.03 3.57e-43
0.71 2.58 1.03 3.57e-43
0.77 2.58 1.03 3.57e-43
0.83 2.58 1.03 3.57e-43
0.88 2.58 1.03 3.57e-43
0.91 2.58 1.03 3.57e-43
1.01 2.58 1.03 3.57e-43
0.81 2.58 1.03 3.57e-43
1.13 2.58 1.02 9.1477e-41
1.44 2.58 1.43 9.1477e-41
1.48 2.58 1.41 9.1477e-41
1.52 2.58 1.41 3.57e-43
1.5 2.58 1.41 3.57e-43
1.47 2.58 1.41 3.57e-43
1.1 2.58 1.41 3.57e-43
1.55 2.58 1.41 3.57e-43
1.58 2.58 1.41 3.57e-43
1.69 2.58 1.41 3.57e-43
1.54 2.58 1.41 3.57e-43
1.73 2.58 1.41 3.57e-43
1.76 2.58 1.41 3.57e-43
1.77 2.58 1.41 3.57e-43
1.81 2.58 1.41 3.57e-43
1.83 2.58 1.41 3.57e-43
1.81 2.58 0.66 9.1477e-41
1.77 2.58 0.45 9.1477e-41
1.13 2.64 1.02 3.57e-43
1.43 2.64 1.42 9.1477e-41
1.48 2.64 1.4 9.1477e-41
1.51 2.64 1.4 3.57e-43
1.5 2.64 1.4 3.57e-43
1.47 2.64 1.4 3.57e-43
1.1 2.64 1.4 3.57e-43
1.55 2.64 1.4 3.57e-43
1.58 2.64 1.4 3.57e-43
1.69 2.64 1.4 3.57e-43
1.54 2.64 1.4 3.57e-43
1.73 2.64 1.4 3.57e-43
1.76 2.64 1.4 3.57e-43
1.77 2.64 1.4 3.57e-43
1.81 2.64 1.4 3.57e-43
1.83 2.64 0.81 9.1477e-41
1.76 2.64 0.56 9.1477e-41
1.78 2.64 0.47 9.1477e-41
0.34 2.7 0.96 3.57e-43
1.27 2.7 0.96 3.57e-43
0.81 2.7 0.96 3.57e-43
1.13 2.7 1.02 9.1477e-41
1.42 2.7 1.4 9.1477e-41
1.47 2.7 1.39 9.1477e-41
1.51 2.7 1.39 3.57e-43
1.5 2.7 1.39 3.57e-43
1.47 2.7 1.39 3.57e-43
1.1 2.7 1.39 3.57e-43
1.55 2.7 1.39 3.57e-43
1.58 2.7 1.39 3.57e-43
1.69 2.7 1.39 3.57e-43
1.54 2.7 0.77 9.1477e-41
1.72 2.7 0.77 3.57e-43
1.76 2.7 0.77 3.57e-43
1.77 2.7 0.77 3.57e-43
1.81 2.7 0.77 3.57e-43
1.83 2.7 0.81 9.1477e-41
1.77 2.7 0.58 9.1477e-41
1.77 2.7 0.46 9.1477e-41
1.42 2.76 1.34 3.57e-43
1.46 2.76 1.38 9.1477e-41
1.5 2.76 1.38 3.57e-43
1.5 2.76 1.38 3.57e-43
1.47 2.76 1.38 3.57e-43
1.1 2.76 1.38 3.57e-43
1.55 2.76 1.38 3.57e-43
1.58 2.76 1.38 3.57e-43
1.69 2.76 1.38 3.57e-43
1.54 2.76 0.77 9.1477e-41
1.71 2.76 0.77 3.57e-43
1.76 2.76 0.77 3.57e-43
1.77 2.76 0.77 3.57e-43
1.81 2.76 0.77 3.57e-43
1.83 2.76 0.81 9.1477e-41
1.77 2.76 0.58 9.1477e-41
1.77 2.76 0.45 9.1477e-41
0.35 2.82 1.13 9.1477e-41
0.55 2.82 1.29 9.1477e-41
0.62 2.82 1.29 3.57e-43
0.44 2.82 0.99 9.1477e-41
0.77 2.82 1.34 9.1477e-41
0.83 2.82 1.35 9.1477e-41
0.89 2.82 1.34 9.1477e-41
0.93 2.82 1.34 3.57e-43
0.77 2.82 1.34 3.57e-43
0.83 2.82 1.34 3.57e-43
0.88 2.82 1.34 3.57e-43
0.91 2.82 1.34 3.57e-43
1.27 2.82 1.34 3.57e-43
0.81 2.82 1.34 3.57e-43
1.13 2.82 1.34 3.57e-43
1.42 2.82 1.34 3.57e-43
1.46 2.82 1.34 3.57e-43
1.5 2.82 1.34 3.57e-43
1.5 2.82 1.34 3.57e-43
1.47 2.82 1.34 3.57e-43
1.1 2.82 1.34 3.57e-43
1.55 2.82 1.34 3.57e-43
1.58 2.82 1.34 3.57e-43
1.69 2.82 1.34 3.57e-43
1.54 2.82 1.34 3.57e-43
1.71 2.82 1.34 3.57e-43
1.76 2.82 1.34 3.57e-43
1.77 2.82 1.34 3.57e-43
1.81 2.82 1.34 3.57e-43
1.83 2.82 0.81 9.1477e-41
1.77 2.82 0.58 9.1477e-41
1.77 2.82 0.46 9.1477e-41
0.35 2.88 1.29 3.57e-43
0.57 2.88 1.25 9.1477e-41
0.65 2.88 1.25 3.57e-43
0.77 2.88 1.25 3.57e-43
0.83 2.88 1.35 9.1477e-41
0.84 2.88 1.27 9.1477e-41
0.89 2.88 1.27 9.1477e-41
0.95 2.88 1.26 9.1477e-41
1 2.88 1.26 3.57e-43
0.88 2.88 1.26 3.57e-43
0.91 2.88 1.26 3.57e-43
1.27 2.88 1.26 3.57e-43
0.81 2.88 1.26 3.57e-43
1.13 2.88 1.26 3.57e-43
1.42 2.88 1.26 3.57e-43
1.46 2.88 1.26 3.57e-43
1.5 2.88 1.26 3.57e-43
1.5 2.88 1.26 3.57e-43
1.47 2.88 1.26 3.57e-43
1.1 2.88 1.26 3.57e-43
1.55 2.88 1.26 3.57e-43
1.58 2.88 1.26 3.57e-43
1.69 2.88 1.15 9.1477e-41
1.68 2.88 1.04 9.1477e-41
1.73 2.88 1.04 3.57e-43
1.76 2.88 1.04 3.57e-43
1.77 2.88 1.04 3.57e-43
1.81 2.88 1.04 3.57e-43
1.83 2.88 0.81 9.1477e-41
1.78 2.88 0.6 9.1477e-41
1.77 2.88 0.46 9.1477e-41
0.5 2.94 1.07 3.57e-43
0.61 2.94 1.14 3.57e-43
0.68 2.94 1.14 3.57e-43
0.84 2.94 1.14 3.57e-43
0.89 2.94 1.14 3.57e-43
0.95 2.94 1.14 3.57e-43
1 2.94 1.14 3.57e-43
0.88 2.94 1.14 3.57e-43
0.91 2.94 1.14 3.57e-43
1.27 2.94 1.14 3.57e-43
0.81 2.94 1.14 3.57e-43
1.13 2.94 1.14 3.57e-43
1.42 2.94 1.14 3.57e-43
1.46 2.94 1.14 3.57e-43
1.5 2.94 1.14 3.57e-43
1.5 2.94 1.14 3.57e-43
1.47 2.94 1.14 3.57e-43
1.1 2.94 1.14 3.57e-43
1.55 2.94 1.14 3.57e-43
1.58 2.94 1.14 3.57e-43
1.69 2.94 1.15 9.1477e-41
1.67 2.94 1.02 9.1477e-41
1.71 2.94 1 9.1477e-41
1.74 2.94 0.95 9.1477e-41
1.76 2.94 0.95 3.57e-43
1.81 2.94 0.95 3.57e-43
1.83 2.94 0.81 9.1477e-41
1.78 2.94 0.59 9.1477e-41
1.76 2.94 0.44 9.1477e-41
0.5 3 1.07 3.57e-43
0.61 3 1.14 9.1477e-41
0.68 3 1.14 3.57e-43
0.84 3 1.14 3.57e-43
0.89 3 1.14 3.57e-43
0.95 3 1.14 3.57e-43
1 3 1.14 3.57e-43
0.88 3 1.14 3.57e-43
0.91 3 1.14 3.57e-43
1.27 3 1.14 3.57e-43
0.81 3 1.14 3.57e-43
1.13 3 1.14 3.57e-43
1.42 3 1.14 3.57e-43
1.46 3 1.14 3.57e-43
1.5 3 1.14 3.57e-43
1.5 3 1.14 3.57e-43
1.47 3 1.14 3.57e-43
1.1 3 1.14 3.57e-43
1.55 3 1.14 3.57e-43
1.58 3 1.14 3.57e-43
1.69 3 1.15 9.1477e-41
1.67 3 1.01 9.1477e-41
1.7 3 0.98 9.1477e-41
1.74 3 0.95 9.1477e-41
1.74 3 0.95 3.57e-43
1.81 3 0.95 3.57e-43
1.83 3 0.81 9.1477e-41
1.77 3 0.57 9.1477e-41
1.78 3 0.47 9.1477e-41
0.57 3.06 1.25 9.1477e-41
0.5 3.06 1.07 9.1477e-41
0.56 3.06 1.07 9.1477e-41
0.63 3.06 1.08 9.1477e-41
0.7 3.06 1.08 3.57e-43
0.89 3.06 1.08 3.57e-43
0.95 3.06 1.08 3.57e-43
1 3.06 1.08 3.57e-43
0.88 3.06 1.08 3.57e-43
0.91 3.06 1.08 3.57e-43
1.27 3.06 1.08 3.57e-43
0.81 3.06 1.08 3.57e-43
1.13 3.06 1.08 3.57e-43
1.42 3.06 1.08 3.57e-43
1.46 3.06 1.08 3.57e-43
1.5 3.06 1.08 3.57e-43
1.5 3.06 1.08 3.57e-43
1.47 3.06 1.08 3.57e-43
1.1 3.06 1.08 3.57e-43
1.55 3.06 1.08 3.57e-43
1.58 3.06 1.08 3.57e-43
1.69 3.06 1.15 9.1477e-41
1.65 3.06 0.98 9.1477e-41
1.67 3.06 0.92 9.1477e-41
1.7 3.06 0.87 9.1477e-41
1.73 3.06 0.82 9.1477e-41
1.76 3.06 0.82 3.57e-43
1.83 3.06 0.82 3.57e-43
1.77 3.06 0.57 9.1477e-41
0.42 3.12 0.8 3.57e-43
0.69 3.12 1.07 9.1477e-41
0.76 3.12 1.09 9.1477e-41
0.83 3.12 1.09 9.1477e-41
0.88 3.12 1.09 9.1477e-41
0.94 3.12 1.08 9.1477e-41
0.99 3.12 1.08 3.57e-43
1.27 3.12 1.08 3.57e-43
0.81 3.12 1.08 3.57e-43
1.13 3.12 1.08 3.57e-43
1.42 3.12 1.08 3.57e-43
1.46 3.12 1.08 3.57e-43
1.5 3.12 1.08 3.57e-43
1.5 3.12 1.08 3.57e-43
1.47 3.12 1.08 3.57e-43
1.1 3.12 1.08 3.57e-43
1.55 3.12 1.08 3.57e-43
1.58 3.12 1.08 3.57e-43
1.69 3.12 1.15 9.1477e-41
1.6 3.12 0.88 9.1477e-41
1.63 3.12 0.84 9.1477e-41
1.68 3.12 0.83 9.1477e-41
1.7 3.12 0.83 3.57e-43
1.76 3.12 0.83 3.57e-43
1.83 3.12 0.83 3.57e-43
1.77 3.12 0.83 3.57e-43
0.42 3.18 0.8 9.1477e-41
0.54 3.18 0.87 9.1477e-41
0.65 3.18 0.87 3.57e-43
0.83 3.18 0.87 3.57e-43
0.88 3.18 0.87 3.57e-43
0.94 3.18 0.87 3.57e-43
0.99 3.18 1.07 9.1477e-41
1 3.18 1.07 3.57e-43
0.81 3.18 1.07 3.57e-43
1.13 3.18 1.07 3.57e-43
1.42 3.18 1.07 3.57e-43
1.46 3.18 1.07 3.57e-43
1.5 3.18 1.07 3.57e-43
1.5 3.18 1.07 3.57e-43
1.47 3.18 1.07 3.57e-43
1.1 3.18 1.07 3.57e-43
1.55 3.18 1.07 3.57e-43
1.58 3.18 1.03 9.1477e-41
1.53 3.18 0.85 9.1477e-41
1.54 3.18 0.76 9.1477e-41
1.59 3.18 0.77 9.1477e-41
1.63 3.18 0.77 3.57e-43
1.7 3.18 0.77 3.57e-43
1.76 3.18 0.77 3.57e-43
1.83 3.18 0.77 3.57e-43
1.77 3.18 0.57 9.1477e-41
0.54 3.24 0.6 9.1477e-41
0.73 3.24 0.78 9.1477e-41
0.78 3.24 0.76 9.1477e-41
0.82 3.24 0.73 9.1477e-41
0.88 3.24 0.72 9.1477e-41
0.94 3.24 0.72 9.1477e-41
1.01 3.24 0.73 9.1477e-41
1.07 3.24 0.74 9.1477e-41
1.12 3.24 0.73 9.1477e-41
1.19 3.24 0.74 9.1477e-41
1.23 3.24 0.71 9.1477e-41
1.3 3.24 0.73 9.1477e-41
1.36 3.24 0.74 9.1477e-41
1.39 3.24 0.74 3.57e-43
1.53 3.24 0.74 3.57e-43
1.54 3.24 0.74 3.57e-43
1.59 3.24 0.77 9.1477e-41
1.57 3.24 0.61 9.1477e-41
1.61 3.24 0.57 9.1477e-41
1.64 3.24 0.52 9.1477e-41
1.65 3.24 0.43 9.1477e-41
0.83 3.3 0.44 9.1477e-41
0.92 3.3 0.49 9.1477e-41
0.98 3.3 0.49 9.1477e-41
1.04 3.3 0.5 9.1477e-41
1.18 3.3 0.42 9.1477e-41
1.27 3.3 0.46 9.1477e-41
1.29 3.3 0.4 9.1477e-41
