# .PCD v.7 - Point Cloud Data file format
VERSION .7
FIELDS x y z rgb
SIZE 4 4 4 4
TYPE F F F F
WIDTH 1796
HEIGHT 1
POINTS 1796
DATA ascii
5.27 0 0.43 9.1477e-41
5.29 0 0.53 9.1477e-41
5.34 0 0.53 9.1477e-41
5.39 0 0.52 9.1477e-41
5.43 0 0.55 9.1477e-41
5.48 0 0.55 3.57e-43
5.63 0 0.55 3.57e-43
5.7 0 0.55 3.57e-43
5.79 0 0.55 3.57e-43
5.86 0 0.55 3.57e-43
5.76 0 0.63 9.1477e-41
5.81 0 0.63 3.57e-43
6.08 0 0.63 3.57e-43
6.01 0 0.63 3.57e-43
5.15 0.06 0.53 9.1477e-41
5.19 0.06 0.55 9.1477e-41
5.24 0.06 0.55 3.57e-43
5.29 0.06 0.53 9.1477e-41
5.32 0.06 0.53 3.57e-43
5.39 0.06 0.53 3.57e-43
5.43 0.06 0.53 3.57e-43
5.48 0.06 0.53 3.57e-43
5.63 0.06 0.53 3.57e-43
5.7 0.06 0.53 3.57e-43
5.64 0.06 0.67 9.1477e-41
5.69 0.06 0.66 9.1477e-41
5.74 0.06 0.69 9.1477e-41
5.8 0.06 0.65 9.1477e-41
5.84 0.06 0.65 3.57e-43
6.14 0.06 0.65 3.57e-43
6.01 0.06 0.65 3.57e-43
6.26 0.06 0.65 3.57e-43
6.3 0.06 0.65 3.57e-43
6.23 0.06 0.49 9.1477e-41
5.15 0.12 0.53 9.1477e-41
5.18 0.12 0.63 9.1477e-41
5.22 0.12 0.64 9.1477e-41
5.27 0.12 0.63 9.1477e-41
5.32 0.12 0.63 3.57e-43
5.39 0.12 0.63 3.57e-43
5.43 0.12 0.63 3.57e-43
5.48 0.12 0.63 3.57e-43
5.63 0.12 0.63 3.57e-43
5.7 0.12 0.63 3.57e-43
5.63 0.12 0.72 9.1477e-41
5.68 0.12 0.72 9.1477e-41
5.72 0.12 0.74 9.1477e-41
5.77 0.12 0.73 9.1477e-41
5.83 0.12 0.73 3.57e-43
6.14 0.12 0.73 3.57e-43
6.01 0.12 0.73 3.57e-43
6.26 0.12 0.73 3.57e-43
6.3 0.12 0.73 3.57e-43
6.17 0.12 0.73 3.57e-43
5.08 0.18 0.63 9.1477e-41
5.13 0.18 0.64 9.1477e-41
5.18 0.18 0.63 9.1477e-41
5.22 0.18 0.64 9.1477e-41
5.27 0.18 0.64 3.57e-43
5.32 0.18 0.64 3.57e-43
5.39 0.18 0.64 3.57e-43
5.43 0.18 0.64 3.57e-43
5.48 0.18 0.64 3.57e-43
5.63 0.18 0.64 3.57e-43
5.7 0.18 0.64 3.57e-43
5.79 0.18 0.64 3.57e-43
5.63 0.18 0.64 3.57e-43
5.68 0.18 0.64 3.57e-43
5.72 0.18 0.64 3.57e-43
5.77 0.18 0.64 3.57e-43
5.83 0.18 0.64 3.57e-43
6.14 0.18 0.64 3.57e-43
6.01 0.18 0.64 3.57e-43
6.26 0.18 0.64 3.57e-43
6.3 0.18 0.64 3.57e-43
6.37 0.18 0.64 3.57e-43
6.17 0.18 0.62 9.1477e-41
6.22 0.18 0.64 9.1477e-41
6.28 0.18 0.64 3.57e-43
5.03 0.24 0.64 9.1477e-41
5.09 0.24 0.61 9.1477e-41
5.12 0.24 0.69 9.1477e-41
5.17 0.24 0.68 9.1477e-41
5.22 0.24 0.68 3.57e-43
5.27 0.24 0.68 3.57e-43
5.32 0.24 0.68 3.57e-43
5.39 0.24 0.68 3.57e-43
5.43 0.24 0.68 3.57e-43
5.48 0.24 0.68 3.57e-43
5.63 0.24 0.68 3.57e-43
5.7 0.24 0.68 3.57e-43
5.79 0.24 0.68 3.57e-43
5.63 0.24 0.68 3.57e-43
5.68 0.24 0.68 3.57e-43
5.72 0.24 0.68 3.57e-43
5.77 0.24 0.68 3.57e-43
5.83 0.24 0.68 3.57e-43
6.14 0.24 0.68 3.57e-43
6.01 0.24 0.68 3.57e-43
6.26 0.24 0.68 3.57e-43
6.3 0.24 0.68 3.57e-43
6.37 0.24 0.68 3.57e-43
6.17 0.24 0.68 3.57e-43
6.22 0.24 0.64 9.1477e-41
6.28 0.24 0.62 9.1477e-41
6.32 0.24 0.64 9.1477e-41
6.38 0.24 0.64 9.1477e-41
4.98 0.3 0.66 9.1477e-41
5.03 0.3 0.64 9.1477e-41
5.08 0.3 0.67 9.1477e-41
5.12 0.3 0.68 9.1477e-41
5.15 0.3 0.74 9.1477e-41
5.19 0.3 0.74 3.57e-43
5.27 0.3 0.74 3.57e-43
5.32 0.3 0.74 3.57e-43
5.39 0.3 0.74 3.57e-43
5.43 0.3 0.74 3.57e-43
5.48 0.3 0.74 3.57e-43
5.63 0.3 0.74 3.57e-43
5.7 0.3 0.74 3.57e-43
5.79 0.3 0.74 3.57e-43
5.63 0.3 0.74 3.57e-43
5.68 0.3 0.74 3.57e-43
5.72 0.3 0.74 3.57e-43
5.77 0.3 0.74 3.57e-43
5.83 0.3 0.74 3.57e-43
6.14 0.3 0.74 3.57e-43
6.01 0.3 0.74 3.57e-43
6.26 0.3 0.74 3.57e-43
6.3 0.3 0.74 3.57e-43
6.37 0.3 0.74 3.57e-43
6.17 0.3 0.74 3.57e-43
6.22 0.3 0.74 3.57e-43
6.28 0.3 0.62 9.1477e-41
6.29 0.3 0.71 9.1477e-41
6.38 0.3 0.64 9.1477e-41
6.43 0.3 0.66 9.1477e-41
4.98 0.36 0.69 9.1477e-41
5.01 0.36 0.76 9.1477e-41
5.05 0.36 0.79 9.1477e-41
5.1 0.36 0.77 9.1477e-41
5.14 0.36 0.77 3.57e-43
5.19 0.36 0.77 3.57e-43
5.27 0.36 0.77 3.57e-43
5.32 0.36 0.77 3.57e-43
5.39 0.36 0.77 3.57e-43
5.43 0.36 0.77 3.57e-43
5.48 0.36 0.77 3.57e-43
5.63 0.36 0.77 3.57e-43
5.7 0.36 0.77 3.57e-43
5.79 0.36 0.77 3.57e-43
5.63 0.36 0.77 3.57e-43
5.68 0.36 0.77 3.57e-43
5.72 0.36 0.77 3.57e-43
5.77 0.36 0.77 3.57e-43
5.83 0.36 0.77 3.57e-43
6.14 0.36 0.77 3.57e-43
6.01 0.36 0.77 3.57e-43
6.26 0.36 0.77 3.57e-43
6.3 0.36 0.77 3.57e-43
6.37 0.36 0.77 3.57e-43
6.17 0.36 0.77 3.57e-43
6.22 0.36 0.77 3.57e-43
6.28 0.36 0.77 3.57e-43
6.29 0.36 0.71 9.1477e-41
6.38 0.36 0.64 9.1477e-41
6.43 0.36 0.64 9.1477e-41
6.5 0.36 0.63 9.1477e-41
4.93 0.42 0.69 9.1477e-41
4.98 0.42 0.71 9.1477e-41
5.01 0.42 0.77 9.1477e-41
5.05 0.42 0.81 9.1477e-41
5.1 0.42 0.81 3.57e-43
5.14 0.42 0.81 3.57e-43
5.19 0.42 0.81 3.57e-43
5.27 0.42 0.81 3.57e-43
5.32 0.42 0.81 3.57e-43
5.39 0.42 0.81 3.57e-43
5.43 0.42 0.81 3.57e-43
5.48 0.42 0.81 3.57e-43
5.63 0.42 0.81 3.57e-43
5.7 0.42 0.81 3.57e-43
5.79 0.42 0.81 3.57e-43
5.63 0.42 0.81 3.57e-43
5.68 0.42 0.81 3.57e-43
5.72 0.42 0.81 3.57e-43
5.77 0.42 0.81 3.57e-43
5.83 0.42 0.81 3.57e-43
6.14 0.42 0.81 3.57e-43
6.01 0.42 0.81 3.57e-43
6.26 0.42 0.81 3.57e-43
6.3 0.42 0.81 3.57e-43
6.37 0.42 0.81 3.57e-43
6.17 0.42 0.81 3.57e-43
6.22 0.42 0.81 3.57e-43
6.28 0.42 0.81 3.57e-43
6.29 0.42 0.81 3.57e-43
6.38 0.42 0.64 9.1477e-41
6.37 0.42 0.77 9.1477e-41
6.43 0.42 0.76 9.1477e-41
4.93 0.48 0.69 3.57e-43
4.97 0.48 0.75 9.1477e-41
5.01 0.48 0.78 9.1477e-41
5.05 0.48 0.81 9.1477e-41
5.09 0.48 0.81 3.57e-43
5.14 0.48 0.81 3.57e-43
5.19 0.48 0.81 3.57e-43
5.27 0.48 0.81 3.57e-43
5.32 0.48 0.81 3.57e-43
5.39 0.48 0.81 3.57e-43
5.43 0.48 0.81 3.57e-43
5.48 0.48 0.81 3.57e-43
5.63 0.48 0.81 3.57e-43
5.7 0.48 0.81 3.57e-43
5.79 0.48 0.81 3.57e-43
5.63 0.48 0.81 3.57e-43
5.68 0.48 0.81 3.57e-43
5.72 0.48 0.81 3.57e-43
5.77 0.48 0.81 3.57e-43
5.83 0.48 0.81 3.57e-43
6.14 0.48 0.81 3.57e-43
6.01 0.48 0.81 3.57e-43
6.26 0.48 0.81 3.57e-43
6.3 0.48 0.81 3.57e-43
6.37 0.48 0.81 3.57e-43
6.17 0.48 0.81 3.57e-43
6.22 0.48 0.81 3.57e-43
6.28 0.48 0.81 3.57e-43
6.29 0.48 0.81 3.57e-43
6.38 0.48 0.64 9.1477e-41
6.36 0.48 0.79 9.1477e-41
6.41 0.48 0.8 9.1477e-41
6.52 0.48 0.68 9.1477e-41
4.93 0.54 0.69 9.1477e-41
4.96 0.54 0.8 9.1477e-41
5 0.54 0.82 9.1477e-41
5.05 0.54 0.82 3.57e-43
5.09 0.54 0.82 3.57e-43
5.14 0.54 0.82 3.57e-43
5.19 0.54 0.82 3.57e-43
5.27 0.54 0.82 3.57e-43
5.32 0.54 0.82 3.57e-43
5.39 0.54 0.82 3.57e-43
5.43 0.54 0.82 3.57e-43
5.48 0.54 0.82 3.57e-43
5.63 0.54 0.82 3.57e-43
5.7 0.54 0.82 3.57e-43
5.79 0.54 0.82 3.57e-43
5.63 0.54 0.82 3.57e-43
5.68 0.54 0.82 3.57e-43
5.72 0.54 0.82 3.57e-43
5.77 0.54 0.82 3.57e-43
5.83 0.54 0.82 3.57e-43
6.14 0.54 0.82 3.57e-43
6.01 0.54 0.82 3.57e-43
6.26 0.54 0.82 3.57e-43
6.3 0.54 0.82 3.57e-43
6.37 0.54 0.82 3.57e-43
6.17 0.54 0.82 3.57e-43
6.22 0.54 0.82 3.57e-43
6.28 0.54 0.82 3.57e-43
6.29 0.54 0.82 3.57e-43
6.38 0.54 0.82 3.57e-43
6.36 0.54 0.79 9.1477e-41
6.42 0.54 0.79 9.1477e-41
6.48 0.54 0.77 9.1477e-41
4.93 0.6 0.69 9.1477e-41
4.95 0.6 0.83 9.1477e-41
5 0.6 0.84 9.1477e-41
5.04 0.6 0.84 3.57e-43
5.09 0.6 0.84 3.57e-43
5.14 0.6 0.84 3.57e-43
5.19 0.6 0.84 3.57e-43
5.27 0.6 0.84 3.57e-43
5.32 0.6 0.84 3.57e-43
5.39 0.6 0.84 3.57e-43
5.43 0.6 0.84 3.57e-43
5.48 0.6 0.84 3.57e-43
5.63 0.6 0.84 3.57e-43
5.7 0.6 0.84 3.57e-43
5.79 0.6 0.84 3.57e-43
5.63 0.6 0.84 3.57e-43
5.68 0.6 0.84 3.57e-43
5.72 0.6 0.84 3.57e-43
5.77 0.6 0.84 3.57e-43
5.83 0.6 0.84 3.57e-43
6.14 0.6 0.84 3.57e-43
6.01 0.6 0.84 3.57e-43
6.26 0.6 0.84 3.57e-43
6.3 0.6 0.84 3.57e-43
6.37 0.6 0.84 3.57e-43
6.17 0.6 0.84 3.57e-43
6.22 0.6 0.84 3.57e-43
6.28 0.6 0.84 3.57e-43
6.29 0.6 0.84 3.57e-43
6.38 0.6 0.84 3.57e-43
6.36 0.6 0.84 3.57e-43
6.42 0.6 0.79 9.1477e-41
6.46 0.6 0.81 9.1477e-41
4.93 0.66 0.83 3.57e-43
5 0.66 0.85 9.1477e-41
5.03 0.66 0.85 3.57e-43
5.09 0.66 0.85 3.57e-43
5.14 0.66 0.85 3.57e-43
5.19 0.66 0.85 3.57e-43
5.27 0.66 0.85 3.57e-43
5.32 0.66 0.85 3.57e-43
5.39 0.66 0.85 3.57e-43
5.43 0.66 0.85 3.57e-43
5.48 0.66 0.85 3.57e-43
5.63 0.66 0.85 3.57e-43
5.7 0.66 0.85 3.57e-43
5.79 0.66 0.85 3.57e-43
5.63 0.66 0.85 3.57e-43
5.68 0.66 0.85 3.57e-43
5.72 0.66 0.85 3.57e-43
5.77 0.66 0.85 3.57e-43
5.83 0.66 0.85 3.57e-43
6.14 0.66 0.85 3.57e-43
6.01 0.66 0.85 3.57e-43
6.26 0.66 0.85 3.57e-43
6.3 0.66 0.85 3.57e-43
6.37 0.66 0.85 3.57e-43
6.17 0.66 0.85 3.57e-43
6.22 0.66 0.85 3.57e-43
6.28 0.66 0.85 3.57e-43
6.29 0.66 0.85 3.57e-43
6.38 0.66 0.85 3.57e-43
6.36 0.66 0.85 3.57e-43
6.42 0.66 0.85 3.57e-43
6.46 0.66 0.81 9.1477e-41
4.93 0.72 0.83 3.57e-43
4.99 0.72 0.87 9.1477e-41
5.03 0.72 0.87 3.57e-43
5.09 0.72 0.81 9.1477e-41
5.11 0.72 0.94 9.1477e-41
5.16 0.72 0.94 3.57e-43
5.27 0.72 0.94 3.57e-43
5.32 0.72 0.94 3.57e-43
5.39 0.72 0.94 3.57e-43
5.43 0.72 0.55 9.1477e-41
5.38 0.72 0.95 9.1477e-41
5.42 0.72 0.95 9.1477e-41
5.47 0.72 0.95 9.1477e-41
5.52 0.72 0.94 9.1477e-41
5.56 0.72 0.93 9.1477e-41
5.61 0.72 0.94 9.1477e-41
5.66 0.72 0.93 9.1477e-41
5.7 0.72 0.95 9.1477e-41
5.76 0.72 0.92 9.1477e-41
5.8 0.72 0.93 9.1477e-41
5.85 0.72 0.92 9.1477e-41
5.9 0.72 0.92 9.1477e-41
5.95 0.72 0.92 3.57e-43
6.37 0.72 0.92 3.57e-43
6.17 0.72 0.92 3.57e-43
6.22 0.72 0.92 3.57e-43
6.28 0.72 0.92 3.57e-43
6.29 0.72 0.92 3.57e-43
6.38 0.72 0.92 3.57e-43
6.36 0.72 0.92 3.57e-43
6.42 0.72 0.92 3.57e-43
6.46 0.72 0.81 9.1477e-41
4.93 0.78 0.83 3.57e-43
4.99 0.78 0.83 3.57e-43
5.03 0.78 0.83 3.57e-43
5.07 0.78 0.94 3.57e-43
5.11 0.78 0.93 3.57e-43
5.16 0.78 0.93 9.1477e-41
5.2 0.78 0.93 9.1477e-41
5.25 0.78 0.93 9.1477e-41
5.29 0.78 0.94 9.1477e-41
5.33 0.78 0.93 9.1477e-41
5.38 0.78 0.93 9.1477e-41
5.42 0.78 0.94 9.1477e-41
5.46 0.78 0.95 9.1477e-41
5.51 0.78 0.96 9.1477e-41
5.56 0.78 0.94 9.1477e-41
5.6 0.78 0.96 9.1477e-41
5.65 0.78 0.96 9.1477e-41
5.69 0.78 0.97 9.1477e-41
5.74 0.78 0.96 9.1477e-41
5.79 0.78 0.97 9.1477e-41
5.84 0.78 0.96 9.1477e-41
5.89 0.78 0.94 9.1477e-41
5.94 0.78 0.95 9.1477e-41
5.99 0.78 0.94 9.1477e-41
6.05 0.78 0.92 9.1477e-41
6.1 0.78 0.92 9.1477e-41
6.16 0.78 0.9 9.1477e-41
6.22 0.78 0.9 3.57e-43
6.38 0.78 0.9 3.57e-43
6.36 0.78 0.9 3.57e-43
6.42 0.78 0.9 3.57e-43
6.46 0.78 0.81 9.1477e-41
5.07 0.84 0.94 3.57e-43
5.11 0.84 0.93 9.1477e-41
5.16 0.84 0.92 9.1477e-41
5.2 0.84 0.92 9.1477e-41
5.24 0.84 0.95 9.1477e-41
5.29 0.84 0.95 3.57e-43
5.33 0.84 0.93 9.1477e-41
5.37 0.84 0.93 3.57e-43
5.42 0.84 0.93 3.57e-43
5.46 0.84 0.93 3.57e-43
5.51 0.84 0.93 3.57e-43
5.56 0.84 0.93 3.57e-43
5.6 0.84 0.93 3.57e-43
5.65 0.84 0.93 3.57e-43
5.69 0.84 0.93 3.57e-43
5.74 0.84 0.93 3.57e-43
5.79 0.84 0.93 3.57e-43
5.84 0.84 0.93 3.57e-43
5.89 0.84 0.93 3.57e-43
5.94 0.84 0.93 3.57e-43
5.99 0.84 0.93 3.57e-43
6.05 0.84 0.92 9.1477e-41
6.08 0.84 0.96 9.1477e-41
6.14 0.84 0.94 9.1477e-41
6.19 0.84 0.94 9.1477e-41
6.25 0.84 0.92 9.1477e-41
6.31 0.84 0.92 3.57e-43
6.42 0.84 0.92 3.57e-43
6.46 0.84 0.92 3.57e-43
4.89 0.9 0.89 3.57e-43
5.07 0.9 0.94 9.1477e-41
5.11 0.9 0.94 3.57e-43
5.16 0.9 0.94 3.57e-43
5.2 0.9 0.92 9.1477e-41
5.23 0.9 0.99 9.1477e-41
5.27 0.9 0.99 3.57e-43
5.33 0.9 0.99 3.57e-43
5.37 0.9 0.99 3.57e-43
5.42 0.9 0.99 3.57e-43
5.46 0.9 0.99 3.57e-43
5.51 0.9 0.99 3.57e-43
5.56 0.9 0.99 3.57e-43
5.6 0.9 0.99 3.57e-43
5.65 0.9 0.99 3.57e-43
5.69 0.9 0.99 3.57e-43
5.74 0.9 0.99 3.57e-43
5.79 0.9 0.99 3.57e-43
5.84 0.9 0.99 3.57e-43
5.89 0.9 0.99 3.57e-43
5.94 0.9 0.99 3.57e-43
5.99 0.9 0.99 3.57e-43
6.05 0.9 0.99 3.57e-43
6.08 0.9 0.99 3.57e-43
6.14 0.9 0.99 3.57e-43
6.19 0.9 0.99 3.57e-43
6.25 0.9 0.99 3.57e-43
6.31 0.9 0.91 9.1477e-41
6.36 0.9 0.91 9.1477e-41
6.42 0.9 0.91 3.57e-43
5.16 0.96 0.94 3.57e-43
5.18 0.96 1 9.1477e-41
5.23 0.96 0.99 9.1477e-41
5.28 0.96 0.99 3.57e-43
5.33 0.96 0.99 3.57e-43
5.37 0.96 0.99 3.57e-43
5.42 0.96 0.99 3.57e-43
5.46 0.96 0.99 3.57e-43
5.51 0.96 0.99 3.57e-43
5.56 0.96 0.99 3.57e-43
5.6 0.96 0.99 3.57e-43
5.65 0.96 0.99 3.57e-43
5.69 0.96 0.99 3.57e-43
5.74 0.96 0.99 3.57e-43
5.79 0.96 0.99 3.57e-43
5.84 0.96 0.99 3.57e-43
5.89 0.96 0.99 3.57e-43
5.94 0.96 0.99 3.57e-43
5.99 0.96 0.99 3.57e-43
6.05 0.96 0.99 3.57e-43
6.08 0.96 0.99 3.57e-43
6.14 0.96 0.99 3.57e-43
6.19 0.96 0.99 3.57e-43
6.25 0.96 0.99 3.57e-43
6.31 0.96 0.99 3.57e-43
6.36 0.96 0.91 9.1477e-41
6.4 0.96 0.93 9.1477e-41
6.45 0.96 0.94 9.1477e-41
4.93 1.02 0.94 3.57e-43
5.1 1.02 0.94 3.57e-43
5.16 1.02 0.94 3.57e-43
5.18 1.02 0.94 3.57e-43
5.23 1.02 0.94 3.57e-43
5.28 1.02 0.94 3.57e-43
5.33 1.02 0.94 3.57e-43
5.37 1.02 0.94 3.57e-43
5.42 1.02 0.94 3.57e-43
5.46 1.02 0.94 3.57e-43
5.51 1.02 0.94 3.57e-43
5.56 1.02 0.94 3.57e-43
5.6 1.02 0.94 3.57e-43
5.65 1.02 0.94 3.57e-43
5.69 1.02 0.94 3.57e-43
5.74 1.02 0.94 3.57e-43
5.79 1.02 0.94 3.57e-43
5.84 1.02 0.94 3.57e-43
5.89 1.02 0.94 3.57e-43
5.94 1.02 0.94 3.57e-43
5.99 1.02 0.94 9.1477e-41
6.01 1.02 1.02 9.1477e-41
6.05 1.02 1.03 9.1477e-41
6.1 1.02 1.03 3.57e-43
6.19 1.02 1.03 3.57e-43
6.25 1.02 1.03 3.57e-43
6.31 1.02 1.03 3.57e-43
6.36 1.02 1.03 3.57e-43
6.4 1.02 0.93 9.1477e-41
6.46 1.02 0.93 9.1477e-41
5.99 1.08 0.96 3.57e-43
6.01 1.08 1.03 9.1477e-41
6.05 1.08 1.04 9.1477e-41
6.1 1.08 1.04 9.1477e-41
6.14 1.08 1.04 3.57e-43
6.25 1.08 1.04 3.57e-43
6.31 1.08 1.04 3.57e-43
6.36 1.08 0.91 9.1477e-41
6.39 1.08 0.91 3.57e-43
6.46 1.08 0.93 9.1477e-41
4.88 1.14 1.01 3.57e-43
4.94 1.14 0.92 3.57e-43
4.98 1.14 0.93 3.57e-43
5.01 1.14 0.93 3.57e-43
5.07 1.14 0.93 3.57e-43
5.1 1.14 0.93 3.57e-43
5.16 1.14 0.93 3.57e-43
5.18 1.14 0.93 3.57e-43
5.23 1.14 0.93 3.57e-43
5.28 1.14 0.93 3.57e-43
5.33 1.14 0.93 3.57e-43
5.37 1.14 0.93 3.57e-43
5.42 1.14 0.93 3.57e-43
5.46 1.14 0.93 3.57e-43
5.51 1.14 0.93 3.57e-43
5.56 1.14 0.93 3.57e-43
5.6 1.14 0.96 9.1477e-41
5.63 1.14 0.96 3.57e-43
5.69 1.14 0.96 3.57e-43
5.74 1.14 0.96 3.57e-43
5.79 1.14 0.96 3.57e-43
5.84 1.14 0.96 3.57e-43
5.89 1.14 0.96 3.57e-43
5.94 1.14 0.96 3.57e-43
5.99 1.14 0.96 3.57e-43
6.01 1.14 0.96 3.57e-43
6.05 1.14 0.96 3.57e-43
6.1 1.14 0.96 3.57e-43
6.14 1.14 0.96 3.57e-43
6.25 1.14 0.96 3.57e-43
6.31 1.14 0.96 3.57e-43
6.36 1.14 0.91 9.1477e-41
6.38 1.14 0.98 9.1477e-41
6.41 1.14 1.04 9.1477e-41
4.88 1.2 1.01 3.57e-43
4.94 1.2 0.92 3.57e-43
4.98 1.2 0.93 3.57e-43
5.01 1.2 0.93 3.57e-43
5.07 1.2 0.93 3.57e-43
5.1 1.2 0.93 3.57e-43
5.16 1.2 0.93 3.57e-43
5.18 1.2 0.93 3.57e-43
5.23 1.2 0.93 3.57e-43
5.28 1.2 0.93 3.57e-43
5.33 1.2 0.93 3.57e-43
5.37 1.2 0.93 3.57e-43
5.42 1.2 0.93 3.57e-43
5.46 1.2 0.93 3.57e-43
5.51 1.2 0.93 3.57e-43
5.56 1.2 0.93 3.57e-43
5.6 1.2 0.96 9.1477e-41
5.65 1.2 0.94 9.1477e-41
5.7 1.2 0.94 9.1477e-41
5.75 1.2 0.94 9.1477e-41
5.8 1.2 0.94 9.1477e-41
5.83 1.2 0.94 3.57e-43
5.89 1.2 0.94 3.57e-43
5.94 1.2 0.94 3.57e-43
5.99 1.2 0.94 3.57e-43
6.01 1.2 0.94 3.57e-43
6.05 1.2 0.94 3.57e-43
6.1 1.2 0.94 3.57e-43
6.14 1.2 0.94 3.57e-43
6.25 1.2 0.94 3.57e-43
6.31 1.2 0.94 3.57e-43
6.36 1.2 0.94 3.57e-43
6.38 1.2 0.98 9.1477e-41
6.39 1.2 1.07 9.1477e-41
4.88 1.26 1.01 3.57e-43
4.94 1.26 0.92 3.57e-43
4.98 1.26 0.93 3.57e-43
5.01 1.26 0.93 3.57e-43
5.07 1.26 0.93 3.57e-43
5.1 1.26 0.93 3.57e-43
5.16 1.26 0.93 3.57e-43
5.18 1.26 0.93 3.57e-43
5.23 1.26 0.93 3.57e-43
5.28 1.26 0.93 3.57e-43
5.33 1.26 0.93 3.57e-43
5.37 1.26 0.93 3.57e-43
5.42 1.26 0.93 3.57e-43
5.46 1.26 0.93 3.57e-43
5.51 1.26 0.93 3.57e-43
5.56 1.26 0.93 3.57e-43
5.6 1.26 0.96 9.1477e-41
5.65 1.26 0.94 9.1477e-41
5.7 1.26 0.94 9.1477e-41
5.75 1.26 0.93 9.1477e-41
5.8 1.26 0.94 9.1477e-41
5.84 1.26 0.94 3.57e-43
5.89 1.26 0.94 3.57e-43
5.94 1.26 0.94 3.57e-43
5.99 1.26 0.94 3.57e-43
6.01 1.26 0.94 3.57e-43
6.05 1.26 0.94 3.57e-43
6.1 1.26 0.94 3.57e-43
6.14 1.26 0.94 3.57e-43
6.25 1.26 0.94 3.57e-43
6.31 1.26 0.94 3.57e-43
6.36 1.26 0.94 3.57e-43
6.38 1.26 0.98 9.1477e-41
6.38 1.26 1.09 9.1477e-41
4.87 1.32 0.53 9.1477e-41
4.84 1.32 1.01 9.1477e-41
4.88 1.32 1.01 9.1477e-41
4.94 1.32 0.92 9.1477e-41
4.98 1.32 0.93 9.1477e-41
5.01 1.32 0.93 3.57e-43
5.07 1.32 0.93 3.57e-43
5.1 1.32 0.93 3.57e-43
5.16 1.32 0.93 3.57e-43
5.18 1.32 0.93 3.57e-43
5.23 1.32 0.93 3.57e-43
5.28 1.32 0.93 3.57e-43
5.33 1.32 0.93 3.57e-43
5.37 1.32 0.93 3.57e-43
5.42 1.32 0.93 3.57e-43
5.46 1.32 0.93 3.57e-43
5.51 1.32 0.93 3.57e-43
5.56 1.32 0.93 3.57e-43
5.6 1.32 0.93 3.57e-43
5.65 1.32 0.93 3.57e-43
5.7 1.32 0.94 9.1477e-41
5.76 1.32 0.94 3.57e-43
5.8 1.32 0.94 3.57e-43
5.84 1.32 0.94 3.57e-43
5.89 1.32 0.94 3.57e-43
5.94 1.32 0.94 3.57e-43
5.99 1.32 0.94 3.57e-43
6.01 1.32 0.94 3.57e-43
6.05 1.32 0.94 3.57e-43
6.1 1.32 0.94 3.57e-43
6.14 1.32 0.94 3.57e-43
6.25 1.32 0.94 3.57e-43
6.31 1.32 0.94 3.57e-43
6.36 1.32 0.94 3.57e-43
6.38 1.32 0.94 3.57e-43
6.38 1.32 0.94 3.57e-43
6.55 1.32 0.94 3.57e-43
4.88 1.38 0.55 3.57e-43
4.94 1.38 0.92 3.57e-43
4.98 1.38 0.92 3.57e-43
5.01 1.38 0.92 3.57e-43
5.07 1.38 0.94 3.57e-43
5.19 1.38 0.56 3.57e-43
5.24 1.38 0.56 3.57e-43
5.18 1.38 0.56 3.57e-43
5.23 1.38 0.56 3.57e-43
5.28 1.38 0.98 3.57e-43
5.33 1.38 0.93 3.57e-43
5.28 1.38 0.93 3.57e-43
5.42 1.38 0.93 3.57e-43
5.46 1.38 0.93 3.57e-43
5.51 1.38 0.93 3.57e-43
5.56 1.38 0.94 9.1477e-41
5.74 1.38 0.94 3.57e-43
5.65 1.38 0.94 3.57e-43
5.7 1.38 0.93 9.1477e-41
5.84 1.38 0.69 9.1477e-41
5.88 1.38 0.71 9.1477e-41
5.93 1.38 0.71 3.57e-43
5.89 1.38 0.71 3.57e-43
5.94 1.38 0.71 3.57e-43
5.99 1.38 0.71 3.57e-43
6.01 1.38 0.71 3.57e-43
6.05 1.38 0.71 3.57e-43
6.1 1.38 1.04 9.1477e-41
6.37 1.38 1.04 3.57e-43
6.25 1.38 1.04 3.57e-43
6.31 1.38 1.04 3.57e-43
6.36 1.38 1.04 3.57e-43
6.38 1.38 1.04 3.57e-43
6.38 1.38 1.04 3.57e-43
6.6 1.38 0.88 9.1477e-41
6.6 1.38 0.97 9.1477e-41
6.63 1.38 1.01 9.1477e-41
4.88 1.44 0.55 3.57e-43
4.94 1.44 0.92 3.57e-43
4.98 1.44 0.92 3.57e-43
5.01 1.44 0.92 3.57e-43
5.07 1.44 0.94 3.57e-43
5.19 1.44 0.56 3.57e-43
5.24 1.44 0.56 3.57e-43
5.18 1.44 0.56 3.57e-43
5.23 1.44 0.56 3.57e-43
5.28 1.44 0.98 3.57e-43
5.33 1.44 0.93 3.57e-43
5.28 1.44 0.93 3.57e-43
5.42 1.44 0.93 3.57e-43
5.46 1.44 0.93 3.57e-43
5.51 1.44 0.93 3.57e-43
5.56 1.44 0.93 3.57e-43
5.74 1.44 0.51 3.57e-43
5.53 1.44 1.31 3.57e-43
5.57 1.44 1.31 3.57e-43
5.84 1.44 0.69 9.1477e-41
5.87 1.44 0.73 9.1477e-41
5.91 1.44 0.73 3.57e-43
5.89 1.44 0.73 3.57e-43
5.94 1.44 0.73 3.57e-43
5.99 1.44 0.73 3.57e-43
6.01 1.44 0.73 3.57e-43
6.05 1.44 0.73 3.57e-43
6.1 1.44 0.73 3.57e-43
6.37 1.44 0.73 3.57e-43
6.25 1.44 0.73 3.57e-43
6.31 1.44 0.73 3.57e-43
6.36 1.44 0.73 3.57e-43
6.38 1.44 0.98 9.1477e-41
6.31 1.44 0.98 3.57e-43
4.88 1.5 0.55 3.57e-43
4.94 1.5 0.92 3.57e-43
4.98 1.5 0.92 3.57e-43
5.01 1.5 0.92 3.57e-43
5.07 1.5 0.94 3.57e-43
5.19 1.5 0.56 3.57e-43
5.24 1.5 0.56 3.57e-43
5.18 1.5 0.56 3.57e-43
5.23 1.5 0.56 3.57e-43
5.28 1.5 0.98 3.57e-43
5.33 1.5 0.93 9.1477e-41
5.28 1.5 0.93 3.57e-43
5.42 1.5 0.93 3.57e-43
5.46 1.5 0.93 3.57e-43
5.51 1.5 0.93 3.57e-43
5.56 1.5 0.93 3.57e-43
5.74 1.5 0.51 9.1477e-41
5.53 1.5 1.31 9.1477e-41
5.57 1.5 1.31 3.57e-43
5.84 1.5 1.31 3.57e-43
5.87 1.5 1.31 3.57e-43
5.91 1.5 1.31 3.57e-43
5.89 1.5 1.31 3.57e-43
5.94 1.5 1.31 3.57e-43
5.99 1.5 1.31 3.57e-43
6.01 1.5 1.31 3.57e-43
6.05 1.5 1.31 3.57e-43
6.1 1.5 1.31 3.57e-43
6.37 1.5 1.31 3.57e-43
6.25 1.5 1.31 3.57e-43
6.31 1.5 1.31 3.57e-43
6.36 1.5 1.31 3.57e-43
6.38 1.5 1.31 3.57e-43
6.31 1.5 1.31 3.57e-43
4.88 1.56 0.55 3.57e-43
4.94 1.56 0.92 3.57e-43
4.98 1.56 0.92 3.57e-43
5.01 1.56 0.92 3.57e-43
5.07 1.56 0.94 3.57e-43
5.19 1.56 0.56 3.57e-43
5.24 1.56 0.56 3.57e-43
5.18 1.56 0.56 3.57e-43
5.23 1.56 0.56 3.57e-43
5.28 1.56 0.98 3.57e-43
5.33 1.56 0.93 9.1477e-41
5.5 1.56 0.5 9.1477e-41
5.54 1.56 0.5 3.57e-43
5.46 1.56 0.5 3.57e-43
5.51 1.56 0.5 3.57e-43
5.56 1.56 0.5 3.57e-43
5.74 1.56 0.5 3.57e-43
5.53 1.56 0.5 3.57e-43
5.57 1.56 0.5 3.57e-43
5.84 1.56 0.5 3.57e-43
5.87 1.56 0.5 3.57e-43
5.91 1.56 0.5 3.57e-43
5.89 1.56 0.5 3.57e-43
5.94 1.56 0.5 3.57e-43
5.99 1.56 0.5 3.57e-43
6.01 1.56 0.5 3.57e-43
6.05 1.56 0.5 3.57e-43
6.1 1.56 0.5 3.57e-43
6.37 1.56 0.5 3.57e-43
6.25 1.56 0.5 3.57e-43
6.31 1.56 0.5 3.57e-43
6.36 1.56 0.5 3.57e-43
6.38 1.56 0.5 3.57e-43
6.31 1.56 0.5 3.57e-43
4.88 1.62 0.55 3.57e-43
4.94 1.62 0.92 3.57e-43
4.98 1.62 0.92 3.57e-43
5.01 1.62 0.92 3.57e-43
5.07 1.62 0.94 9.1477e-41
5.19 1.62 0.56 9.1477e-41
5.24 1.62 0.56 3.57e-43
5.18 1.62 0.56 3.57e-43
5.23 1.62 0.56 3.57e-43
5.28 1.62 0.98 9.1477e-41
5.22 1.62 1.36 9.1477e-41
5.26 1.62 1.36 3.57e-43
5.54 1.62 1.36 3.57e-43
5.46 1.62 1.36 3.57e-43
5.51 1.62 1.36 3.57e-43
5.56 1.62 1.36 3.57e-43
5.74 1.62 1.36 3.57e-43
5.53 1.62 1.36 3.57e-43
5.57 1.62 1.36 3.57e-43
5.84 1.62 1.36 3.57e-43
5.87 1.62 1.36 3.57e-43
5.91 1.62 1.36 3.57e-43
5.89 1.62 1.36 3.57e-43
5.94 1.62 1.36 3.57e-43
5.99 1.62 1.36 3.57e-43
6.01 1.62 1.36 3.57e-43
6.05 1.62 1.36 3.57e-43
6.1 1.62 1.36 3.57e-43
6.37 1.62 1.36 3.57e-43
6.25 1.62 1.36 3.57e-43
6.31 1.62 1.36 3.57e-43
6.36 1.62 1.36 3.57e-43
6.38 1.62 1.36 3.57e-43
6.31 1.62 1.36 3.57e-43
4.88 1.68 0.55 3.57e-43
4.94 1.68 0.92 3.57e-43
4.98 1.68 0.92 3.57e-43
5.01 1.68 0.92 3.57e-43
5.07 1.68 0.94 9.1477e-41
5.19 1.68 0.55 9.1477e-41
5.24 1.68 0.55 3.57e-43
5.18 1.68 0.55 3.57e-43
5.23 1.68 0.55 3.57e-43
5.28 1.68 0.98 9.1477e-41
5.22 1.68 1.38 9.1477e-41
5.26 1.68 1.38 9.1477e-41
5.3 1.68 1.38 9.1477e-41
5.34 1.68 1.38 3.57e-43
5.51 1.68 1.38 3.57e-43
5.56 1.68 1.38 3.57e-43
5.74 1.68 1.38 3.57e-43
5.53 1.68 1.38 3.57e-43
5.57 1.68 1.38 3.57e-43
5.84 1.68 1.38 3.57e-43
5.87 1.68 1.38 3.57e-43
5.91 1.68 1.38 3.57e-43
5.89 1.68 1.38 3.57e-43
5.94 1.68 1.38 3.57e-43
5.99 1.68 1.38 3.57e-43
6.01 1.68 1.38 3.57e-43
6.05 1.68 1.38 3.57e-43
6.1 1.68 1.38 3.57e-43
6.37 1.68 1.38 3.57e-43
6.25 1.68 1.38 3.57e-43
6.31 1.68 1.38 3.57e-43
6.36 1.68 1.38 3.57e-43
6.38 1.68 1.38 3.57e-43
6.31 1.68 1.22 9.1477e-41
6.29 1.68 1.35 9.1477e-41
4.88 1.74 0.55 3.57e-43
4.94 1.74 0.92 3.57e-43
4.98 1.74 0.92 3.57e-43
5.01 1.74 0.92 3.57e-43
5.07 1.74 0.94 9.1477e-41
5.2 1.74 0.53 9.1477e-41
5.25 1.74 0.52 9.1477e-41
5.3 1.74 0.52 3.57e-43
5.23 1.74 0.52 3.57e-43
5.28 1.74 0.98 9.1477e-41
5.22 1.74 1.39 9.1477e-41
5.25 1.74 1.4 9.1477e-41
5.3 1.74 1.39 9.1477e-41
5.34 1.74 1.4 9.1477e-41
5.38 1.74 1.4 3.57e-43
5.56 1.74 1.4 3.57e-43
5.74 1.74 1.4 3.57e-43
5.53 1.74 1.4 3.57e-43
5.57 1.74 1.4 3.57e-43
5.84 1.74 1.4 3.57e-43
5.87 1.74 1.4 3.57e-43
5.91 1.74 1.4 3.57e-43
5.89 1.74 1.4 3.57e-43
5.94 1.74 1.4 3.57e-43
5.99 1.74 1.4 3.57e-43
6.01 1.74 1.4 3.57e-43
6.05 1.74 1.4 3.57e-43
6.1 1.74 1.4 3.57e-43
6.37 1.74 1.4 3.57e-43
6.25 1.74 1.4 3.57e-43
6.31 1.74 1.4 3.57e-43
6.36 1.74 1.4 3.57e-43
6.38 1.74 1.4 3.57e-43
6.31 1.74 1.22 9.1477e-41
6.29 1.74 1.37 9.1477e-41
4.88 1.8 0.55 3.57e-43
4.94 1.8 0.92 9.1477e-41
4.98 1.8 0.92 3.57e-43
5.01 1.8 0.92 3.57e-43
5.07 1.8 0.92 3.57e-43
5.2 1.8 0.53 9.1477e-41
5.25 1.8 0.51 9.1477e-41
5.3 1.8 0.51 3.57e-43
5.23 1.8 0.51 3.57e-43
5.28 1.8 0.98 9.1477e-41
5.22 1.8 1.39 9.1477e-41
5.25 1.8 1.41 9.1477e-41
5.29 1.8 1.41 9.1477e-41
5.33 1.8 1.41 9.1477e-41
5.38 1.8 1.41 3.57e-43
5.56 1.8 0.93 9.1477e-41
5.46 1.8 0.93 3.57e-43
5.53 1.8 0.93 3.57e-43
5.57 1.8 0.93 3.57e-43
5.84 1.8 0.93 3.57e-43
5.87 1.8 0.93 3.57e-43
5.91 1.8 0.93 3.57e-43
5.89 1.8 0.93 3.57e-43
5.94 1.8 0.93 3.57e-43
5.99 1.8 0.93 3.57e-43
6.01 1.8 0.93 3.57e-43
6.05 1.8 0.93 3.57e-43
6.1 1.8 0.93 3.57e-43
6.37 1.8 0.93 3.57e-43
6.25 1.8 0.93 3.57e-43
6.31 1.8 0.93 3.57e-43
6.36 1.8 0.93 3.57e-43
6.38 1.8 0.93 3.57e-43
6.31 1.8 1.22 9.1477e-41
6.28 1.8 1.38 9.1477e-41
4.88 1.86 0.55 3.57e-43
4.94 1.86 0.92 9.1477e-41
4.98 1.86 0.92 3.57e-43
5.01 1.86 0.92 3.57e-43
5.07 1.86 0.92 3.57e-43
5.2 1.86 0.92 3.57e-43
5.25 1.86 0.92 3.57e-43
5.3 1.86 0.92 3.57e-43
5.23 1.86 0.92 3.57e-43
5.28 1.86 0.98 9.1477e-41
5.21 1.86 1.4 9.1477e-41
5.25 1.86 1.39 9.1477e-41
5.29 1.86 1.41 9.1477e-41
5.33 1.86 1.41 9.1477e-41
5.37 1.86 1.41 3.57e-43
5.56 1.86 0.94 9.1477e-41
5.45 1.86 0.94 3.57e-43
5.53 1.86 0.94 3.57e-43
5.57 1.86 0.94 3.57e-43
5.84 1.86 0.94 3.57e-43
5.87 1.86 0.94 3.57e-43
5.91 1.86 0.94 3.57e-43
5.89 1.86 0.94 3.57e-43
5.94 1.86 0.94 3.57e-43
5.99 1.86 0.94 3.57e-43
6.01 1.86 0.94 3.57e-43
6.05 1.86 0.94 3.57e-43
6.1 1.86 0.94 3.57e-43
6.37 1.86 0.94 3.57e-43
6.25 1.86 0.94 3.57e-43
6.31 1.86 0.94 3.57e-43
6.36 1.86 0.94 3.57e-43
6.38 1.86 0.94 3.57e-43
6.31 1.86 1.22 9.1477e-41
6.28 1.86 1.39 9.1477e-41
4.87 1.92 0.55 9.1477e-41
4.88 1.92 0.55 3.57e-43
4.88 1.92 0.55 3.57e-43
4.94 1.92 0.92 9.1477e-41
4.98 1.92 0.92 3.57e-43
5.01 1.92 0.92 3.57e-43
5.07 1.92 0.92 3.57e-43
5.2 1.92 0.92 3.57e-43
5.25 1.92 0.92 3.57e-43
5.3 1.92 0.92 3.57e-43
5.23 1.92 0.92 3.57e-43
5.28 1.92 0.98 9.1477e-41
5.21 1.92 1.4 9.1477e-41
5.25 1.92 1.4 9.1477e-41
5.29 1.92 1.42 9.1477e-41
5.33 1.92 1.43 9.1477e-41
5.37 1.92 1.44 9.1477e-41
5.41 1.92 1.43 9.1477e-41
5.45 1.92 1.43 3.57e-43
5.53 1.92 1.43 3.57e-43
5.57 1.92 1.43 3.57e-43
5.84 1.92 1.43 3.57e-43
5.87 1.92 1.43 3.57e-43
5.91 1.92 1.43 3.57e-43
5.89 1.92 1.43 3.57e-43
5.94 1.92 1.43 3.57e-43
5.99 1.92 1.43 3.57e-43
6.01 1.92 1.43 3.57e-43
6.05 1.92 1.43 3.57e-43
6.1 1.92 1.43 3.57e-43
6.37 1.92 1.43 3.57e-43
6.25 1.92 1.43 3.57e-43
6.31 1.92 1.43 3.57e-43
6.36 1.92 1.43 3.57e-43
6.38 1.92 1.43 3.57e-43
6.31 1.92 1.22 9.1477e-41
6.27 1.92 1.4 9.1477e-41
5.18 1.98 1.37 3.57e-43
5.21 1.98 1.41 9.1477e-41
5.25 1.98 1.41 9.1477e-41
5.29 1.98 1.42 9.1477e-41
5.33 1.98 1.43 9.1477e-41
5.37 1.98 1.44 9.1477e-41
5.41 1.98 1.44 3.57e-43
5.45 1.98 1.44 3.57e-43
5.53 1.98 1.44 3.57e-43
5.57 1.98 1.44 3.57e-43
5.84 1.98 1.44 3.57e-43
5.87 1.98 1.44 3.57e-43
5.91 1.98 1.44 3.57e-43
5.89 1.98 1.44 3.57e-43
5.94 1.98 1.44 3.57e-43
5.99 1.98 1.44 3.57e-43
6.01 1.98 1.44 3.57e-43
6.05 1.98 1.44 3.57e-43
6.1 1.98 1.44 3.57e-43
6.37 1.98 1.44 3.57e-43
6.25 1.98 1.44 3.57e-43
6.31 1.98 1.44 3.57e-43
6.36 1.98 1.44 3.57e-43
6.38 1.98 1.44 3.57e-43
6.31 1.98 1.22 9.1477e-41
6.27 1.98 1.41 9.1477e-41
5.18 2.04 1.37 3.57e-43
5.21 2.04 1.4 9.1477e-41
5.25 2.04 1.42 9.1477e-41
5.29 2.04 1.42 9.1477e-41
5.32 2.04 1.44 9.1477e-41
5.37 2.04 1.43 9.1477e-41
5.4 2.04 1.44 9.1477e-41
5.45 2.04 1.44 3.57e-43
5.53 2.04 1.44 3.57e-43
5.57 2.04 1.44 3.57e-43
5.84 2.04 1.44 3.57e-43
5.87 2.04 1.44 3.57e-43
5.91 2.04 1.44 3.57e-43
5.89 2.04 1.44 3.57e-43
5.94 2.04 1.44 3.57e-43
5.99 2.04 1.44 3.57e-43
6.01 2.04 1.44 3.57e-43
6.05 2.04 1.44 3.57e-43
6.1 2.04 1.44 3.57e-43
6.37 2.04 1.44 3.57e-43
6.25 2.04 1.44 3.57e-43
6.31 2.04 1.44 3.57e-43
6.36 2.04 1.44 3.57e-43
6.38 2.04 1.44 3.57e-43
6.31 2.04 1.22 9.1477e-41
6.26 2.04 1.42 9.1477e-41
4.87 2.1 0.92 3.57e-43
4.88 2.1 0.98 3.57e-43
5.01 2.1 1.01 3.57e-43
5.12 2.1 0.67 3.57e-43
5.16 2.1 0.71 3.57e-43
5.25 2.1 0.51 3.57e-43
5.13 2.1 0.51 3.57e-43
5.23 2.1 0.99 9.1477e-41
5.18 2.1 1.37 9.1477e-41
5.21 2.1 1.4 9.1477e-41
5.25 2.1 1.42 9.1477e-41
5.29 2.1 1.43 9.1477e-41
5.33 2.1 1.43 9.1477e-41
5.37 2.1 1.44 9.1477e-41
5.41 2.1 1.43 9.1477e-41
5.45 2.1 1.43 3.57e-43
5.53 2.1 1.43 3.57e-43
5.57 2.1 1.43 3.57e-43
5.84 2.1 1.43 3.57e-43
5.87 2.1 1.43 3.57e-43
5.91 2.1 1.43 3.57e-43
5.89 2.1 1.43 3.57e-43
5.94 2.1 1.43 3.57e-43
5.99 2.1 1.43 3.57e-43
6.01 2.1 1.43 3.57e-43
6.05 2.1 1.43 3.57e-43
6.1 2.1 1.43 3.57e-43
6.37 2.1 1.43 3.57e-43
6.25 2.1 1.43 3.57e-43
6.31 2.1 1.43 3.57e-43
6.36 2.1 1.43 3.57e-43
6.38 2.1 1.43 3.57e-43
6.31 2.1 1.22 9.1477e-41
6.26 2.1 1.42 9.1477e-41
4.87 2.16 0.92 3.57e-43
4.88 2.16 0.98 3.57e-43
5.01 2.16 1.01 3.57e-43
5.12 2.16 0.67 3.57e-43
5.16 2.16 0.71 3.57e-43
5.25 2.16 0.51 9.1477e-41
5.13 2.16 0.51 3.57e-43
5.23 2.16 0.51 3.57e-43
5.18 2.16 1.37 9.1477e-41
5.21 2.16 1.4 9.1477e-41
5.25 2.16 1.42 9.1477e-41
5.29 2.16 1.43 9.1477e-41
5.32 2.16 1.45 9.1477e-41
5.36 2.16 1.45 3.57e-43
5.41 2.16 1.45 3.57e-43
5.45 2.16 1.45 3.57e-43
5.53 2.16 1.45 3.57e-43
5.57 2.16 1.45 3.57e-43
5.84 2.16 1.45 3.57e-43
5.87 2.16 1.45 3.57e-43
5.91 2.16 1.45 3.57e-43
5.89 2.16 1.45 3.57e-43
5.94 2.16 1.45 3.57e-43
5.99 2.16 1.45 3.57e-43
6.01 2.16 1.45 3.57e-43
6.05 2.16 1.45 3.57e-43
6.1 2.16 1.45 3.57e-43
6.37 2.16 1.45 3.57e-43
6.25 2.16 1.45 3.57e-43
6.31 2.16 1.45 3.57e-43
6.36 2.16 1.45 3.57e-43
6.38 2.16 1.45 3.57e-43
6.31 2.16 1.22 9.1477e-41
6.27 2.16 1.41 9.1477e-41
4.87 2.22 0.92 3.57e-43
4.88 2.22 0.98 3.57e-43
5.01 2.22 1.01 3.57e-43
5.12 2.22 0.67 3.57e-43
5.16 2.22 0.71 3.57e-43
5.2 2.22 0.72 3.57e-43
5.24 2.22 0.72 3.57e-43
5.23 2.22 0.72 3.57e-43
5.18 2.22 1.37 9.1477e-41
5.21 2.22 1.4 9.1477e-41
5.25 2.22 1.42 9.1477e-41
5.29 2.22 1.42 9.1477e-41
5.32 2.22 1.44 9.1477e-41
5.36 2.22 1.44 9.1477e-41
5.4 2.22 1.44 3.57e-43
5.45 2.22 1.44 3.57e-43
5.53 2.22 1.44 3.57e-43
5.57 2.22 1.44 3.57e-43
5.84 2.22 1.44 3.57e-43
5.87 2.22 1.44 3.57e-43
5.91 2.22 1.44 3.57e-43
5.89 2.22 1.44 3.57e-43
5.94 2.22 1.44 3.57e-43
5.99 2.22 1.44 3.57e-43
6.01 2.22 1.44 3.57e-43
6.05 2.22 1.44 3.57e-43
6.1 2.22 1.44 3.57e-43
6.37 2.22 1.44 3.57e-43
6.25 2.22 1.44 3.57e-43
6.31 2.22 1.44 3.57e-43
6.36 2.22 1.44 3.57e-43
6.38 2.22 0.98 9.1477e-41
6.22 2.22 1.41 9.1477e-41
6.26 2.22 1.42 9.1477e-41
4.87 2.28 0.92 3.57e-43
4.88 2.28 0.98 3.57e-43
5.01 2.28 1.01 9.1477e-41
5.12 2.28 0.67 9.1477e-41
5.16 2.28 0.71 9.1477e-41
5.2 2.28 0.72 9.1477e-41
5.24 2.28 0.72 3.57e-43
5.23 2.28 0.72 3.57e-43
5.18 2.28 0.72 3.57e-43
5.21 2.28 1.4 9.1477e-41
5.25 2.28 1.42 9.1477e-41
5.28 2.28 1.44 9.1477e-41
5.32 2.28 1.44 9.1477e-41
5.37 2.28 1.44 9.1477e-41
5.4 2.28 1.44 9.1477e-41
5.45 2.28 1.44 3.57e-43
5.53 2.28 1.44 3.57e-43
5.57 2.28 1.44 3.57e-43
5.84 2.28 1.44 3.57e-43
5.87 2.28 1.44 3.57e-43
5.91 2.28 1.44 3.57e-43
5.89 2.28 1.44 3.57e-43
5.94 2.28 1.44 3.57e-43
5.99 2.28 1.44 3.57e-43
6.01 2.28 1.44 3.57e-43
6.05 2.28 1.44 3.57e-43
6.1 2.28 1.44 3.57e-43
6.37 2.28 1.44 3.57e-43
6.25 2.28 1.44 3.57e-43
6.31 2.28 1.44 3.57e-43
6.36 2.28 1.44 3.57e-43
6.38 2.28 0.98 9.1477e-41
6.22 2.28 1.41 9.1477e-41
6.27 2.28 1.41 9.1477e-41
4.87 2.34 0.92 3.57e-43
4.88 2.34 0.98 3.57e-43
5.01 2.34 1.01 9.1477e-41
5.11 2.34 0.72 9.1477e-41
5.16 2.34 0.73 9.1477e-41
5.2 2.34 0.75 9.1477e-41
5.24 2.34 0.75 3.57e-43
5.23 2.34 0.75 3.57e-43
5.18 2.34 0.75 3.57e-43
5.21 2.34 1.4 9.1477e-41
5.25 2.34 1.41 9.1477e-41
5.29 2.34 1.43 9.1477e-41
5.33 2.34 1.43 9.1477e-41
5.36 2.34 1.44 9.1477e-41
5.4 2.34 1.44 3.57e-43
5.45 2.34 1.44 9.1477e-41
5.49 2.34 1.44 3.57e-43
5.57 2.34 1.44 3.57e-43
5.84 2.34 1.44 3.57e-43
5.87 2.34 1.44 3.57e-43
5.91 2.34 1.44 3.57e-43
5.89 2.34 1.44 3.57e-43
5.94 2.34 1.44 3.57e-43
5.99 2.34 1.44 3.57e-43
6.01 2.34 1.44 3.57e-43
6.05 2.34 1.44 3.57e-43
6.1 2.34 1.44 3.57e-43
6.37 2.34 1.44 3.57e-43
6.25 2.34 1.44 3.57e-43
6.31 2.34 1.44 3.57e-43
6.36 2.34 1.44 3.57e-43
6.38 2.34 0.98 9.1477e-41
6.22 2.34 1.41 9.1477e-41
6.27 2.34 1.41 9.1477e-41
4.87 2.4 0.92 3.57e-43
4.88 2.4 0.98 3.57e-43
5.01 2.4 1.01 9.1477e-41
5.11 2.4 0.72 9.1477e-41
5.16 2.4 0.72 9.1477e-41
5.21 2.4 0.68 9.1477e-41
5.26 2.4 0.7 9.1477e-41
5.29 2.4 0.7 3.57e-43
5.18 2.4 0.7 3.57e-43
5.21 2.4 1.4 9.1477e-41
5.25 2.4 1.42 9.1477e-41
5.29 2.4 1.42 9.1477e-41
5.33 2.4 1.43 9.1477e-41
5.37 2.4 1.44 9.1477e-41
5.41 2.4 1.43 9.1477e-41
5.45 2.4 1.43 3.57e-43
5.49 2.4 1.43 3.57e-43
5.57 2.4 1.43 3.57e-43
5.84 2.4 1.43 3.57e-43
5.87 2.4 1.43 3.57e-43
5.91 2.4 1.43 3.57e-43
5.89 2.4 1.43 3.57e-43
5.94 2.4 1.43 3.57e-43
5.99 2.4 1.43 3.57e-43
6.01 2.4 1.43 3.57e-43
6.05 2.4 1.43 3.57e-43
6.1 2.4 1.43 3.57e-43
6.37 2.4 1.43 3.57e-43
6.25 2.4 1.43 3.57e-43
6.31 2.4 1.43 3.57e-43
6.36 2.4 1.43 3.57e-43
6.38 2.4 0.98 9.1477e-41
6.22 2.4 1.41 9.1477e-41
6.28 2.4 1.38 9.1477e-41
4.87 2.46 0.92 3.57e-43
4.88 2.46 0.98 3.57e-43
5.01 2.46 1.01 9.1477e-41
5.12 2.46 0.68 9.1477e-41
5.17 2.46 0.68 9.1477e-41
5.21 2.46 0.69 9.1477e-41
5.26 2.46 0.69 9.1477e-41
5.29 2.46 0.76 9.1477e-41
5.35 2.46 0.76 3.57e-43
5.21 2.46 1.41 9.1477e-41
5.25 2.46 1.41 9.1477e-41
5.29 2.46 1.43 9.1477e-41
5.33 2.46 1.43 9.1477e-41
5.37 2.46 1.44 9.1477e-41
5.41 2.46 1.44 3.57e-43
5.45 2.46 1.44 3.57e-43
5.49 2.46 1.44 3.57e-43
5.57 2.46 1.44 3.57e-43
5.84 2.46 1.44 3.57e-43
5.87 2.46 1.44 3.57e-43
5.91 2.46 1.44 3.57e-43
5.89 2.46 1.44 3.57e-43
5.94 2.46 1.44 3.57e-43
5.99 2.46 1.44 3.57e-43
6.01 2.46 1.44 3.57e-43
6.05 2.46 1.44 3.57e-43
6.1 2.46 1.44 3.57e-43
6.37 2.46 1.44 3.57e-43
6.25 2.46 1.44 3.57e-43
6.31 2.46 1.44 3.57e-43
6.36 2.46 1.44 3.57e-43
6.38 2.46 0.98 9.1477e-41
6.22 2.46 1.41 9.1477e-41
6.29 2.46 1.36 9.1477e-41
4.87 2.52 0.92 3.57e-43
4.88 2.52 0.98 3.57e-43
5.01 2.52 1.01 9.1477e-41
5.12 2.52 0.67 9.1477e-41
5.17 2.52 0.64 9.1477e-41
5.22 2.52 0.66 9.1477e-41
5.27 2.52 0.66 3.57e-43
5.29 2.52 0.66 3.57e-43
5.35 2.52 0.66 3.57e-43
5.21 2.52 1.41 9.1477e-41
5.25 2.52 1.39 9.1477e-41
5.29 2.52 1.42 9.1477e-41
5.33 2.52 1.42 9.1477e-41
5.37 2.52 1.44 9.1477e-41
5.41 2.52 1.44 3.57e-43
5.45 2.52 1.44 3.57e-43
5.49 2.52 1.44 3.57e-43
5.57 2.52 1.44 3.57e-43
5.84 2.52 1.44 3.57e-43
5.87 2.52 1.44 3.57e-43
5.91 2.52 1.44 3.57e-43
5.89 2.52 1.44 3.57e-43
5.94 2.52 1.44 3.57e-43
5.99 2.52 1.44 3.57e-43
6.01 2.52 1.44 3.57e-43
6.05 2.52 1.44 3.57e-43
6.1 2.52 1.44 3.57e-43
6.37 2.52 1.44 3.57e-43
6.25 2.52 1.44 3.57e-43
6.31 2.52 1.44 3.57e-43
6.36 2.52 1.44 3.57e-43
6.38 2.52 0.98 9.1477e-41
6.22 2.52 1.41 9.1477e-41
6.27 2.52 1.41 9.1477e-41
4.88 2.58 0.98 3.57e-43
5.01 2.58 0.98 3.57e-43
5.12 2.58 0.98 3.57e-43
5.17 2.58 0.64 9.1477e-41
5.24 2.58 0.58 9.1477e-41
5.27 2.58 0.58 3.57e-43
5.29 2.58 0.58 3.57e-43
5.35 2.58 0.58 3.57e-43
5.21 2.58 1.41 9.1477e-41
5.25 2.58 1.4 9.1477e-41
5.29 2.58 1.41 9.1477e-41
5.33 2.58 1.43 9.1477e-41
5.37 2.58 1.42 9.1477e-41
5.41 2.58 1.41 9.1477e-41
5.45 2.58 1.41 3.57e-43
5.49 2.58 1.41 3.57e-43
5.57 2.58 1.41 3.57e-43
5.84 2.58 1.41 3.57e-43
5.87 2.58 1.41 3.57e-43
5.91 2.58 1.41 3.57e-43
5.89 2.58 1.41 3.57e-43
5.94 2.58 1.41 3.57e-43
5.99 2.58 1.41 3.57e-43
6.01 2.58 1.41 3.57e-43
6.05 2.58 1.41 3.57e-43
6.1 2.58 1.41 3.57e-43
6.37 2.58 1.41 3.57e-43
6.25 2.58 1.41 3.57e-43
6.31 2.58 1.41 3.57e-43
6.36 2.58 1.41 3.57e-43
6.38 2.58 0.98 9.1477e-41
6.23 2.58 0.98 3.57e-43
6.27 2.58 1.41 9.1477e-41
4.88 2.64 0.98 3.57e-43
5.01 2.64 0.98 3.57e-43
5.12 2.64 0.98 3.57e-43
5.17 2.64 0.64 9.1477e-41
5.23 2.64 0.6 9.1477e-41
5.26 2.64 0.6 3.57e-43
5.29 2.64 0.6 3.57e-43
5.35 2.64 0.6 3.57e-43
5.21 2.64 1.41 9.1477e-41
5.25 2.64 1.4 9.1477e-41
5.29 2.64 1.4 9.1477e-41
5.33 2.64 1.41 9.1477e-41
5.37 2.64 1.42 9.1477e-41
5.41 2.64 1.42 3.57e-43
5.45 2.64 1.42 3.57e-43
5.49 2.64 1.42 3.57e-43
5.57 2.64 1.42 3.57e-43
5.84 2.64 1.42 3.57e-43
5.87 2.64 1.42 3.57e-43
5.91 2.64 1.42 3.57e-43
5.89 2.64 1.42 3.57e-43
5.94 2.64 1.42 3.57e-43
5.99 2.64 1.42 3.57e-43
6.01 2.64 1.42 3.57e-43
6.05 2.64 1.42 3.57e-43
6.1 2.64 1.42 3.57e-43
6.37 2.64 1.42 3.57e-43
6.25 2.64 1.42 3.57e-43
6.31 2.64 1.42 3.57e-43
6.36 2.64 1.42 3.57e-43
6.38 2.64 0.98 9.1477e-41
6.23 2.64 1.39 9.1477e-41
4.88 2.7 0.6 3.57e-43
5.27 2.7 0.62 9.1477e-41
5.31 2.7 0.62 3.57e-43
5.35 2.7 0.62 3.57e-43
5.21 2.7 1.41 9.1477e-41
5.26 2.7 1.38 9.1477e-41
5.29 2.7 1.4 9.1477e-41
5.34 2.7 1.4 9.1477e-41
5.38 2.7 1.4 3.57e-43
5.41 2.7 1.4 3.57e-43
5.45 2.7 1.4 3.57e-43
5.49 2.7 1.4 3.57e-43
5.57 2.7 1.4 3.57e-43
5.84 2.7 1.4 3.57e-43
5.87 2.7 1.4 3.57e-43
5.91 2.7 1.4 3.57e-43
5.89 2.7 1.4 3.57e-43
5.94 2.7 1.4 3.57e-43
5.99 2.7 1.4 3.57e-43
6.01 2.7 1.4 3.57e-43
6.05 2.7 1.4 3.57e-43
6.1 2.7 1.4 3.57e-43
6.37 2.7 1.4 3.57e-43
6.25 2.7 1.4 3.57e-43
6.31 2.7 1.4 3.57e-43
6.36 2.7 1.4 3.57e-43
6.38 2.7 0.98 9.1477e-41
6.23 2.7 1.4 9.1477e-41
5.23 2.76 1.33 3.57e-43
5.26 2.76 1.37 9.1477e-41
5.3 2.76 1.39 9.1477e-41
5.34 2.76 1.4 9.1477e-41
5.38 2.76 1.4 3.57e-43
5.41 2.76 1.4 3.57e-43
5.45 2.76 1.4 3.57e-43
5.49 2.76 1.4 3.57e-43
5.57 2.76 1.4 3.57e-43
5.84 2.76 1.4 3.57e-43
5.87 2.76 1.4 3.57e-43
5.91 2.76 1.4 3.57e-43
5.89 2.76 0.94 9.1477e-41
5.75 2.76 0.94 3.57e-43
5.99 2.76 0.94 3.57e-43
6.01 2.76 0.94 3.57e-43
6.05 2.76 0.94 3.57e-43
6.1 2.76 0.94 3.57e-43
6.37 2.76 0.94 3.57e-43
6.25 2.76 0.94 3.57e-43
6.31 2.76 0.94 3.57e-43
6.36 2.76 0.94 3.57e-43
6.38 2.76 0.98 9.1477e-41
6.23 2.76 1.39 9.1477e-41
5.23 2.82 1.33 3.57e-43
5.26 2.82 1.37 9.1477e-41
5.3 2.82 1.37 9.1477e-41
5.34 2.82 1.38 9.1477e-41
5.38 2.82 1.38 3.57e-43
5.41 2.82 1.38 3.57e-43
5.45 2.82 1.38 3.57e-43
5.49 2.82 1.38 3.57e-43
5.57 2.82 1.38 3.57e-43
5.84 2.82 1.38 3.57e-43
5.87 2.82 1.38 3.57e-43
5.91 2.82 1.38 3.57e-43
5.89 2.82 0.94 9.1477e-41
5.75 2.82 0.94 3.57e-43
5.99 2.82 0.94 3.57e-43
6.01 2.82 0.94 3.57e-43
6.05 2.82 0.94 3.57e-43
6.1 2.82 0.94 3.57e-43
6.37 2.82 0.94 3.57e-43
6.25 2.82 0.94 3.57e-43
6.31 2.82 0.94 3.57e-43
6.36 2.82 0.94 3.57e-43
6.38 2.82 0.98 9.1477e-41
6.23 2.82 1.38 9.1477e-41
5.23 2.88 1.33 3.57e-43
5.26 2.88 1.35 9.1477e-41
5.3 2.88 1.37 9.1477e-41
5.34 2.88 1.37 3.57e-43
5.38 2.88 1.37 3.57e-43
5.41 2.88 1.37 3.57e-43
5.45 2.88 1.37 3.57e-43
5.49 2.88 1.37 3.57e-43
5.57 2.88 1.37 3.57e-43
5.84 2.88 1.37 3.57e-43
5.87 2.88 1.37 3.57e-43
5.91 2.88 1.37 3.57e-43
5.89 2.88 1.37 3.57e-43
5.75 2.88 1.37 3.57e-43
5.99 2.88 1.37 3.57e-43
6.01 2.88 1.37 3.57e-43
6.05 2.88 1.37 3.57e-43
6.1 2.88 1.37 3.57e-43
6.37 2.88 1.37 3.57e-43
6.25 2.88 1.37 3.57e-43
6.31 2.88 1.37 3.57e-43
6.36 2.88 0.91 9.1477e-41
6.2 2.88 1.36 9.1477e-41
6.23 2.88 1.38 9.1477e-41
4.88 2.94 0.71 3.57e-43
5.23 2.94 1.33 9.1477e-41
5.27 2.94 1.34 9.1477e-41
5.31 2.94 1.35 9.1477e-41
5.35 2.94 1.34 9.1477e-41
5.39 2.94 1.34 9.1477e-41
5.43 2.94 1.35 9.1477e-41
5.48 2.94 1.36 9.1477e-41
5.52 2.94 1.34 9.1477e-41
5.55 2.94 1.34 3.57e-43
5.84 2.94 1.34 3.57e-43
5.87 2.94 1.34 3.57e-43
5.91 2.94 1.34 3.57e-43
5.89 2.94 1.34 3.57e-43
5.75 2.94 1.34 3.57e-43
5.99 2.94 1.34 3.57e-43
6.01 2.94 1.34 3.57e-43
6.05 2.94 1.34 3.57e-43
6.1 2.94 1.34 3.57e-43
6.37 2.94 1.34 3.57e-43
6.25 2.94 1.34 3.57e-43
6.31 2.94 1.34 3.57e-43
6.36 2.94 0.91 9.1477e-41
6.2 2.94 1.35 9.1477e-41
6.24 2.94 1.36 9.1477e-41
4.88 3 1.33 3.57e-43
5.27 3 1.33 9.1477e-41
5.31 3 1.36 9.1477e-41
5.35 3 1.36 9.1477e-41
5.39 3 1.36 9.1477e-41
5.43 3 1.36 3.57e-43
5.48 3 1.36 3.57e-43
5.52 3 1.36 3.57e-43
5.55 3 1.36 3.57e-43
5.84 3 1.36 3.57e-43
5.87 3 1.36 3.57e-43
5.91 3 1.36 3.57e-43
5.89 3 1.36 3.57e-43
5.75 3 1.36 3.57e-43
5.99 3 1.36 3.57e-43
6.01 3 1.36 3.57e-43
6.05 3 1.36 3.57e-43
6.1 3 1.36 3.57e-43
6.37 3 1.36 3.57e-43
6.25 3 1.36 3.57e-43
6.31 3 1.36 3.57e-43
6.36 3 1.36 3.57e-43
6.2 3 1.36 3.57e-43
6.24 3 1.36 9.1477e-41
5.87 3.06 0.85 3.57e-43
5.74 3.06 1.22 9.1477e-41
5.79 3.06 1.22 9.1477e-41
5.84 3.06 1.22 3.57e-43
5.99 3.06 1.22 3.57e-43
6.01 3.06 1.22 3.57e-43
6.05 3.06 1.22 3.57e-43
6.1 3.06 1.22 3.57e-43
6.37 3.06 1.22 3.57e-43
6.25 3.06 1.22 3.57e-43
6.31 3.06 1.22 3.57e-43
6.36 3.06 1.22 3.57e-43
6.2 3.06 1.22 3.57e-43
6.24 3.06 1.36 9.1477e-41
4.92 3.12 0.78 3.57e-43
4.95 3.12 0.85 9.1477e-41
4.98 3.12 0.85 3.57e-43
5.01 3.12 0.85 3.57e-43
5.12 3.12 0.85 3.57e-43
5.17 3.12 0.85 3.57e-43
5.23 3.12 0.85 3.57e-43
5.27 3.12 0.85 3.57e-43
5.31 3.12 0.85 3.57e-43
5.35 3.12 0.85 3.57e-43
5.23 3.12 0.85 3.57e-43
5.27 3.12 0.85 3.57e-43
5.31 3.12 0.85 3.57e-43
5.35 3.12 0.85 3.57e-43
5.39 3.12 0.85 3.57e-43
5.43 3.12 0.85 3.57e-43
5.48 3.12 0.85 3.57e-43
5.52 3.12 0.85 3.57e-43
5.55 3.12 0.85 3.57e-43
5.62 3.12 0.85 3.57e-43
5.87 3.12 0.85 3.57e-43
5.74 3.12 0.85 3.57e-43
5.79 3.12 0.85 3.57e-43
5.84 3.12 0.85 3.57e-43
5.99 3.12 0.85 3.57e-43
6.01 3.12 0.85 3.57e-43
6.05 3.12 0.85 3.57e-43
6.1 3.12 0.85 3.57e-43
6.37 3.12 0.85 3.57e-43
6.25 3.12 0.85 3.57e-43
6.31 3.12 0.85 3.57e-43
6.36 3.12 0.85 3.57e-43
6.2 3.12 0.85 3.57e-43
6.24 3.12 1.36 9.1477e-41
4.88 3.18 0.78 3.57e-43
4.92 3.18 0.78 9.1477e-41
4.95 3.18 0.83 9.1477e-41
4.98 3.18 0.83 3.57e-43
5.01 3.18 0.83 3.57e-43
5.12 3.18 0.83 3.57e-43
5.17 3.18 0.83 3.57e-43
5.23 3.18 0.83 3.57e-43
5.27 3.18 0.83 3.57e-43
5.31 3.18 0.83 3.57e-43
5.35 3.18 0.83 3.57e-43
5.23 3.18 0.83 3.57e-43
5.27 3.18 0.83 3.57e-43
5.31 3.18 0.83 3.57e-43
5.35 3.18 0.83 3.57e-43
5.39 3.18 0.83 3.57e-43
5.43 3.18 0.83 3.57e-43
5.48 3.18 0.83 3.57e-43
5.52 3.18 0.83 3.57e-43
5.55 3.18 0.83 3.57e-43
5.62 3.18 0.83 3.57e-43
5.87 3.18 0.83 3.57e-43
5.74 3.18 0.83 3.57e-43
5.79 3.18 0.83 3.57e-43
5.84 3.18 0.83 3.57e-43
5.99 3.18 0.83 3.57e-43
6.01 3.18 0.83 3.57e-43
6.05 3.18 0.83 3.57e-43
6.1 3.18 0.83 3.57e-43
6.37 3.18 0.83 3.57e-43
6.25 3.18 0.83 3.57e-43
6.31 3.18 0.83 3.57e-43
6.36 3.18 0.83 3.57e-43
6.2 3.18 0.83 3.57e-43
6.24 3.18 1.36 9.1477e-41
4.88 3.24 0.78 3.57e-43
4.96 3.24 0.81 9.1477e-41
5 3.24 0.85 9.1477e-41
5.03 3.24 0.85 3.57e-43
5.12 3.24 0.67 9.1477e-41
5.1 3.24 0.67 3.57e-43
5.23 3.24 0.67 3.57e-43
5.27 3.24 0.67 3.57e-43
5.31 3.24 0.67 3.57e-43
5.35 3.24 0.67 3.57e-43
5.23 3.24 0.67 3.57e-43
5.27 3.24 0.67 3.57e-43
5.31 3.24 0.67 3.57e-43
5.35 3.24 0.67 3.57e-43
5.39 3.24 0.67 3.57e-43
5.43 3.24 0.67 3.57e-43
5.48 3.24 0.67 3.57e-43
5.52 3.24 0.67 3.57e-43
5.55 3.24 0.67 3.57e-43
5.62 3.24 0.67 3.57e-43
5.87 3.24 0.67 3.57e-43
5.74 3.24 0.67 3.57e-43
5.79 3.24 0.67 3.57e-43
5.84 3.24 0.67 3.57e-43
5.99 3.24 0.67 3.57e-43
6.01 3.24 0.67 3.57e-43
6.05 3.24 0.67 3.57e-43
6.1 3.24 0.67 3.57e-43
6.37 3.24 0.67 3.57e-43
6.25 3.24 0.67 3.57e-43
6.31 3.24 0.67 3.57e-43
6.36 3.24 0.67 3.57e-43
6.2 3.24 0.67 3.57e-43
6.24 3.24 1.36 9.1477e-41
4.88 3.3 0.78 3.57e-43
4.97 3.3 0.75 9.1477e-41
5 3.3 0.81 9.1477e-41
5.05 3.3 0.81 9.1477e-41
5.08 3.3 0.81 3.57e-43
5.1 3.3 0.81 3.57e-43
5.23 3.3 0.81 3.57e-43
5.27 3.3 0.62 9.1477e-41
5.23 3.3 0.98 9.1477e-41
5.27 3.3 1.02 9.1477e-41
5.31 3.3 1.01 9.1477e-41
5.35 3.3 1.03 9.1477e-41
5.4 3.3 1.03 3.57e-43
5.35 3.3 1.03 3.57e-43
5.39 3.3 1.03 3.57e-43
5.43 3.3 1.03 3.57e-43
5.48 3.3 1.03 3.57e-43
5.52 3.3 1.03 3.57e-43
5.55 3.3 1.03 3.57e-43
5.62 3.3 1.03 3.57e-43
5.87 3.3 1.03 3.57e-43
5.74 3.3 1.03 3.57e-43
5.79 3.3 1.03 3.57e-43
5.84 3.3 1.03 3.57e-43
5.99 3.3 1.03 3.57e-43
6.01 3.3 1.03 3.57e-43
6.05 3.3 1.03 3.57e-43
6.1 3.3 1.03 3.57e-43
6.37 3.3 1.03 3.57e-43
6.25 3.3 1.03 3.57e-43
6.31 3.3 1.03 3.57e-43
6.36 3.3 1.03 3.57e-43
6.2 3.3 1.35 9.1477e-41
4.88 3.36 0.75 3.57e-43
5.02 3.36 0.69 9.1477e-41
5.06 3.36 0.74 9.1477e-41
5.1 3.36 0.77 9.1477e-41
5.13 3.36 0.77 3.57e-43
5.23 3.36 0.77 3.57e-43
5.27 3.36 0.77 3.57e-43
5.23 3.36 0.77 3.57e-43
5.27 3.36 0.77 3.57e-43
5.31 3.36 0.77 3.57e-43
5.35 3.36 1.03 9.1477e-41
5.41 3.36 0.97 9.1477e-41
5.46 3.36 0.96 9.1477e-41
5.49 3.36 1.03 9.1477e-41
5.53 3.36 1.03 9.1477e-41
5.58 3.36 1.03 9.1477e-41
5.62 3.36 1.03 9.1477e-41
5.67 3.36 1.03 9.1477e-41
5.72 3.36 1.03 3.57e-43
5.87 3.36 1.03 3.57e-43
5.74 3.36 1.03 3.57e-43
5.79 3.36 1.03 3.57e-43
5.84 3.36 1.03 3.57e-43
5.99 3.36 1.03 3.57e-43
6.01 3.36 1.03 3.57e-43
6.05 3.36 1.03 3.57e-43
6.1 3.36 1.03 3.57e-43
6.37 3.36 1.03 3.57e-43
6.25 3.36 1.03 3.57e-43
6.31 3.36 0.91 9.1477e-41
6.41 3.36 0.81 9.1477e-41
5.15 3.42 0.52 3.57e-43
5.16 3.42 0.69 9.1477e-41
5.2 3.42 0.73 9.1477e-41
5.24 3.42 0.77 9.1477e-41
5.27 3.42 0.77 3.57e-43
5.27 3.42 0.77 3.57e-43
5.31 3.42 0.77 3.57e-43
5.35 3.42 0.77 3.57e-43
5.41 3.42 0.77 3.57e-43
5.46 3.42 0.77 3.57e-43
5.49 3.42 0.77 3.57e-43
5.53 3.42 0.77 3.57e-43
5.58 3.42 0.77 3.57e-43
5.62 3.42 1.03 9.1477e-41
5.7 3.42 0.93 9.1477e-41
5.75 3.42 0.93 3.57e-43
5.87 3.42 0.93 3.57e-43
5.74 3.42 0.93 3.57e-43
5.79 3.42 0.93 3.57e-43
5.84 3.42 0.93 3.57e-43
5.99 3.42 0.93 3.57e-43
6.01 3.42 0.93 3.57e-43
6.05 3.42 0.93 3.57e-43
6.1 3.42 1.04 9.1477e-41
6.24 3.42 0.83 9.1477e-41
6.31 3.42 0.8 9.1477e-41
5.11 3.48 0.47 9.1477e-41
5.15 3.48 0.52 9.1477e-41
5.19 3.48 0.52 3.57e-43
5.2 3.48 0.52 3.57e-43
5.24 3.48 0.77 9.1477e-41
5.32 3.48 0.77 3.57e-43
5.27 3.48 1.02 9.1477e-41
5.41 3.48 0.62 9.1477e-41
5.45 3.48 0.65 9.1477e-41
5.49 3.48 0.71 9.1477e-41
5.54 3.48 0.68 9.1477e-41
5.59 3.48 0.68 9.1477e-41
5.64 3.48 0.68 9.1477e-41
5.69 3.48 0.69 9.1477e-41
5.74 3.48 0.68 9.1477e-41
5.79 3.48 0.68 9.1477e-41
5.84 3.48 0.68 9.1477e-41
5.87 3.48 0.68 3.57e-43
5.74 3.48 0.68 3.57e-43
5.79 3.48 1.22 9.1477e-41
6.03 3.48 0.7 9.1477e-41
6.09 3.48 0.7 9.1477e-41
6.14 3.48 0.69 9.1477e-41
6.2 3.48 0.67 9.1477e-41
6.32 3.48 0.52 9.1477e-41
5.32 3.54 0.61 9.1477e-41
5.47 3.54 0.43 9.1477e-41
5.5 3.54 0.5 9.1477e-41
5.55 3.54 0.49 9.1477e-41
5.59 3.54 0.51 9.1477e-41
5.64 3.54 0.53 9.1477e-41
5.69 3.54 0.54 9.1477e-41
5.73 3.54 0.56 9.1477e-41
5.79 3.54 0.54 9.1477e-41
5.84 3.54 0.54 9.1477e-41
5.89 3.54 0.53 9.1477e-41
5.94 3.54 0.54 9.1477e-41
6 3.54 0.51 9.1477e-41
6.07 3.54 0.46 9.1477e-41
6.15 3.54 0.4 9.1477e-41
