# .PCD v.7 - Point Cloud Data file format
VERSION .7
FIELDS x y z rgb
SIZE 4 4 4 4
TYPE F F F F
WIDTH 1893
HEIGHT 1
POINTS 1893
DATA ascii
3.96 0.07 0.67 9.1477e-41
4.01 0.07 0.68 9.1477e-41
4.05 0.07 0.68 9.1477e-41
4.09 0.07 0.66 9.1477e-41
4.18 0.07 0.58 9.1477e-41
4.23 0.07 0.54 9.1477e-41
4.28 0.07 0.52 9.1477e-41
3.09 0.14 0.48 9.1477e-41
3.15 0.14 0.58 9.1477e-41
3.2 0.14 0.57 9.1477e-41
3.26 0.14 0.69 9.1477e-41
3.31 0.14 0.72 9.1477e-41
3.36 0.14 0.73 9.1477e-41
3.4 0.14 0.73 9.1477e-41
3.44 0.14 0.74 9.1477e-41
3.49 0.14 0.74 9.1477e-41
3.53 0.14 0.74 9.1477e-41
3.58 0.14 0.75 9.1477e-41
3.62 0.14 0.75 9.1477e-41
3.66 0.14 0.75 9.1477e-41
3.71 0.14 0.76 9.1477e-41
3.75 0.14 0.75 9.1477e-41
3.79 0.14 0.74 9.1477e-41
3.84 0.14 0.74 9.1477e-41
3.88 0.14 0.74 9.1477e-41
3.92 0.14 0.74 9.1477e-41
3.97 0.14 0.74 9.1477e-41
4.01 0.14 0.73 9.1477e-41
4.05 0.14 0.72 9.1477e-41
4.09 0.14 0.71 9.1477e-41
4.18 0.14 0.69 9.1477e-41
4.23 0.14 0.68 9.1477e-41
4.27 0.14 0.58 9.1477e-41
4.32 0.14 0.55 9.1477e-41
4.36 0.14 0.55 3.57e-43
3.06 0.21 0.57 9.1477e-41
3.11 0.21 0.61 9.1477e-41
3.16 0.21 0.65 9.1477e-41
3.23 0.21 0.75 9.1477e-41
3.27 0.21 0.75 9.1477e-41
3.32 0.21 0.76 9.1477e-41
3.36 0.21 0.76 9.1477e-41
3.41 0.21 0.77 9.1477e-41
3.45 0.21 0.78 9.1477e-41
3.49 0.21 0.78 9.1477e-41
3.54 0.21 0.79 9.1477e-41
3.58 0.21 0.78 9.1477e-41
3.62 0.21 0.79 9.1477e-41
3.67 0.21 0.78 9.1477e-41
3.71 0.21 0.79 9.1477e-41
3.75 0.21 0.79 9.1477e-41
3.8 0.21 0.78 9.1477e-41
3.84 0.21 0.78 9.1477e-41
3.88 0.21 0.77 9.1477e-41
3.92 0.21 0.78 9.1477e-41
3.97 0.21 0.78 9.1477e-41
4.01 0.21 0.77 9.1477e-41
4.05 0.21 0.77 9.1477e-41
4.09 0.21 0.76 9.1477e-41
4.18 0.21 0.73 9.1477e-41
4.22 0.21 0.72 9.1477e-41
4.27 0.21 0.72 9.1477e-41
4.31 0.21 0.71 9.1477e-41
4.36 0.21 0.6 9.1477e-41
4.41 0.21 0.56 9.1477e-41
4.45 0.21 0.54 9.1477e-41
3.02 0.28 0.6 9.1477e-41
3.07 0.28 0.64 9.1477e-41
3.12 0.28 0.67 9.1477e-41
3.19 0.28 0.78 9.1477e-41
3.23 0.28 0.78 9.1477e-41
3.27 0.28 0.77 9.1477e-41
3.32 0.28 0.79 9.1477e-41
3.37 0.28 0.8 9.1477e-41
3.41 0.28 0.8 9.1477e-41
3.46 0.28 0.82 9.1477e-41
3.5 0.28 0.8 9.1477e-41
3.54 0.28 0.82 9.1477e-41
3.58 0.28 0.81 9.1477e-41
3.63 0.28 0.82 9.1477e-41
3.67 0.28 0.8 9.1477e-41
3.71 0.28 0.81 9.1477e-41
3.76 0.28 0.82 9.1477e-41
3.8 0.28 0.81 9.1477e-41
3.84 0.28 0.8 9.1477e-41
3.88 0.28 0.8 9.1477e-41
3.93 0.28 0.81 9.1477e-41
3.97 0.28 0.8 9.1477e-41
4.01 0.28 0.8 9.1477e-41
4.05 0.28 0.79 9.1477e-41
4.09 0.28 0.78 9.1477e-41
4.18 0.28 0.77 9.1477e-41
4.22 0.28 0.76 9.1477e-41
4.27 0.28 0.75 9.1477e-41
4.31 0.28 0.75 9.1477e-41
4.35 0.28 0.74 9.1477e-41
4.4 0.28 0.62 9.1477e-41
4.45 0.28 0.58 9.1477e-41
4.5 0.28 0.56 9.1477e-41
3.05 0.35 0.75 9.1477e-41
3.1 0.35 0.79 9.1477e-41
3.15 0.35 0.82 9.1477e-41
3.19 0.35 0.8 9.1477e-41
3.24 0.35 0.81 9.1477e-41
3.28 0.35 0.8 9.1477e-41
3.33 0.35 0.82 9.1477e-41
3.37 0.35 0.83 9.1477e-41
3.41 0.35 0.83 9.1477e-41
3.46 0.35 0.83 9.1477e-41
3.5 0.35 0.82 9.1477e-41
3.54 0.35 0.84 9.1477e-41
3.58 0.35 0.82 9.1477e-41
3.63 0.35 0.84 9.1477e-41
3.67 0.35 0.83 9.1477e-41
3.71 0.35 0.84 9.1477e-41
3.76 0.35 0.85 9.1477e-41
3.8 0.35 0.83 9.1477e-41
3.84 0.35 0.83 9.1477e-41
3.88 0.35 0.83 9.1477e-41
3.93 0.35 0.82 9.1477e-41
3.97 0.35 0.83 9.1477e-41
4.01 0.35 0.82 9.1477e-41
4.05 0.35 0.81 9.1477e-41
4.09 0.35 0.81 9.1477e-41
4.18 0.35 0.8 9.1477e-41
4.22 0.35 0.79 9.1477e-41
4.27 0.35 0.78 9.1477e-41
4.31 0.35 0.76 9.1477e-41
4.35 0.35 0.76 9.1477e-41
4.4 0.35 0.76 9.1477e-41
4.44 0.35 0.71 9.1477e-41
4.49 0.35 0.66 9.1477e-41
4.54 0.35 0.56 9.1477e-41
2.99 0.42 0.7 9.1477e-41
3.06 0.42 0.81 9.1477e-41
3.11 0.42 0.82 9.1477e-41
3.15 0.42 0.83 9.1477e-41
3.2 0.42 0.84 9.1477e-41
3.24 0.42 0.83 9.1477e-41
3.28 0.42 0.83 9.1477e-41
3.33 0.42 0.85 9.1477e-41
3.37 0.42 0.85 9.1477e-41
3.42 0.42 0.85 9.1477e-41
3.46 0.42 0.85 9.1477e-41
3.5 0.42 0.85 9.1477e-41
3.55 0.42 0.86 9.1477e-41
3.59 0.42 0.86 9.1477e-41
3.63 0.42 0.86 9.1477e-41
3.67 0.42 0.86 9.1477e-41
3.72 0.42 0.85 9.1477e-41
3.76 0.42 0.87 9.1477e-41
3.8 0.42 0.86 9.1477e-41
3.84 0.42 0.84 9.1477e-41
3.88 0.42 0.86 9.1477e-41
3.93 0.42 0.85 9.1477e-41
3.97 0.42 0.85 9.1477e-41
4.01 0.42 0.85 9.1477e-41
4.05 0.42 0.83 9.1477e-41
4.09 0.42 0.83 9.1477e-41
4.18 0.42 0.81 9.1477e-41
4.22 0.42 0.81 9.1477e-41
4.27 0.42 0.8 9.1477e-41
4.31 0.42 0.77 9.1477e-41
4.35 0.42 0.8 9.1477e-41
4.39 0.42 0.79 9.1477e-41
4.44 0.42 0.79 9.1477e-41
4.48 0.42 0.79 3.57e-43
4.54 0.42 0.55 9.1477e-41
3.01 0.49 0.78 9.1477e-41
3.07 0.49 0.83 9.1477e-41
3.11 0.49 0.85 9.1477e-41
3.16 0.49 0.86 9.1477e-41
3.2 0.49 0.85 9.1477e-41
3.24 0.49 0.84 9.1477e-41
3.29 0.49 0.85 9.1477e-41
3.33 0.49 0.86 9.1477e-41
3.38 0.49 0.86 9.1477e-41
3.42 0.49 0.85 9.1477e-41
3.46 0.49 0.87 9.1477e-41
3.51 0.49 0.87 9.1477e-41
3.55 0.49 0.88 9.1477e-41
3.59 0.49 0.87 9.1477e-41
3.63 0.49 0.88 9.1477e-41
3.67 0.49 0.87 9.1477e-41
3.72 0.49 0.88 9.1477e-41
3.76 0.49 0.87 9.1477e-41
3.8 0.49 0.87 9.1477e-41
3.84 0.49 0.86 9.1477e-41
3.89 0.49 0.87 9.1477e-41
3.93 0.49 0.86 9.1477e-41
3.97 0.49 0.86 9.1477e-41
4.01 0.49 0.87 9.1477e-41
4.05 0.49 0.86 9.1477e-41
4.09 0.49 0.86 9.1477e-41
4.18 0.49 0.84 9.1477e-41
4.22 0.49 0.83 9.1477e-41
4.26 0.49 0.81 9.1477e-41
4.31 0.49 0.81 9.1477e-41
4.35 0.49 0.81 9.1477e-41
4.39 0.49 0.81 9.1477e-41
4.44 0.49 0.82 9.1477e-41
4.48 0.49 0.79 9.1477e-41
4.52 0.49 0.76 9.1477e-41
4.58 0.49 0.65 9.1477e-41
2.95 0.56 0.7 9.1477e-41
3.02 0.56 0.82 9.1477e-41
3.07 0.56 0.86 9.1477e-41
3.12 0.56 0.86 9.1477e-41
3.16 0.56 0.87 9.1477e-41
3.2 0.56 0.86 9.1477e-41
3.25 0.56 0.87 9.1477e-41
3.29 0.56 0.88 9.1477e-41
3.33 0.56 0.87 9.1477e-41
3.38 0.56 0.88 9.1477e-41
3.42 0.56 0.87 9.1477e-41
3.46 0.56 0.89 9.1477e-41
3.51 0.56 0.88 9.1477e-41
3.55 0.56 0.89 9.1477e-41
3.59 0.56 0.89 9.1477e-41
3.63 0.56 0.89 9.1477e-41
3.68 0.56 0.89 9.1477e-41
3.72 0.56 0.89 9.1477e-41
3.76 0.56 0.89 9.1477e-41
3.8 0.56 0.89 9.1477e-41
3.84 0.56 0.88 9.1477e-41
3.89 0.56 0.89 9.1477e-41
3.93 0.56 0.87 9.1477e-41
3.97 0.56 0.88 9.1477e-41
4.01 0.56 0.88 9.1477e-41
4.05 0.56 0.87 9.1477e-41
4.09 0.56 0.87 9.1477e-41
4.18 0.56 0.87 9.1477e-41
4.22 0.56 0.85 9.1477e-41
4.26 0.56 0.83 9.1477e-41
4.31 0.56 0.83 9.1477e-41
4.35 0.56 0.83 9.1477e-41
4.39 0.56 0.83 9.1477e-41
4.43 0.56 0.82 9.1477e-41
4.48 0.56 0.82 9.1477e-41
4.52 0.56 0.8 9.1477e-41
4.57 0.56 0.73 9.1477e-41
2.96 0.63 0.77 9.1477e-41
3.03 0.63 0.86 9.1477e-41
3.08 0.63 0.88 9.1477e-41
3.12 0.63 0.88 9.1477e-41
3.16 0.63 0.88 9.1477e-41
3.21 0.63 0.89 9.1477e-41
3.25 0.63 0.89 9.1477e-41
3.29 0.63 0.89 9.1477e-41
3.34 0.63 0.88 9.1477e-41
3.38 0.63 0.89 9.1477e-41
3.42 0.63 0.9 9.1477e-41
3.47 0.63 0.91 9.1477e-41
3.51 0.63 0.9 9.1477e-41
3.55 0.63 0.9 9.1477e-41
3.59 0.63 0.9 9.1477e-41
3.64 0.63 0.91 9.1477e-41
3.68 0.63 0.9 9.1477e-41
3.72 0.63 0.91 9.1477e-41
3.76 0.63 0.91 9.1477e-41
3.8 0.63 0.9 9.1477e-41
3.84 0.63 0.89 9.1477e-41
3.89 0.63 0.9 9.1477e-41
3.93 0.63 0.89 9.1477e-41
3.97 0.63 0.9 9.1477e-41
4.01 0.63 0.89 9.1477e-41
4.05 0.63 0.89 9.1477e-41
4.09 0.63 0.89 9.1477e-41
4.18 0.63 0.88 9.1477e-41
4.22 0.63 0.86 9.1477e-41
4.26 0.63 0.86 9.1477e-41
4.31 0.63 0.85 9.1477e-41
4.35 0.63 0.84 9.1477e-41
4.39 0.63 0.85 9.1477e-41
4.43 0.63 0.84 9.1477e-41
4.48 0.63 0.84 9.1477e-41
4.52 0.63 0.81 9.1477e-41
4.57 0.63 0.75 9.1477e-41
4.62 0.63 0.65 9.1477e-41
2.97 0.7 0.8 9.1477e-41
3.03 0.7 0.88 9.1477e-41
3.08 0.7 0.91 9.1477e-41
3.12 0.7 0.9 9.1477e-41
3.17 0.7 0.89 9.1477e-41
3.21 0.7 0.91 9.1477e-41
3.25 0.7 0.9 9.1477e-41
3.3 0.7 0.91 9.1477e-41
3.34 0.7 0.9 9.1477e-41
3.38 0.7 0.91 9.1477e-41
3.43 0.7 0.92 9.1477e-41
3.47 0.7 0.92 9.1477e-41
3.51 0.7 0.91 9.1477e-41
3.55 0.7 0.92 9.1477e-41
3.59 0.7 0.91 9.1477e-41
3.64 0.7 0.92 9.1477e-41
3.68 0.7 0.92 9.1477e-41
3.72 0.7 0.91 9.1477e-41
3.76 0.7 0.92 9.1477e-41
3.8 0.7 0.91 9.1477e-41
3.85 0.7 0.92 9.1477e-41
3.89 0.7 0.91 9.1477e-41
3.93 0.7 0.9 9.1477e-41
3.97 0.7 0.91 9.1477e-41
4.01 0.7 0.9 9.1477e-41
4.05 0.7 0.9 9.1477e-41
4.09 0.7 0.9 9.1477e-41
4.18 0.7 0.88 9.1477e-41
4.22 0.7 0.88 9.1477e-41
4.26 0.7 0.88 9.1477e-41
4.31 0.7 0.86 9.1477e-41
4.35 0.7 0.87 9.1477e-41
4.39 0.7 0.85 9.1477e-41
4.43 0.7 0.86 9.1477e-41
4.47 0.7 0.85 9.1477e-41
4.52 0.7 0.84 9.1477e-41
4.57 0.7 0.79 9.1477e-41
4.62 0.7 0.72 9.1477e-41
2.97 0.77 0.82 9.1477e-41
3.04 0.77 0.9 9.1477e-41
3.08 0.77 0.91 9.1477e-41
3.13 0.77 0.91 9.1477e-41
3.17 0.77 0.9 9.1477e-41
3.21 0.77 0.92 9.1477e-41
3.26 0.77 0.93 9.1477e-41
3.3 0.77 0.91 9.1477e-41
3.34 0.77 0.92 9.1477e-41
3.39 0.77 0.93 9.1477e-41
3.43 0.77 0.93 9.1477e-41
3.47 0.77 0.93 9.1477e-41
3.51 0.77 0.93 9.1477e-41
3.55 0.77 0.93 9.1477e-41
3.6 0.77 0.93 9.1477e-41
3.64 0.77 0.94 9.1477e-41
3.68 0.77 0.92 9.1477e-41
3.72 0.77 0.93 9.1477e-41
3.76 0.77 0.93 9.1477e-41
3.8 0.77 0.92 9.1477e-41
3.85 0.77 0.94 9.1477e-41
3.89 0.77 0.92 9.1477e-41
3.93 0.77 0.92 9.1477e-41
3.97 0.77 0.92 9.1477e-41
4.01 0.77 0.92 9.1477e-41
4.05 0.77 0.92 9.1477e-41
4.09 0.77 0.91 9.1477e-41
4.18 0.77 0.9 9.1477e-41
4.22 0.77 0.9 9.1477e-41
4.26 0.77 0.88 9.1477e-41
4.3 0.77 0.89 9.1477e-41
4.35 0.77 0.87 9.1477e-41
4.39 0.77 0.87 9.1477e-41
4.43 0.77 0.87 9.1477e-41
4.47 0.77 0.86 9.1477e-41
4.52 0.77 0.86 9.1477e-41
4.56 0.77 0.82 9.1477e-41
4.61 0.77 0.74 9.1477e-41
2.98 0.84 0.83 9.1477e-41
3.04 0.84 0.92 9.1477e-41
3.08 0.84 0.92 9.1477e-41
3.13 0.84 0.92 9.1477e-41
3.17 0.84 0.92 9.1477e-41
3.21 0.84 0.93 9.1477e-41
3.26 0.84 0.94 9.1477e-41
3.3 0.84 0.94 9.1477e-41
3.34 0.84 0.93 9.1477e-41
3.39 0.84 0.94 9.1477e-41
3.43 0.84 0.94 9.1477e-41
3.47 0.84 0.94 9.1477e-41
3.51 0.84 0.95 9.1477e-41
3.56 0.84 0.94 9.1477e-41
3.6 0.84 0.94 9.1477e-41
3.64 0.84 0.94 9.1477e-41
3.68 0.84 0.93 9.1477e-41
3.72 0.84 0.94 9.1477e-41
3.76 0.84 0.94 9.1477e-41
3.81 0.84 0.93 9.1477e-41
3.85 0.84 0.93 9.1477e-41
3.89 0.84 0.94 9.1477e-41
3.93 0.84 0.94 9.1477e-41
3.97 0.84 0.93 9.1477e-41
4.01 0.84 0.94 9.1477e-41
4.05 0.84 0.94 9.1477e-41
4.09 0.84 0.93 9.1477e-41
4.18 0.84 0.92 9.1477e-41
4.22 0.84 0.91 9.1477e-41
4.26 0.84 0.9 9.1477e-41
4.3 0.84 0.89 9.1477e-41
4.35 0.84 0.91 9.1477e-41
4.39 0.84 0.88 9.1477e-41
4.43 0.84 0.89 9.1477e-41
4.47 0.84 0.89 9.1477e-41
4.52 0.84 0.88 9.1477e-41
4.56 0.84 0.83 9.1477e-41
4.61 0.84 0.75 9.1477e-41
2.98 0.91 0.86 9.1477e-41
3.04 0.91 0.93 9.1477e-41
3.09 0.91 0.94 9.1477e-41
3.13 0.91 0.93 9.1477e-41
3.18 0.91 0.94 9.1477e-41
3.22 0.91 0.96 9.1477e-41
3.26 0.91 0.95 9.1477e-41
3.3 0.91 0.95 9.1477e-41
3.35 0.91 0.95 9.1477e-41
3.39 0.91 0.96 9.1477e-41
3.43 0.91 0.95 9.1477e-41
3.47 0.91 0.95 9.1477e-41
3.51 0.91 0.95 9.1477e-41
3.55 0.91 0.93 9.1477e-41
3.6 0.91 0.93 9.1477e-41
3.64 0.91 0.93 9.1477e-41
3.68 0.91 0.92 9.1477e-41
3.72 0.91 0.93 9.1477e-41
3.76 0.91 0.93 9.1477e-41
3.81 0.91 0.94 9.1477e-41
3.85 0.91 0.94 9.1477e-41
3.89 0.91 0.93 9.1477e-41
3.93 0.91 0.95 9.1477e-41
3.97 0.91 0.94 9.1477e-41
4.01 0.91 0.93 9.1477e-41
4.05 0.91 0.94 9.1477e-41
4.09 0.91 0.94 9.1477e-41
4.18 0.91 0.93 9.1477e-41
4.22 0.91 0.93 9.1477e-41
4.26 0.91 0.92 9.1477e-41
4.3 0.91 0.91 9.1477e-41
4.34 0.91 0.92 9.1477e-41
4.39 0.91 0.89 9.1477e-41
4.43 0.91 0.9 9.1477e-41
4.47 0.91 0.91 9.1477e-41
4.51 0.91 0.9 9.1477e-41
4.56 0.91 0.86 9.1477e-41
4.61 0.91 0.76 9.1477e-41
2.99 0.98 0.89 9.1477e-41
3.05 0.98 0.95 9.1477e-41
3.09 0.98 0.95 9.1477e-41
3.14 0.98 0.96 9.1477e-41
3.18 0.98 0.96 9.1477e-41
3.22 0.98 0.97 9.1477e-41
3.26 0.98 0.94 9.1477e-41
3.3 0.98 0.91 9.1477e-41
3.34 0.98 0.91 9.1477e-41
3.39 0.98 0.91 3.57e-43
3.43 0.98 0.95 9.1477e-41
3.47 0.98 0.94 9.1477e-41
3.51 0.98 0.94 3.57e-43
3.55 0.98 0.94 3.57e-43
3.6 0.98 0.94 3.57e-43
3.64 0.98 0.94 3.57e-43
3.68 0.98 0.94 3.57e-43
3.72 0.98 0.93 9.1477e-41
3.76 0.98 0.94 9.1477e-41
3.81 0.98 0.93 9.1477e-41
3.85 0.98 0.93 9.1477e-41
3.89 0.98 0.93 9.1477e-41
3.93 0.98 0.93 9.1477e-41
3.97 0.98 0.92 9.1477e-41
4.01 0.98 0.93 9.1477e-41
4.05 0.98 0.92 9.1477e-41
4.09 0.98 0.91 9.1477e-41
4.18 0.98 0.91 9.1477e-41
4.22 0.98 0.93 9.1477e-41
4.26 0.98 0.93 9.1477e-41
4.3 0.98 0.92 9.1477e-41
4.34 0.98 0.94 9.1477e-41
4.39 0.98 0.91 9.1477e-41
4.43 0.98 0.92 9.1477e-41
4.47 0.98 0.92 9.1477e-41
4.51 0.98 0.9 9.1477e-41
4.56 0.98 0.88 9.1477e-41
4.61 0.98 0.77 9.1477e-41
2.99 1.05 0.91 9.1477e-41
3.05 1.05 0.97 9.1477e-41
3.09 1.05 0.97 9.1477e-41
3.13 1.05 0.97 3.57e-43
3.18 1.05 0.97 3.57e-43
3.22 1.05 0.97 9.1477e-41
3.27 1.05 0.98 9.1477e-41
3.31 1.05 0.99 9.1477e-41
3.35 1.05 0.99 3.57e-43
3.39 1.05 0.99 3.57e-43
3.43 1.05 0.99 3.57e-43
3.47 1.05 0.99 3.57e-43
3.51 1.05 0.99 3.57e-43
3.55 1.05 0.99 3.57e-43
3.6 1.05 0.99 3.57e-43
3.64 1.05 0.99 3.57e-43
3.68 1.05 0.99 3.57e-43
3.72 1.05 0.99 3.57e-43
3.76 1.05 0.99 3.57e-43
3.81 1.05 0.99 3.57e-43
3.85 1.05 0.99 3.57e-43
3.89 1.05 0.99 3.57e-43
3.93 1.05 0.99 3.57e-43
3.97 1.05 0.99 3.57e-43
4.01 1.05 0.99 3.57e-43
4.05 1.05 0.99 3.57e-43
4.09 1.05 0.99 3.57e-43
4.14 1.05 0.99 3.57e-43
4.18 1.05 0.99 3.57e-43
4.22 1.05 0.99 3.57e-43
4.26 1.05 0.99 3.57e-43
4.3 1.05 0.92 9.1477e-41
4.35 1.05 0.9 9.1477e-41
4.38 1.05 0.94 9.1477e-41
4.43 1.05 0.94 9.1477e-41
4.47 1.05 0.93 9.1477e-41
4.51 1.05 0.93 9.1477e-41
4.56 1.05 0.9 9.1477e-41
4.61 1.05 0.76 9.1477e-41
3 1.12 0.93 9.1477e-41
3.06 1.12 1 9.1477e-41
3.1 1.12 0.99 9.1477e-41
3.14 1.12 0.99 3.57e-43
3.18 1.12 0.99 3.57e-43
3.22 1.12 0.99 3.57e-43
3.27 1.12 0.99 3.57e-43
3.31 1.12 0.99 3.57e-43
3.35 1.12 0.99 3.57e-43
3.39 1.12 0.99 3.57e-43
3.43 1.12 0.99 3.57e-43
3.47 1.12 0.99 3.57e-43
3.51 1.12 0.99 3.57e-43
3.55 1.12 0.99 3.57e-43
3.6 1.12 0.99 3.57e-43
3.64 1.12 0.99 3.57e-43
3.68 1.12 0.99 3.57e-43
3.72 1.12 0.99 3.57e-43
3.76 1.12 0.99 3.57e-43
3.81 1.12 0.99 3.57e-43
3.85 1.12 0.99 3.57e-43
3.89 1.12 0.99 3.57e-43
3.93 1.12 0.99 3.57e-43
3.97 1.12 0.99 3.57e-43
4.01 1.12 0.99 3.57e-43
4.05 1.12 0.99 3.57e-43
4.09 1.12 0.99 3.57e-43
4.14 1.12 0.99 3.57e-43
4.18 1.12 0.99 3.57e-43
4.22 1.12 0.99 3.57e-43
4.26 1.12 0.99 3.57e-43
4.3 1.12 0.99 3.57e-43
4.35 1.12 0.99 3.57e-43
4.38 1.12 0.99 3.57e-43
4.43 1.12 0.94 9.1477e-41
4.47 1.12 0.93 9.1477e-41
4.51 1.12 0.95 9.1477e-41
4.55 1.12 0.95 3.57e-43
4.61 1.12 0.76 9.1477e-41
3.01 1.19 0.99 9.1477e-41
3.06 1.19 1.03 9.1477e-41
3.11 1.19 1.02 9.1477e-41
3.15 1.19 1.02 3.57e-43
3.18 1.19 1.02 3.57e-43
3.22 1.19 1.02 3.57e-43
3.27 1.19 1.02 3.57e-43
3.31 1.19 1.02 3.57e-43
3.35 1.19 1.02 3.57e-43
3.39 1.19 1.02 3.57e-43
3.43 1.19 1.02 3.57e-43
3.47 1.19 1.02 3.57e-43
3.51 1.19 1.02 3.57e-43
3.55 1.19 1.02 3.57e-43
3.6 1.19 1.02 3.57e-43
3.64 1.19 1.02 3.57e-43
3.68 1.19 1.02 3.57e-43
3.72 1.19 0.93 9.1477e-41
3.77 1.19 0.93 3.57e-43
3.81 1.19 0.93 3.57e-43
3.85 1.19 0.93 3.57e-43
3.89 1.19 0.93 3.57e-43
3.93 1.19 0.93 3.57e-43
3.97 1.19 0.93 3.57e-43
4.01 1.19 0.93 3.57e-43
4.05 1.19 0.93 3.57e-43
4.09 1.19 0.93 3.57e-43
4.14 1.19 0.93 3.57e-43
4.18 1.19 0.93 3.57e-43
4.22 1.19 0.93 3.57e-43
4.26 1.19 0.93 3.57e-43
4.3 1.19 0.93 3.57e-43
4.35 1.19 0.93 3.57e-43
4.38 1.19 0.93 3.57e-43
4.43 1.19 0.93 3.57e-43
4.47 1.19 0.93 9.1477e-41
4.51 1.19 0.98 9.1477e-41
4.55 1.19 0.98 3.57e-43
4.61 1.19 0.76 9.1477e-41
3.02 1.26 1 9.1477e-41
3.08 1.26 1 3.57e-43
3.11 1.26 1 3.57e-43
3.15 1.26 1 3.57e-43
3.18 1.26 1 3.57e-43
3.22 1.26 1 3.57e-43
3.27 1.26 1 3.57e-43
3.31 1.26 1 3.57e-43
3.35 1.26 1 3.57e-43
3.39 1.26 1 3.57e-43
3.43 1.26 1 3.57e-43
3.47 1.26 1 3.57e-43
3.51 1.26 1 3.57e-43
3.55 1.26 1 3.57e-43
3.6 1.26 1 3.57e-43
3.64 1.26 1 3.57e-43
3.68 1.26 1 3.57e-43
3.72 1.26 1 3.57e-43
3.77 1.26 1 3.57e-43
3.81 1.26 1 3.57e-43
3.85 1.26 1 3.57e-43
3.89 1.26 1 3.57e-43
3.93 1.26 1 3.57e-43
3.97 1.26 1 3.57e-43
4.01 1.26 1 3.57e-43
4.05 1.26 1 3.57e-43
4.09 1.26 1 3.57e-43
4.14 1.26 1 3.57e-43
4.18 1.26 1 3.57e-43
4.22 1.26 1 3.57e-43
4.26 1.26 1 3.57e-43
4.3 1.26 1 3.57e-43
4.35 1.26 1 3.57e-43
4.38 1.26 0.94 9.1477e-41
4.42 1.26 0.98 9.1477e-41
4.46 1.26 1 9.1477e-41
4.5 1.26 1.01 9.1477e-41
4.55 1.26 1.01 3.57e-43
4.61 1.26 0.76 9.1477e-41
3.03 1.33 1.06 9.1477e-41
3.08 1.33 1.06 3.57e-43
3.11 1.33 1.06 3.57e-43
3.15 1.33 1.06 3.57e-43
3.18 1.33 1.06 3.57e-43
3.22 1.33 1.06 3.57e-43
3.27 1.33 1.06 3.57e-43
3.31 1.33 1.06 3.57e-43
3.35 1.33 1.06 3.57e-43
3.39 1.33 1.06 3.57e-43
3.43 1.33 1.06 3.57e-43
3.47 1.33 1.06 3.57e-43
3.51 1.33 1.06 3.57e-43
3.55 1.33 1.06 3.57e-43
3.6 1.33 1.06 3.57e-43
3.64 1.33 1.06 3.57e-43
3.68 1.33 1.06 3.57e-43
3.72 1.33 1.06 3.57e-43
3.77 1.33 1.06 3.57e-43
3.81 1.33 1.06 3.57e-43
3.85 1.33 1.06 3.57e-43
3.89 1.33 1.06 3.57e-43
3.93 1.33 1.06 3.57e-43
3.97 1.33 1.06 3.57e-43
4.01 1.33 1.06 3.57e-43
4.05 1.33 1.06 3.57e-43
4.09 1.33 1.06 3.57e-43
4.14 1.33 1.06 3.57e-43
4.18 1.33 1.06 3.57e-43
4.22 1.33 1.06 3.57e-43
4.26 1.33 1.06 3.57e-43
4.3 1.33 1.06 3.57e-43
4.35 1.33 1.06 3.57e-43
4.38 1.33 1.06 3.57e-43
4.42 1.33 1.06 3.57e-43
4.46 1.33 1 9.1477e-41
4.5 1.33 1.06 9.1477e-41
4.54 1.33 1.02 9.1477e-41
4.61 1.33 0.8 9.1477e-41
2.86 1.4 1.05 9.1477e-41
2.9 1.4 1.05 9.1477e-41
2.94 1.4 1.06 9.1477e-41
2.96 1.4 0.95 9.1477e-41
3.02 1.4 1.03 9.1477e-41
3.09 1.4 1.15 9.1477e-41
3.14 1.4 1.15 3.57e-43
3.15 1.4 1.15 3.57e-43
3.18 1.4 1.15 3.57e-43
3.22 1.4 1.15 3.57e-43
3.27 1.4 1.15 3.57e-43
3.31 1.4 1.15 3.57e-43
3.35 1.4 1.15 3.57e-43
3.39 1.4 1.15 3.57e-43
3.43 1.4 1.15 3.57e-43
3.47 1.4 1.15 3.57e-43
3.51 1.4 1.15 3.57e-43
3.55 1.4 1.15 3.57e-43
3.6 1.4 1.15 3.57e-43
3.64 1.4 1.15 3.57e-43
3.68 1.4 1.15 3.57e-43
3.72 1.4 1.15 3.57e-43
3.77 1.4 1.15 3.57e-43
3.81 1.4 1.15 3.57e-43
3.85 1.4 1.15 3.57e-43
3.89 1.4 1.15 3.57e-43
3.93 1.4 1.15 3.57e-43
3.97 1.4 1.15 3.57e-43
4.01 1.4 1.15 3.57e-43
4.05 1.4 1.15 3.57e-43
4.09 1.4 1.15 3.57e-43
4.14 1.4 1.15 3.57e-43
4.18 1.4 1.15 3.57e-43
4.22 1.4 1.15 3.57e-43
4.26 1.4 1.15 3.57e-43
4.3 1.4 1.15 3.57e-43
4.35 1.4 1.15 3.57e-43
4.38 1.4 1.15 3.57e-43
4.42 1.4 0.98 9.1477e-41
4.46 1.4 1.1 9.1477e-41
4.5 1.4 1.11 9.1477e-41
4.54 1.4 1.05 9.1477e-41
4.59 1.4 0.93 9.1477e-41
4.63 1.4 0.98 9.1477e-41
2.81 1.47 1.06 9.1477e-41
2.85 1.47 1.02 9.1477e-41
3.01 1.47 0.96 9.1477e-41
3.1 1.47 1.19 9.1477e-41
3.15 1.47 1.19 3.57e-43
3.15 1.47 1.19 3.57e-43
3.18 1.47 1.19 3.57e-43
3.22 1.47 1.19 3.57e-43
3.27 1.47 1.19 3.57e-43
3.31 1.47 1.19 3.57e-43
3.35 1.47 1.19 3.57e-43
3.39 1.47 1.19 3.57e-43
3.43 1.47 1.19 3.57e-43
3.47 1.47 1.19 3.57e-43
3.51 1.47 1.19 3.57e-43
3.55 1.47 1.19 3.57e-43
3.6 1.47 1.19 3.57e-43
3.64 1.47 1.19 3.57e-43
3.68 1.47 1.19 3.57e-43
3.72 1.47 1.19 3.57e-43
3.77 1.47 1.19 3.57e-43
3.81 1.47 1.19 3.57e-43
3.85 1.47 1.19 3.57e-43
3.89 1.47 1.19 3.57e-43
3.93 1.47 1.19 3.57e-43
3.97 1.47 1.19 3.57e-43
4.01 1.47 1.19 3.57e-43
4.05 1.47 1.19 3.57e-43
4.09 1.47 1.19 3.57e-43
4.14 1.47 1.19 3.57e-43
4.18 1.47 1.19 3.57e-43
4.22 1.47 1.19 3.57e-43
4.26 1.47 1.19 3.57e-43
4.3 1.47 1.19 3.57e-43
4.35 1.47 1.19 3.57e-43
4.38 1.47 1.19 3.57e-43
4.42 1.47 0.98 9.1477e-41
4.45 1.47 1.15 9.1477e-41
4.49 1.47 1.14 9.1477e-41
4.55 1.47 0.96 9.1477e-41
4.6 1.47 0.87 9.1477e-41
4.62 1.47 1.04 9.1477e-41
4.67 1.47 1.03 9.1477e-41
4.71 1.47 1.01 9.1477e-41
4.75 1.47 1 9.1477e-41
3 1.54 0.93 9.1477e-41
3.11 1.54 1.23 9.1477e-41
3.15 1.54 1.23 3.57e-43
3.15 1.54 1.23 3.57e-43
3.18 1.54 1.23 3.57e-43
3.22 1.54 1.23 3.57e-43
3.27 1.54 1.23 3.57e-43
3.31 1.54 1.23 3.57e-43
3.35 1.54 1.23 3.57e-43
3.39 1.54 1.23 3.57e-43
3.43 1.54 1.23 3.57e-43
3.47 1.54 1.23 3.57e-43
3.51 1.54 1.23 3.57e-43
3.55 1.54 1.23 3.57e-43
3.6 1.54 1.23 3.57e-43
3.64 1.54 1.23 3.57e-43
3.68 1.54 1.23 3.57e-43
3.72 1.54 1.23 3.57e-43
3.77 1.54 1.23 3.57e-43
3.81 1.54 1.23 3.57e-43
3.85 1.54 1.23 3.57e-43
3.89 1.54 1.23 3.57e-43
3.93 1.54 0.93 9.1477e-41
3.96 1.54 0.93 3.57e-43
4.01 1.54 0.93 3.57e-43
4.05 1.54 0.93 3.57e-43
4.09 1.54 0.93 3.57e-43
4.14 1.54 0.93 3.57e-43
4.18 1.54 0.93 3.57e-43
4.22 1.54 0.93 9.1477e-41
4.27 1.54 0.53 9.1477e-41
4.32 1.54 0.53 3.57e-43
4.35 1.54 0.53 3.57e-43
4.38 1.54 0.53 3.57e-43
4.42 1.54 0.98 9.1477e-41
4.45 1.54 1.18 9.1477e-41
4.49 1.54 1.16 9.1477e-41
4.55 1.54 0.92 9.1477e-41
4.6 1.54 0.89 9.1477e-41
4.75 1.54 1 9.1477e-41
4.8 1.54 1 9.1477e-41
3 1.61 0.94 9.1477e-41
3.12 1.61 1.27 9.1477e-41
3.16 1.61 1.27 3.57e-43
3.15 1.61 1.27 3.57e-43
3.18 1.61 1.27 3.57e-43
3.22 1.61 1.27 3.57e-43
3.27 1.61 1.27 3.57e-43
3.31 1.61 1.27 3.57e-43
3.35 1.61 1.27 3.57e-43
3.39 1.61 1.27 3.57e-43
3.43 1.61 1.27 3.57e-43
3.47 1.61 1.27 3.57e-43
3.51 1.61 1.27 3.57e-43
3.55 1.61 1.27 3.57e-43
3.6 1.61 1.27 3.57e-43
3.64 1.61 1.27 3.57e-43
3.68 1.61 1.27 3.57e-43
3.72 1.61 1.27 3.57e-43
3.77 1.61 1.27 3.57e-43
3.81 1.61 0.93 9.1477e-41
3.83 1.61 0.93 3.57e-43
3.89 1.61 0.93 9.1477e-41
3.92 1.61 0.59 9.1477e-41
3.96 1.61 0.59 3.57e-43
4.01 1.61 0.59 3.57e-43
4.05 1.61 0.92 9.1477e-41
4.09 1.61 1.07 9.1477e-41
4.14 1.61 1.07 3.57e-43
4.18 1.61 1.07 3.57e-43
4.22 1.61 1.07 3.57e-43
4.27 1.61 1.07 3.57e-43
4.32 1.61 1.07 3.57e-43
4.35 1.61 1.07 3.57e-43
4.38 1.61 0.94 9.1477e-41
4.41 1.61 1.22 9.1477e-41
4.44 1.61 1.23 9.1477e-41
4.49 1.61 1.13 9.1477e-41
4.56 1.61 0.91 9.1477e-41
4.6 1.61 0.89 9.1477e-41
3 1.68 0.94 9.1477e-41
3.12 1.68 1.29 9.1477e-41
3.17 1.68 1.31 9.1477e-41
3.21 1.68 1.31 3.57e-43
3.18 1.68 1.31 3.57e-43
3.22 1.68 1.31 3.57e-43
3.27 1.68 1.31 3.57e-43
3.31 1.68 1.31 3.57e-43
3.35 1.68 1.31 3.57e-43
3.39 1.68 1.31 3.57e-43
3.43 1.68 1.31 3.57e-43
3.47 1.68 1.31 3.57e-43
3.51 1.68 1.31 3.57e-43
3.55 1.68 1.31 3.57e-43
3.6 1.68 1.31 3.57e-43
3.64 1.68 1.31 3.57e-43
3.68 1.68 1.31 3.57e-43
3.72 1.68 1.31 3.57e-43
3.77 1.68 1.31 3.57e-43
3.81 1.68 1.31 3.57e-43
3.83 1.68 1.31 3.57e-43
3.89 1.68 1.31 3.57e-43
3.92 1.68 1.31 3.57e-43
3.96 1.68 0.63 9.1477e-41
4.01 1.68 0.63 3.57e-43
4.05 1.68 0.92 9.1477e-41
4.09 1.68 1.03 9.1477e-41
4.18 1.68 1.03 3.57e-43
4.22 1.68 1.03 3.57e-43
4.27 1.68 1.03 3.57e-43
4.32 1.68 1.03 3.57e-43
4.35 1.68 1.03 3.57e-43
4.38 1.68 0.94 9.1477e-41
4.4 1.68 1.26 9.1477e-41
4.44 1.68 1.25 9.1477e-41
4.5 1.68 1.07 9.1477e-41
4.56 1.68 0.91 9.1477e-41
4.6 1.68 0.9 9.1477e-41
3.12 1.75 1.29 3.57e-43
3.17 1.75 1.34 9.1477e-41
3.21 1.75 1.34 3.57e-43
3.18 1.75 1.34 3.57e-43
3.22 1.75 0.97 9.1477e-41
3.33 1.75 1.36 9.1477e-41
3.37 1.75 1.36 9.1477e-41
3.41 1.75 1.36 9.1477e-41
3.45 1.75 1.36 9.1477e-41
3.49 1.75 1.37 9.1477e-41
3.53 1.75 1.37 9.1477e-41
3.57 1.75 1.37 9.1477e-41
3.6 1.75 1.37 9.1477e-41
3.64 1.75 1.38 9.1477e-41
3.68 1.75 1.37 9.1477e-41
3.72 1.75 1.37 9.1477e-41
3.76 1.75 1.37 9.1477e-41
3.79 1.75 1.37 9.1477e-41
3.83 1.75 1.36 9.1477e-41
3.87 1.75 1.36 9.1477e-41
3.91 1.75 1.36 9.1477e-41
3.94 1.75 1.35 9.1477e-41
3.98 1.75 1.36 9.1477e-41
4.02 1.75 1.36 9.1477e-41
4.06 1.75 1.35 9.1477e-41
4.09 1.75 1.35 3.57e-43
4.18 1.75 1.35 3.57e-43
4.22 1.75 0.93 9.1477e-41
4.27 1.75 0.68 9.1477e-41
4.31 1.75 0.68 3.57e-43
4.35 1.75 0.68 3.57e-43
4.38 1.75 0.94 9.1477e-41
4.4 1.75 1.29 9.1477e-41
4.44 1.75 1.28 9.1477e-41
4.51 1.75 0.91 9.1477e-41
4.55 1.75 0.93 9.1477e-41
4.6 1.75 0.89 9.1477e-41
3.12 1.82 1.29 3.57e-43
3.18 1.82 1.37 9.1477e-41
3.22 1.82 1.37 9.1477e-41
3.26 1.82 1.38 9.1477e-41
3.3 1.82 1.38 9.1477e-41
3.34 1.82 1.39 9.1477e-41
3.38 1.82 1.37 9.1477e-41
3.42 1.82 1.39 9.1477e-41
3.45 1.82 1.38 9.1477e-41
3.49 1.82 1.39 9.1477e-41
3.53 1.82 1.39 9.1477e-41
3.57 1.82 1.39 9.1477e-41
3.61 1.82 1.39 9.1477e-41
3.64 1.82 1.39 9.1477e-41
3.68 1.82 1.39 9.1477e-41
3.72 1.82 1.4 9.1477e-41
3.76 1.82 1.39 9.1477e-41
3.8 1.82 1.4 9.1477e-41
3.83 1.82 1.39 9.1477e-41
3.87 1.82 1.39 9.1477e-41
3.91 1.82 1.38 9.1477e-41
3.94 1.82 1.38 9.1477e-41
3.98 1.82 1.38 9.1477e-41
4.02 1.82 1.37 9.1477e-41
4.06 1.82 1.38 9.1477e-41
4.09 1.82 1.38 9.1477e-41
4.17 1.82 1.36 9.1477e-41
4.21 1.82 1.36 9.1477e-41
4.25 1.82 1.35 9.1477e-41
4.28 1.82 1.34 9.1477e-41
4.32 1.82 1.34 9.1477e-41
4.36 1.82 1.34 9.1477e-41
4.4 1.82 1.32 9.1477e-41
4.44 1.82 1.26 9.1477e-41
4.51 1.82 0.9 9.1477e-41
4.55 1.82 0.92 9.1477e-41
4.6 1.82 0.9 9.1477e-41
3.12 1.89 1.29 3.57e-43
3.18 1.89 1.37 9.1477e-41
3.22 1.89 1.38 9.1477e-41
3.26 1.89 1.4 9.1477e-41
3.3 1.89 1.39 9.1477e-41
3.34 1.89 1.4 9.1477e-41
3.38 1.89 1.4 9.1477e-41
3.42 1.89 1.41 9.1477e-41
3.46 1.89 1.4 9.1477e-41
3.49 1.89 1.4 9.1477e-41
3.53 1.89 1.4 9.1477e-41
3.57 1.89 1.41 9.1477e-41
3.61 1.89 1.41 9.1477e-41
3.65 1.89 1.41 9.1477e-41
3.68 1.89 1.41 9.1477e-41
3.72 1.89 1.41 9.1477e-41
3.76 1.89 1.42 9.1477e-41
3.8 1.89 1.42 9.1477e-41
3.83 1.89 1.4 9.1477e-41
3.87 1.89 1.4 9.1477e-41
3.91 1.89 1.4 9.1477e-41
3.95 1.89 1.4 9.1477e-41
3.98 1.89 1.4 9.1477e-41
4.02 1.89 1.41 9.1477e-41
4.06 1.89 1.4 9.1477e-41
4.09 1.89 1.39 9.1477e-41
4.17 1.89 1.37 9.1477e-41
4.21 1.89 1.38 9.1477e-41
4.25 1.89 1.36 9.1477e-41
4.28 1.89 1.36 9.1477e-41
4.32 1.89 1.35 9.1477e-41
4.36 1.89 1.36 9.1477e-41
4.4 1.89 1.35 9.1477e-41
4.44 1.89 1.24 9.1477e-41
4.51 1.89 0.9 9.1477e-41
4.55 1.89 0.93 9.1477e-41
4.6 1.89 0.92 9.1477e-41
3.12 1.96 1.29 3.57e-43
3.18 1.96 1.38 9.1477e-41
3.23 1.96 1.4 9.1477e-41
3.26 1.96 1.4 9.1477e-41
3.3 1.96 1.41 9.1477e-41
3.34 1.96 1.4 9.1477e-41
3.38 1.96 1.41 9.1477e-41
3.42 1.96 1.42 9.1477e-41
3.46 1.96 1.42 9.1477e-41
3.5 1.96 1.42 9.1477e-41
3.54 1.96 1.42 9.1477e-41
3.57 1.96 1.43 9.1477e-41
3.61 1.96 1.41 9.1477e-41
3.65 1.96 1.42 9.1477e-41
3.69 1.96 1.42 9.1477e-41
3.72 1.96 1.42 9.1477e-41
3.76 1.96 1.42 9.1477e-41
3.8 1.96 1.43 9.1477e-41
3.83 1.96 1.42 9.1477e-41
3.87 1.96 1.42 9.1477e-41
3.91 1.96 1.42 9.1477e-41
3.95 1.96 1.42 9.1477e-41
3.98 1.96 1.42 9.1477e-41
4.02 1.96 1.41 9.1477e-41
4.06 1.96 1.41 9.1477e-41
4.09 1.96 1.41 9.1477e-41
4.17 1.96 1.39 9.1477e-41
4.21 1.96 1.39 9.1477e-41
4.24 1.96 1.39 9.1477e-41
4.28 1.96 1.37 9.1477e-41
4.32 1.96 1.37 9.1477e-41
4.36 1.96 1.36 9.1477e-41
4.4 1.96 1.36 9.1477e-41
4.45 1.96 1.2 9.1477e-41
4.51 1.96 0.92 9.1477e-41
4.55 1.96 0.94 9.1477e-41
4.6 1.96 0.92 9.1477e-41
2.95 2.03 0.91 9.1477e-41
3.01 2.03 0.91 3.57e-43
3.12 2.03 1.29 9.1477e-41
3.19 2.03 1.4 9.1477e-41
3.23 2.03 1.41 9.1477e-41
3.27 2.03 1.42 9.1477e-41
3.31 2.03 1.42 9.1477e-41
3.35 2.03 1.43 9.1477e-41
3.38 2.03 1.42 9.1477e-41
3.42 2.03 1.43 9.1477e-41
3.46 2.03 1.43 9.1477e-41
3.5 2.03 1.43 9.1477e-41
3.54 2.03 1.43 9.1477e-41
3.57 2.03 1.43 9.1477e-41
3.61 2.03 1.43 9.1477e-41
3.65 2.03 1.44 9.1477e-41
3.69 2.03 1.43 9.1477e-41
3.72 2.03 1.44 9.1477e-41
3.76 2.03 1.43 9.1477e-41
3.8 2.03 1.44 9.1477e-41
3.84 2.03 1.43 9.1477e-41
3.87 2.03 1.43 9.1477e-41
3.91 2.03 1.43 9.1477e-41
3.95 2.03 1.43 9.1477e-41
3.98 2.03 1.43 9.1477e-41
4.02 2.03 1.42 9.1477e-41
4.06 2.03 1.42 9.1477e-41
4.09 2.03 1.41 9.1477e-41
4.17 2.03 1.41 9.1477e-41
4.21 2.03 1.4 9.1477e-41
4.24 2.03 1.4 9.1477e-41
4.28 2.03 1.38 9.1477e-41
4.32 2.03 1.39 9.1477e-41
4.36 2.03 1.39 9.1477e-41
4.4 2.03 1.39 3.57e-43
4.45 2.03 1.2 9.1477e-41
4.51 2.03 0.93 9.1477e-41
4.55 2.03 0.95 9.1477e-41
4.6 2.03 0.91 9.1477e-41
3.12 2.1 1.29 3.57e-43
3.19 2.1 1.4 9.1477e-41
3.23 2.1 1.43 9.1477e-41
3.27 2.1 1.42 9.1477e-41
3.31 2.1 1.43 9.1477e-41
3.35 2.1 1.43 9.1477e-41
3.39 2.1 1.43 9.1477e-41
3.42 2.1 1.44 9.1477e-41
3.46 2.1 1.44 9.1477e-41
3.5 2.1 1.44 9.1477e-41
3.54 2.1 1.44 9.1477e-41
3.58 2.1 1.45 9.1477e-41
3.61 2.1 1.44 9.1477e-41
3.65 2.1 1.45 9.1477e-41
3.69 2.1 1.44 9.1477e-41
3.72 2.1 1.44 9.1477e-41
3.76 2.1 1.45 9.1477e-41
3.8 2.1 1.45 9.1477e-41
3.84 2.1 1.43 9.1477e-41
3.87 2.1 1.44 9.1477e-41
3.91 2.1 1.44 9.1477e-41
3.95 2.1 1.44 9.1477e-41
3.98 2.1 1.44 9.1477e-41
4.02 2.1 1.43 9.1477e-41
4.06 2.1 1.43 9.1477e-41
4.09 2.1 1.43 9.1477e-41
4.17 2.1 1.41 9.1477e-41
4.21 2.1 1.41 9.1477e-41
4.24 2.1 1.41 9.1477e-41
4.28 2.1 1.4 9.1477e-41
4.32 2.1 1.39 9.1477e-41
4.36 2.1 1.39 9.1477e-41
4.4 2.1 1.36 9.1477e-41
4.47 2.1 0.88 9.1477e-41
4.51 2.1 0.94 9.1477e-41
4.55 2.1 0.96 9.1477e-41
4.59 2.1 0.93 9.1477e-41
4.65 2.1 0.82 9.1477e-41
2.95 2.17 0.91 9.1477e-41
3.01 2.17 0.91 3.57e-43
3.12 2.17 1.29 9.1477e-41
3.18 2.17 1.39 9.1477e-41
3.23 2.17 1.44 9.1477e-41
3.27 2.17 1.43 9.1477e-41
3.31 2.17 1.44 9.1477e-41
3.35 2.17 1.45 9.1477e-41
3.39 2.17 1.44 9.1477e-41
3.43 2.17 1.45 9.1477e-41
3.46 2.17 1.44 9.1477e-41
3.5 2.17 1.45 9.1477e-41
3.54 2.17 1.45 9.1477e-41
3.58 2.17 1.45 9.1477e-41
3.61 2.17 1.45 9.1477e-41
3.65 2.17 1.45 9.1477e-41
3.69 2.17 1.45 9.1477e-41
3.73 2.17 1.45 9.1477e-41
3.76 2.17 1.45 9.1477e-41
3.8 2.17 1.45 9.1477e-41
3.84 2.17 1.45 9.1477e-41
3.87 2.17 1.45 9.1477e-41
3.91 2.17 1.44 9.1477e-41
3.95 2.17 1.45 9.1477e-41
3.98 2.17 1.44 9.1477e-41
4.02 2.17 1.45 9.1477e-41
4.06 2.17 1.44 9.1477e-41
4.09 2.17 1.44 9.1477e-41
4.17 2.17 1.43 9.1477e-41
4.21 2.17 1.42 9.1477e-41
4.24 2.17 1.41 9.1477e-41
4.28 2.17 1.41 9.1477e-41
4.32 2.17 1.4 9.1477e-41
4.36 2.17 1.4 9.1477e-41
4.4 2.17 1.37 9.1477e-41
4.48 2.17 0.84 9.1477e-41
4.51 2.17 0.94 9.1477e-41
4.55 2.17 0.95 9.1477e-41
4.59 2.17 0.94 9.1477e-41
4.66 2.17 0.75 9.1477e-41
3.18 2.24 1.39 3.57e-43
3.23 2.24 1.43 9.1477e-41
3.27 2.24 1.43 9.1477e-41
3.31 2.24 1.45 9.1477e-41
3.35 2.24 1.45 9.1477e-41
3.39 2.24 1.44 9.1477e-41
3.43 2.24 1.45 9.1477e-41
3.47 2.24 1.46 9.1477e-41
3.5 2.24 1.46 9.1477e-41
3.54 2.24 1.46 9.1477e-41
3.58 2.24 1.46 9.1477e-41
3.62 2.24 1.46 9.1477e-41
3.65 2.24 1.47 9.1477e-41
3.69 2.24 1.45 9.1477e-41
3.73 2.24 1.46 9.1477e-41
3.76 2.24 1.46 9.1477e-41
3.8 2.24 1.46 9.1477e-41
3.84 2.24 1.45 9.1477e-41
3.87 2.24 1.45 9.1477e-41
3.91 2.24 1.45 9.1477e-41
3.95 2.24 1.45 9.1477e-41
3.98 2.24 1.44 9.1477e-41
4.02 2.24 1.45 9.1477e-41
4.06 2.24 1.45 9.1477e-41
4.09 2.24 1.45 9.1477e-41
4.17 2.24 1.44 9.1477e-41
4.21 2.24 1.42 9.1477e-41
4.24 2.24 1.42 9.1477e-41
4.28 2.24 1.41 9.1477e-41
4.32 2.24 1.4 9.1477e-41
4.36 2.24 1.4 9.1477e-41
4.4 2.24 1.34 9.1477e-41
4.46 2.24 1.01 9.1477e-41
4.51 2.24 0.98 9.1477e-41
4.55 2.24 0.98 9.1477e-41
4.59 2.24 0.93 9.1477e-41
4.65 2.24 0.78 9.1477e-41
3.18 2.31 1.39 3.57e-43
3.23 2.31 1.44 9.1477e-41
3.27 2.31 1.44 9.1477e-41
3.31 2.31 1.44 9.1477e-41
3.35 2.31 1.46 9.1477e-41
3.39 2.31 1.45 9.1477e-41
3.43 2.31 1.46 9.1477e-41
3.46 2.31 1.45 9.1477e-41
3.5 2.31 1.46 9.1477e-41
3.54 2.31 1.46 9.1477e-41
3.58 2.31 1.47 9.1477e-41
3.62 2.31 1.46 9.1477e-41
3.65 2.31 1.47 9.1477e-41
3.69 2.31 1.45 9.1477e-41
3.73 2.31 1.46 9.1477e-41
3.76 2.31 1.46 9.1477e-41
3.8 2.31 1.46 9.1477e-41
3.84 2.31 1.45 9.1477e-41
3.87 2.31 1.47 9.1477e-41
3.91 2.31 1.46 9.1477e-41
3.95 2.31 1.46 9.1477e-41
3.98 2.31 1.46 9.1477e-41
4.02 2.31 1.46 9.1477e-41
4.06 2.31 1.46 9.1477e-41
4.09 2.31 1.44 9.1477e-41
4.17 2.31 1.43 9.1477e-41
4.21 2.31 1.44 9.1477e-41
4.24 2.31 1.42 9.1477e-41
4.28 2.31 1.42 9.1477e-41
4.32 2.31 1.41 9.1477e-41
4.36 2.31 1.41 9.1477e-41
4.4 2.31 1.36 9.1477e-41
4.44 2.31 1.36 3.57e-43
4.51 2.31 1.36 3.57e-43
4.55 2.31 0.98 9.1477e-41
4.59 2.31 0.93 9.1477e-41
3.18 2.38 1.39 3.57e-43
3.23 2.38 1.44 9.1477e-41
3.27 2.38 1.44 9.1477e-41
3.31 2.38 1.46 9.1477e-41
3.35 2.38 1.45 9.1477e-41
3.39 2.38 1.46 9.1477e-41
3.43 2.38 1.47 9.1477e-41
3.47 2.38 1.46 9.1477e-41
3.5 2.38 1.47 9.1477e-41
3.54 2.38 1.47 9.1477e-41
3.58 2.38 1.47 9.1477e-41
3.62 2.38 1.47 9.1477e-41
3.65 2.38 1.47 9.1477e-41
3.69 2.38 1.47 9.1477e-41
3.73 2.38 1.47 9.1477e-41
3.76 2.38 1.47 9.1477e-41
3.8 2.38 1.47 9.1477e-41
3.84 2.38 1.46 9.1477e-41
3.87 2.38 1.46 9.1477e-41
3.91 2.38 1.46 9.1477e-41
3.95 2.38 1.46 9.1477e-41
3.98 2.38 1.46 9.1477e-41
4.02 2.38 1.46 9.1477e-41
4.06 2.38 1.46 9.1477e-41
4.09 2.38 1.46 9.1477e-41
4.17 2.38 1.45 9.1477e-41
4.21 2.38 1.45 9.1477e-41
4.24 2.38 1.43 9.1477e-41
4.28 2.38 1.42 9.1477e-41
4.32 2.38 1.42 9.1477e-41
4.36 2.38 1.42 9.1477e-41
4.39 2.38 1.42 3.57e-43
4.44 2.38 1.42 3.57e-43
4.51 2.38 1.42 3.57e-43
4.55 2.38 0.98 9.1477e-41
4.59 2.38 0.94 9.1477e-41
3.18 2.45 1.39 3.57e-43
3.23 2.45 1.44 9.1477e-41
3.27 2.45 1.45 9.1477e-41
3.31 2.45 1.45 9.1477e-41
3.35 2.45 1.47 9.1477e-41
3.39 2.45 1.46 9.1477e-41
3.43 2.45 1.47 9.1477e-41
3.47 2.45 1.47 9.1477e-41
3.5 2.45 1.47 9.1477e-41
3.54 2.45 1.47 9.1477e-41
3.58 2.45 1.48 9.1477e-41
3.62 2.45 1.47 9.1477e-41
3.65 2.45 1.48 9.1477e-41
3.69 2.45 1.46 9.1477e-41
3.73 2.45 1.47 9.1477e-41
3.76 2.45 1.47 9.1477e-41
3.8 2.45 1.48 9.1477e-41
3.84 2.45 1.47 9.1477e-41
3.87 2.45 1.46 9.1477e-41
3.91 2.45 1.47 9.1477e-41
3.95 2.45 1.47 9.1477e-41
3.98 2.45 1.46 9.1477e-41
4.02 2.45 1.47 9.1477e-41
4.06 2.45 1.45 9.1477e-41
4.09 2.45 1.46 9.1477e-41
4.17 2.45 1.45 9.1477e-41
4.21 2.45 1.45 9.1477e-41
4.24 2.45 1.44 9.1477e-41
4.28 2.45 1.43 9.1477e-41
4.32 2.45 1.42 9.1477e-41
4.36 2.45 1.42 9.1477e-41
4.39 2.45 1.42 3.57e-43
4.44 2.45 1.42 3.57e-43
4.51 2.45 0.98 9.1477e-41
4.55 2.45 0.99 9.1477e-41
4.59 2.45 0.94 9.1477e-41
3.18 2.52 1.39 3.57e-43
3.23 2.52 1.44 9.1477e-41
3.27 2.52 1.45 9.1477e-41
3.31 2.52 1.46 9.1477e-41
3.35 2.52 1.46 9.1477e-41
3.39 2.52 1.47 9.1477e-41
3.43 2.52 1.46 9.1477e-41
3.47 2.52 1.47 9.1477e-41
3.5 2.52 1.48 9.1477e-41
3.54 2.52 1.47 9.1477e-41
3.58 2.52 1.47 9.1477e-41
3.62 2.52 1.46 9.1477e-41
3.65 2.52 1.47 9.1477e-41
3.69 2.52 1.47 9.1477e-41
3.73 2.52 1.47 9.1477e-41
3.76 2.52 1.47 9.1477e-41
3.8 2.52 1.48 9.1477e-41
3.84 2.52 1.47 9.1477e-41
3.87 2.52 1.47 9.1477e-41
3.91 2.52 1.46 9.1477e-41
3.95 2.52 1.47 9.1477e-41
3.98 2.52 1.46 9.1477e-41
4.02 2.52 1.47 9.1477e-41
4.06 2.52 1.46 9.1477e-41
4.09 2.52 1.46 9.1477e-41
4.17 2.52 1.45 9.1477e-41
4.21 2.52 1.45 9.1477e-41
4.24 2.52 1.43 9.1477e-41
4.28 2.52 1.43 9.1477e-41
4.32 2.52 1.43 9.1477e-41
4.36 2.52 1.43 9.1477e-41
4.39 2.52 1.43 3.57e-43
4.44 2.52 1.43 3.57e-43
4.51 2.52 0.98 9.1477e-41
4.55 2.52 0.98 9.1477e-41
4.59 2.52 0.94 9.1477e-41
3.18 2.59 1.39 3.57e-43
3.24 2.59 1.45 9.1477e-41
3.28 2.59 1.46 9.1477e-41
3.31 2.59 1.46 9.1477e-41
3.35 2.59 1.47 9.1477e-41
3.39 2.59 1.46 9.1477e-41
3.43 2.59 1.47 9.1477e-41
3.47 2.59 1.48 9.1477e-41
3.5 2.59 1.47 9.1477e-41
3.54 2.59 1.47 9.1477e-41
3.58 2.59 1.48 9.1477e-41
3.62 2.59 1.48 9.1477e-41
3.65 2.59 1.48 9.1477e-41
3.69 2.59 1.47 9.1477e-41
3.73 2.59 1.47 9.1477e-41
3.76 2.59 1.47 9.1477e-41
3.8 2.59 1.48 9.1477e-41
3.84 2.59 1.46 9.1477e-41
3.87 2.59 1.47 9.1477e-41
3.91 2.59 1.45 9.1477e-41
3.95 2.59 1.46 9.1477e-41
3.98 2.59 1.47 9.1477e-41
4.02 2.59 1.47 9.1477e-41
4.06 2.59 1.46 9.1477e-41
4.09 2.59 1.46 9.1477e-41
4.17 2.59 1.45 9.1477e-41
4.21 2.59 1.45 9.1477e-41
4.24 2.59 1.44 9.1477e-41
4.28 2.59 1.43 9.1477e-41
4.32 2.59 1.43 9.1477e-41
4.36 2.59 1.42 9.1477e-41
4.39 2.59 1.42 3.57e-43
4.44 2.59 1.42 3.57e-43
4.51 2.59 0.98 9.1477e-41
4.55 2.59 0.98 9.1477e-41
4.59 2.59 0.93 9.1477e-41
3.18 2.66 1.39 3.57e-43
3.24 2.66 1.45 9.1477e-41
3.27 2.66 1.45 9.1477e-41
3.31 2.66 1.46 9.1477e-41
3.35 2.66 1.47 9.1477e-41
3.39 2.66 1.48 9.1477e-41
3.43 2.66 1.48 9.1477e-41
3.47 2.66 1.47 9.1477e-41
3.5 2.66 1.48 9.1477e-41
3.54 2.66 1.46 9.1477e-41
3.58 2.66 1.48 9.1477e-41
3.62 2.66 1.47 9.1477e-41
3.65 2.66 1.48 9.1477e-41
3.69 2.66 1.47 9.1477e-41
3.73 2.66 1.48 9.1477e-41
3.76 2.66 1.48 9.1477e-41
3.8 2.66 1.47 9.1477e-41
3.84 2.66 1.46 9.1477e-41
3.87 2.66 1.47 9.1477e-41
3.91 2.66 1.47 9.1477e-41
3.95 2.66 1.47 9.1477e-41
3.98 2.66 1.47 9.1477e-41
4.02 2.66 1.46 9.1477e-41
4.06 2.66 1.47 9.1477e-41
4.09 2.66 1.46 9.1477e-41
4.17 2.66 1.45 9.1477e-41
4.21 2.66 1.44 9.1477e-41
4.24 2.66 1.45 9.1477e-41
4.28 2.66 1.44 9.1477e-41
4.32 2.66 1.44 9.1477e-41
4.36 2.66 1.44 3.57e-43
4.39 2.66 1.44 3.57e-43
4.44 2.66 1.44 3.57e-43
4.51 2.66 0.98 9.1477e-41
4.55 2.66 0.98 9.1477e-41
4.59 2.66 0.93 9.1477e-41
3.18 2.73 1.39 3.57e-43
3.23 2.73 1.44 9.1477e-41
3.27 2.73 1.45 9.1477e-41
3.31 2.73 1.46 9.1477e-41
3.35 2.73 1.46 9.1477e-41
3.39 2.73 1.46 9.1477e-41
3.43 2.73 1.48 9.1477e-41
3.47 2.73 1.46 9.1477e-41
3.5 2.73 1.48 9.1477e-41
3.54 2.73 1.47 9.1477e-41
3.58 2.73 1.47 9.1477e-41
3.62 2.73 1.48 9.1477e-41
3.65 2.73 1.48 9.1477e-41
3.69 2.73 1.46 9.1477e-41
3.73 2.73 1.47 9.1477e-41
3.76 2.73 1.48 9.1477e-41
3.8 2.73 1.48 9.1477e-41
3.84 2.73 1.46 9.1477e-41
3.87 2.73 1.47 9.1477e-41
3.91 2.73 1.46 9.1477e-41
3.95 2.73 1.47 9.1477e-41
3.98 2.73 1.47 9.1477e-41
4.02 2.73 1.46 9.1477e-41
4.06 2.73 1.47 9.1477e-41
4.09 2.73 1.47 9.1477e-41
4.17 2.73 1.45 9.1477e-41
4.21 2.73 1.45 9.1477e-41
4.24 2.73 1.45 9.1477e-41
4.28 2.73 1.44 9.1477e-41
4.32 2.73 1.43 9.1477e-41
4.36 2.73 1.43 3.57e-43
4.39 2.73 1.43 3.57e-43
4.44 2.73 1.43 3.57e-43
4.51 2.73 0.98 9.1477e-41
4.55 2.73 0.99 9.1477e-41
4.59 2.73 0.93 9.1477e-41
3.18 2.8 1.39 3.57e-43
3.23 2.8 1.44 9.1477e-41
3.27 2.8 1.45 9.1477e-41
3.31 2.8 1.46 9.1477e-41
3.35 2.8 1.47 9.1477e-41
3.39 2.8 1.47 9.1477e-41
3.43 2.8 1.47 9.1477e-41
3.47 2.8 1.47 9.1477e-41
3.5 2.8 1.48 9.1477e-41
3.54 2.8 1.47 9.1477e-41
3.58 2.8 1.48 9.1477e-41
3.62 2.8 1.48 9.1477e-41
3.65 2.8 1.48 9.1477e-41
3.69 2.8 1.47 9.1477e-41
3.73 2.8 1.48 9.1477e-41
3.76 2.8 1.47 9.1477e-41
3.8 2.8 1.48 9.1477e-41
3.84 2.8 1.46 9.1477e-41
3.87 2.8 1.47 9.1477e-41
3.91 2.8 1.47 9.1477e-41
3.95 2.8 1.47 9.1477e-41
3.98 2.8 1.47 9.1477e-41
4.02 2.8 1.47 9.1477e-41
4.06 2.8 1.46 9.1477e-41
4.09 2.8 1.47 9.1477e-41
4.17 2.8 1.45 9.1477e-41
4.21 2.8 1.45 9.1477e-41
4.24 2.8 1.44 9.1477e-41
4.28 2.8 1.43 9.1477e-41
4.32 2.8 1.43 9.1477e-41
4.36 2.8 1.43 3.57e-43
4.39 2.8 1.43 3.57e-43
4.44 2.8 1.43 3.57e-43
4.51 2.8 0.98 9.1477e-41
4.55 2.8 0.99 9.1477e-41
4.6 2.8 0.91 9.1477e-41
2.95 2.87 0.91 9.1477e-41
3.02 2.87 0.91 3.57e-43
3.12 2.87 0.91 3.57e-43
3.18 2.87 1.39 9.1477e-41
3.23 2.87 1.44 9.1477e-41
3.28 2.87 1.46 9.1477e-41
3.31 2.87 1.46 9.1477e-41
3.35 2.87 1.46 9.1477e-41
3.39 2.87 1.46 9.1477e-41
3.43 2.87 1.47 9.1477e-41
3.47 2.87 1.46 9.1477e-41
3.5 2.87 1.47 9.1477e-41
3.54 2.87 1.48 9.1477e-41
3.58 2.87 1.48 9.1477e-41
3.62 2.87 1.47 9.1477e-41
3.65 2.87 1.47 9.1477e-41
3.69 2.87 1.47 9.1477e-41
3.73 2.87 1.48 9.1477e-41
3.76 2.87 1.47 9.1477e-41
3.8 2.87 1.49 9.1477e-41
3.84 2.87 1.47 9.1477e-41
3.87 2.87 1.46 9.1477e-41
3.91 2.87 1.47 9.1477e-41
3.95 2.87 1.47 9.1477e-41
3.98 2.87 1.46 9.1477e-41
4.02 2.87 1.47 9.1477e-41
4.06 2.87 1.46 9.1477e-41
4.09 2.87 1.47 9.1477e-41
4.17 2.87 1.46 9.1477e-41
4.21 2.87 1.44 9.1477e-41
4.24 2.87 1.45 9.1477e-41
4.28 2.87 1.43 9.1477e-41
4.32 2.87 1.42 9.1477e-41
4.36 2.87 1.42 3.57e-43
4.39 2.87 1.42 3.57e-43
4.44 2.87 1.42 3.57e-43
4.51 2.87 0.98 9.1477e-41
4.55 2.87 1 9.1477e-41
4.6 2.87 0.91 9.1477e-41
2.95 2.94 0.89 9.1477e-41
3.02 2.94 0.89 3.57e-43
3.12 2.94 0.89 3.57e-43
3.18 2.94 1.39 9.1477e-41
3.23 2.94 1.43 9.1477e-41
3.28 2.94 1.46 9.1477e-41
3.31 2.94 1.45 9.1477e-41
3.35 2.94 1.46 9.1477e-41
3.39 2.94 1.46 9.1477e-41
3.43 2.94 1.47 9.1477e-41
3.47 2.94 1.47 9.1477e-41
3.5 2.94 1.47 9.1477e-41
3.54 2.94 1.47 9.1477e-41
3.58 2.94 1.47 9.1477e-41
3.62 2.94 1.47 9.1477e-41
3.65 2.94 1.48 9.1477e-41
3.69 2.94 1.47 9.1477e-41
3.73 2.94 1.47 9.1477e-41
3.76 2.94 1.48 9.1477e-41
3.8 2.94 1.48 9.1477e-41
3.84 2.94 1.47 9.1477e-41
3.87 2.94 1.46 9.1477e-41
3.91 2.94 1.47 9.1477e-41
3.95 2.94 1.47 9.1477e-41
3.98 2.94 1.47 9.1477e-41
4.02 2.94 1.46 9.1477e-41
4.06 2.94 1.46 9.1477e-41
4.09 2.94 1.46 9.1477e-41
4.17 2.94 1.46 9.1477e-41
4.21 2.94 1.45 9.1477e-41
4.24 2.94 1.44 9.1477e-41
4.28 2.94 1.43 9.1477e-41
4.32 2.94 1.42 9.1477e-41
4.36 2.94 1.42 3.57e-43
4.39 2.94 1.42 3.57e-43
4.44 2.94 1.42 3.57e-43
4.51 2.94 0.98 9.1477e-41
4.55 2.94 1 9.1477e-41
4.6 2.94 0.9 9.1477e-41
2.95 3.01 0.91 9.1477e-41
3.02 3.01 1.03 9.1477e-41
3.07 3.01 1.03 3.57e-43
3.18 3.01 1.39 9.1477e-41
3.23 3.01 1.43 9.1477e-41
3.27 3.01 1.45 9.1477e-41
3.31 3.01 1.45 9.1477e-41
3.35 3.01 1.46 9.1477e-41
3.39 3.01 1.46 9.1477e-41
3.43 3.01 1.47 9.1477e-41
3.47 3.01 1.47 9.1477e-41
3.5 3.01 1.47 9.1477e-41
3.54 3.01 1.48 9.1477e-41
3.58 3.01 1.47 9.1477e-41
3.62 3.01 1.47 9.1477e-41
3.65 3.01 1.48 9.1477e-41
3.69 3.01 1.47 9.1477e-41
3.73 3.01 1.47 9.1477e-41
3.76 3.01 1.47 9.1477e-41
3.8 3.01 1.47 9.1477e-41
3.84 3.01 1.47 9.1477e-41
3.87 3.01 1.47 9.1477e-41
3.91 3.01 1.47 9.1477e-41
3.95 3.01 1.47 9.1477e-41
3.98 3.01 1.46 9.1477e-41
4.02 3.01 1.47 9.1477e-41
4.06 3.01 1.46 9.1477e-41
4.09 3.01 1.46 9.1477e-41
4.17 3.01 1.44 9.1477e-41
4.21 3.01 1.44 9.1477e-41
4.24 3.01 1.44 9.1477e-41
4.28 3.01 1.42 9.1477e-41
4.32 3.01 1.42 9.1477e-41
4.36 3.01 1.42 3.57e-43
4.39 3.01 1.42 3.57e-43
4.44 3.01 1.25 9.1477e-41
4.5 3.01 1.04 9.1477e-41
4.55 3.01 0.99 9.1477e-41
4.6 3.01 0.88 9.1477e-41
3.02 3.08 1.03 9.1477e-41
3.07 3.08 1.03 3.57e-43
3.18 3.08 1.39 9.1477e-41
3.23 3.08 1.43 9.1477e-41
3.27 3.08 1.45 9.1477e-41
3.31 3.08 1.44 9.1477e-41
3.35 3.08 1.45 9.1477e-41
3.39 3.08 1.45 9.1477e-41
3.43 3.08 1.47 9.1477e-41
3.47 3.08 1.46 9.1477e-41
3.5 3.08 1.47 9.1477e-41
3.54 3.08 1.47 9.1477e-41
3.58 3.08 1.47 9.1477e-41
3.62 3.08 1.47 9.1477e-41
3.65 3.08 1.47 9.1477e-41
3.69 3.08 1.47 9.1477e-41
3.73 3.08 1.47 9.1477e-41
3.76 3.08 1.47 9.1477e-41
3.8 3.08 1.47 9.1477e-41
3.84 3.08 1.46 9.1477e-41
3.87 3.08 1.46 9.1477e-41
3.91 3.08 1.46 9.1477e-41
3.95 3.08 1.47 9.1477e-41
3.98 3.08 1.46 9.1477e-41
4.02 3.08 1.46 9.1477e-41
4.06 3.08 1.46 9.1477e-41
4.09 3.08 1.44 9.1477e-41
4.17 3.08 1.45 9.1477e-41
4.21 3.08 1.45 9.1477e-41
4.24 3.08 1.43 9.1477e-41
4.28 3.08 1.43 9.1477e-41
4.32 3.08 1.42 9.1477e-41
4.36 3.08 1.42 3.57e-43
4.39 3.08 1.42 3.57e-43
4.44 3.08 1.25 9.1477e-41
4.5 3.08 1 9.1477e-41
4.55 3.08 1 9.1477e-41
4.6 3.08 0.9 9.1477e-41
3.02 3.15 1.03 9.1477e-41
3.07 3.15 1.03 3.57e-43
3.18 3.15 1.39 9.1477e-41
3.23 3.15 1.42 9.1477e-41
3.27 3.15 1.44 9.1477e-41
3.31 3.15 1.45 9.1477e-41
3.35 3.15 1.45 9.1477e-41
3.39 3.15 1.45 9.1477e-41
3.43 3.15 1.47 9.1477e-41
3.46 3.15 1.45 9.1477e-41
3.5 3.15 1.47 9.1477e-41
3.54 3.15 1.47 9.1477e-41
3.58 3.15 1.47 9.1477e-41
3.62 3.15 1.47 9.1477e-41
3.65 3.15 1.47 9.1477e-41
3.69 3.15 1.46 9.1477e-41
3.73 3.15 1.47 9.1477e-41
3.76 3.15 1.46 9.1477e-41
3.8 3.15 1.46 9.1477e-41
3.84 3.15 1.46 9.1477e-41
3.87 3.15 1.46 9.1477e-41
3.91 3.15 1.47 9.1477e-41
3.95 3.15 1.47 9.1477e-41
3.98 3.15 1.46 9.1477e-41
4.02 3.15 1.46 9.1477e-41
4.06 3.15 1.45 9.1477e-41
4.09 3.15 1.45 9.1477e-41
4.17 3.15 1.44 9.1477e-41
4.21 3.15 1.44 9.1477e-41
4.24 3.15 1.43 9.1477e-41
4.28 3.15 1.47 9.1477e-41
4.32 3.15 1.41 9.1477e-41
4.36 3.15 1.41 3.57e-43
4.39 3.15 1.41 3.57e-43
4.44 3.15 1.25 9.1477e-41
4.5 3.15 1.02 9.1477e-41
4.55 3.15 1 9.1477e-41
4.6 3.15 0.88 9.1477e-41
3.02 3.22 1 9.1477e-41
3.08 3.22 1.08 9.1477e-41
3.16 3.22 1.29 9.1477e-41
3.23 3.22 1.4 9.1477e-41
3.27 3.22 1.43 9.1477e-41
3.31 3.22 1.44 9.1477e-41
3.35 3.22 1.45 9.1477e-41
3.39 3.22 1.45 9.1477e-41
3.43 3.22 1.45 9.1477e-41
3.46 3.22 1.45 9.1477e-41
3.5 3.22 1.46 9.1477e-41
3.54 3.22 1.47 9.1477e-41
3.58 3.22 1.47 9.1477e-41
3.61 3.22 1.45 9.1477e-41
3.65 3.22 1.47 9.1477e-41
3.69 3.22 1.46 9.1477e-41
3.73 3.22 1.46 9.1477e-41
3.76 3.22 1.46 9.1477e-41
3.8 3.22 1.47 9.1477e-41
3.84 3.22 1.45 9.1477e-41
3.87 3.22 1.46 9.1477e-41
3.91 3.22 1.46 9.1477e-41
3.95 3.22 1.46 9.1477e-41
3.98 3.22 1.46 9.1477e-41
4.02 3.22 1.46 9.1477e-41
4.06 3.22 1.46 9.1477e-41
4.09 3.22 1.45 9.1477e-41
4.17 3.22 1.44 9.1477e-41
4.21 3.22 1.44 9.1477e-41
4.24 3.22 1.42 9.1477e-41
4.28 3.22 1.43 9.1477e-41
4.32 3.22 1.42 9.1477e-41
4.36 3.22 1.42 3.57e-43
4.39 3.22 1.42 3.57e-43
4.44 3.22 1.25 9.1477e-41
4.5 3.22 1.02 9.1477e-41
4.55 3.22 0.99 9.1477e-41
4.6 3.22 0.87 9.1477e-41
3.07 3.29 1.04 3.57e-43
3.16 3.29 1.29 9.1477e-41
3.22 3.29 1.39 9.1477e-41
3.27 3.29 1.43 9.1477e-41
3.31 3.29 1.44 9.1477e-41
3.35 3.29 1.43 9.1477e-41
3.39 3.29 1.44 9.1477e-41
3.43 3.29 1.45 9.1477e-41
3.46 3.29 1.45 9.1477e-41
3.5 3.29 1.46 9.1477e-41
3.54 3.29 1.45 9.1477e-41
3.58 3.29 1.47 9.1477e-41
3.61 3.29 1.45 9.1477e-41
3.65 3.29 1.46 9.1477e-41
3.69 3.29 1.45 9.1477e-41
3.73 3.29 1.45 9.1477e-41
3.76 3.29 1.46 9.1477e-41
3.8 3.29 1.46 9.1477e-41
3.84 3.29 1.45 9.1477e-41
3.87 3.29 1.45 9.1477e-41
3.91 3.29 1.46 9.1477e-41
3.95 3.29 1.46 9.1477e-41
3.98 3.29 1.45 9.1477e-41
4.02 3.29 1.44 9.1477e-41
4.06 3.29 1.45 9.1477e-41
4.09 3.29 1.44 9.1477e-41
4.17 3.29 1.43 9.1477e-41
4.21 3.29 1.44 9.1477e-41
4.24 3.29 1.43 9.1477e-41
4.28 3.29 1.43 9.1477e-41
4.32 3.29 1.41 9.1477e-41
4.36 3.29 1.38 9.1477e-41
4.4 3.29 1.3 9.1477e-41
4.45 3.29 1.22 9.1477e-41
4.5 3.29 1.07 9.1477e-41
4.55 3.29 0.97 9.1477e-41
4.6 3.29 0.86 9.1477e-41
3.07 3.36 1.04 3.57e-43
3.15 3.36 1.23 9.1477e-41
3.22 3.36 1.37 9.1477e-41
3.27 3.36 1.41 9.1477e-41
3.31 3.36 1.44 9.1477e-41
3.35 3.36 1.44 9.1477e-41
3.39 3.36 1.44 9.1477e-41
3.43 3.36 1.45 9.1477e-41
3.46 3.36 1.44 9.1477e-41
3.5 3.36 1.44 9.1477e-41
3.54 3.36 1.46 9.1477e-41
3.58 3.36 1.45 9.1477e-41
3.61 3.36 1.45 9.1477e-41
3.65 3.36 1.44 9.1477e-41
3.69 3.36 1.45 9.1477e-41
3.73 3.36 1.45 9.1477e-41
3.76 3.36 1.45 9.1477e-41
3.8 3.36 1.46 9.1477e-41
3.84 3.36 1.44 9.1477e-41
3.87 3.36 1.45 9.1477e-41
3.91 3.36 1.45 9.1477e-41
3.95 3.36 1.44 9.1477e-41
3.98 3.36 1.45 9.1477e-41
4.02 3.36 1.44 9.1477e-41
4.06 3.36 1.45 9.1477e-41
4.09 3.36 1.43 9.1477e-41
4.17 3.36 1.43 9.1477e-41
4.21 3.36 1.42 9.1477e-41
4.24 3.36 1.42 9.1477e-41
4.28 3.36 1.42 9.1477e-41
4.32 3.36 1.4 9.1477e-41
4.36 3.36 1.36 9.1477e-41
4.4 3.36 1.29 9.1477e-41
4.45 3.36 1.19 9.1477e-41
4.5 3.36 1.07 9.1477e-41
4.55 3.36 0.97 9.1477e-41
4.6 3.36 0.85 9.1477e-41
3.01 3.43 0.96 9.1477e-41
3.07 3.43 1.04 9.1477e-41
3.15 3.43 1.21 9.1477e-41
3.22 3.43 1.35 9.1477e-41
3.26 3.43 1.4 9.1477e-41
3.31 3.43 1.43 9.1477e-41
3.34 3.43 1.42 9.1477e-41
3.39 3.43 1.43 9.1477e-41
3.42 3.43 1.43 9.1477e-41
3.46 3.43 1.43 9.1477e-41
3.5 3.43 1.44 9.1477e-41
3.54 3.43 1.42 9.1477e-41
3.57 3.43 1.44 9.1477e-41
3.61 3.43 1.43 9.1477e-41
3.65 3.43 1.44 9.1477e-41
3.69 3.43 1.44 9.1477e-41
3.72 3.43 1.44 9.1477e-41
3.76 3.43 1.45 9.1477e-41
3.8 3.43 1.45 9.1477e-41
3.84 3.43 1.44 9.1477e-41
3.87 3.43 1.44 9.1477e-41
3.91 3.43 1.44 9.1477e-41
3.95 3.43 1.44 9.1477e-41
3.98 3.43 1.45 9.1477e-41
4.02 3.43 1.44 9.1477e-41
4.06 3.43 1.44 9.1477e-41
4.09 3.43 1.44 9.1477e-41
4.17 3.43 1.42 9.1477e-41
4.21 3.43 1.43 9.1477e-41
4.24 3.43 1.4 9.1477e-41
4.28 3.43 1.41 9.1477e-41
4.32 3.43 1.38 9.1477e-41
4.36 3.43 1.35 9.1477e-41
4.4 3.43 1.26 9.1477e-41
4.45 3.43 1.16 9.1477e-41
4.5 3.43 1.05 9.1477e-41
4.55 3.43 1.05 3.57e-43
4.6 3.43 0.85 9.1477e-41
3 3.5 0.93 9.1477e-41
3.06 3.5 1.02 9.1477e-41
3.14 3.5 1.19 9.1477e-41
3.2 3.5 1.29 9.1477e-41
3.26 3.5 1.39 9.1477e-41
3.31 3.5 1.42 9.1477e-41
3.34 3.5 1.41 9.1477e-41
3.38 3.5 1.42 9.1477e-41
3.42 3.5 1.42 9.1477e-41
3.46 3.5 1.43 9.1477e-41
3.5 3.5 1.44 9.1477e-41
3.54 3.5 1.42 9.1477e-41
3.57 3.5 1.44 9.1477e-41
3.61 3.5 1.43 9.1477e-41
3.65 3.5 1.44 9.1477e-41
3.69 3.5 1.44 9.1477e-41
3.72 3.5 1.43 9.1477e-41
3.76 3.5 1.44 9.1477e-41
3.8 3.5 1.44 9.1477e-41
3.84 3.5 1.43 9.1477e-41
3.87 3.5 1.42 9.1477e-41
3.91 3.5 1.43 9.1477e-41
3.95 3.5 1.43 9.1477e-41
3.98 3.5 1.42 9.1477e-41
4.02 3.5 1.42 9.1477e-41
4.06 3.5 1.43 9.1477e-41
4.09 3.5 1.42 9.1477e-41
4.17 3.5 1.42 9.1477e-41
4.21 3.5 1.41 9.1477e-41
4.24 3.5 1.4 9.1477e-41
4.28 3.5 1.4 9.1477e-41
4.32 3.5 1.36 9.1477e-41
4.36 3.5 1.33 9.1477e-41
4.4 3.5 1.25 9.1477e-41
4.45 3.5 1.14 9.1477e-41
4.5 3.5 1.02 9.1477e-41
4.55 3.5 0.94 9.1477e-41
3.06 3.57 1.01 9.1477e-41
3.13 3.57 1.01 3.57e-43
3.2 3.57 1.01 3.57e-43
3.26 3.57 1.01 3.57e-43
3.31 3.57 1.42 9.1477e-41
3.34 3.57 1.39 9.1477e-41
3.38 3.57 1.4 9.1477e-41
3.42 3.57 1.42 9.1477e-41
3.46 3.57 1.42 9.1477e-41
3.5 3.57 1.43 9.1477e-41
3.54 3.57 1.43 9.1477e-41
3.57 3.57 1.43 9.1477e-41
3.61 3.57 1.42 9.1477e-41
3.65 3.57 1.42 9.1477e-41
3.69 3.57 1.42 9.1477e-41
3.72 3.57 1.42 9.1477e-41
3.76 3.57 1.42 9.1477e-41
3.8 3.57 1.44 9.1477e-41
3.83 3.57 1.42 9.1477e-41
3.87 3.57 1.41 9.1477e-41
3.91 3.57 1.43 9.1477e-41
3.95 3.57 1.41 9.1477e-41
3.98 3.57 1.42 9.1477e-41
4.02 3.57 1.42 9.1477e-41
4.06 3.57 1.42 9.1477e-41
4.09 3.57 1.42 9.1477e-41
4.17 3.57 1.4 9.1477e-41
4.21 3.57 1.4 9.1477e-41
4.24 3.57 1.39 9.1477e-41
4.28 3.57 1.39 3.57e-43
4.32 3.57 1.39 3.57e-43
4.36 3.57 1.33 9.1477e-41
4.41 3.57 1.21 9.1477e-41
4.45 3.57 1.11 9.1477e-41
4.5 3.57 1 9.1477e-41
4.55 3.57 0.95 9.1477e-41
3.05 3.64 0.98 9.1477e-41
3.11 3.64 0.98 3.57e-43
3.2 3.64 0.98 3.57e-43
3.26 3.64 0.98 3.57e-43
3.31 3.64 0.98 3.57e-43
3.34 3.64 0.98 3.57e-43
3.38 3.64 0.98 3.57e-43
3.42 3.64 0.98 3.57e-43
3.46 3.64 0.98 3.57e-43
3.5 3.64 0.98 3.57e-43
3.54 3.64 0.98 3.57e-43
3.57 3.64 0.98 3.57e-43
3.61 3.64 1.42 9.1477e-41
3.63 3.64 1.24 9.1477e-41
3.67 3.64 1.25 9.1477e-41
3.71 3.64 1.25 9.1477e-41
