# .PCD v.7 - Point Cloud Data file format
VERSION .7
FIELDS x y z rgb
SIZE 4 4 4 4
TYPE F F F F
WIDTH 1971
HEIGHT 1
POINTS 1971
DATA ascii
2.78 0.3 0.76 9.1477e-41
2.84 0.3 0.81 9.1477e-41
2.88 0.3 0.8 9.1477e-41
2.93 0.3 0.8 9.1477e-41
2.96 0.3 0.76 9.1477e-41
2.99 0.3 0.76 3.57e-43
1.53 0.32 0.85 9.1477e-41
1.57 0.32 0.85 3.57e-43
1.61 0.32 0.85 3.57e-43
1.65 0.32 0.85 3.57e-43
1.66 0.32 0.85 3.57e-43
1.71 0.32 0.85 3.57e-43
1.77 0.32 0.85 3.57e-43
1.81 0.32 0.85 3.57e-43
1.82 0.32 0.85 3.57e-43
1.89 0.32 0.85 3.57e-43
1.9 0.32 0.85 3.57e-43
1.77 0.32 0.85 3.57e-43
2.11 0.32 0.85 3.57e-43
2.16 0.32 0.85 3.57e-43
2.21 0.32 0.85 3.57e-43
2.26 0.32 0.85 3.57e-43
2.3 0.32 0.85 3.57e-43
2.16 0.32 0.85 3.57e-43
2.18 0.32 0.85 3.57e-43
2.36 0.32 0.85 3.57e-43
2.43 0.32 0.85 3.57e-43
2.48 0.32 0.85 3.57e-43
2.54 0.32 0.85 3.57e-43
2.61 0.32 0.85 3.57e-43
2.67 0.32 0.85 3.57e-43
2.71 0.32 0.85 3.57e-43
2.78 0.32 0.76 9.1477e-41
2.84 0.32 0.81 9.1477e-41
2.88 0.32 0.81 9.1477e-41
2.93 0.32 0.8 9.1477e-41
2.96 0.32 0.77 9.1477e-41
3 0.32 0.77 3.57e-43
2.96 0.32 0.77 3.57e-43
1.46 0.34 0.82 9.1477e-41
1.53 0.34 0.82 3.57e-43
1.57 0.34 0.82 3.57e-43
1.61 0.34 0.82 3.57e-43
1.65 0.34 0.82 3.57e-43
1.66 0.34 0.82 3.57e-43
1.71 0.34 0.82 3.57e-43
1.77 0.34 0.82 3.57e-43
1.81 0.34 0.82 3.57e-43
1.82 0.34 0.82 3.57e-43
1.89 0.34 0.82 3.57e-43
1.9 0.34 0.82 3.57e-43
1.77 0.34 0.82 3.57e-43
2.11 0.34 0.82 3.57e-43
2.16 0.34 0.82 3.57e-43
2.21 0.34 0.82 3.57e-43
2.26 0.34 0.82 3.57e-43
2.3 0.34 0.82 3.57e-43
2.16 0.34 0.82 3.57e-43
2.18 0.34 0.82 3.57e-43
2.36 0.34 0.82 3.57e-43
2.43 0.34 0.82 3.57e-43
2.48 0.34 0.82 3.57e-43
2.54 0.34 0.82 3.57e-43
2.61 0.34 0.82 3.57e-43
2.67 0.34 0.82 3.57e-43
2.71 0.34 0.82 3.57e-43
2.78 0.34 0.82 3.57e-43
2.84 0.34 0.81 9.1477e-41
2.89 0.34 0.83 9.1477e-41
2.93 0.34 0.82 9.1477e-41
2.96 0.34 0.77 9.1477e-41
3 0.34 0.77 3.57e-43
1.48 0.36 0.85 9.1477e-41
1.53 0.36 0.85 3.57e-43
1.57 0.36 0.85 3.57e-43
1.61 0.36 0.85 3.57e-43
1.65 0.36 0.85 3.57e-43
1.66 0.36 0.85 3.57e-43
1.71 0.36 0.85 3.57e-43
1.77 0.36 0.85 3.57e-43
1.81 0.36 0.85 3.57e-43
1.82 0.36 0.85 3.57e-43
1.89 0.36 0.85 3.57e-43
1.9 0.36 0.85 3.57e-43
1.77 0.36 0.85 3.57e-43
2.11 0.36 0.85 3.57e-43
2.16 0.36 0.85 3.57e-43
2.21 0.36 0.85 3.57e-43
2.26 0.36 0.85 3.57e-43
2.3 0.36 0.85 3.57e-43
2.16 0.36 0.85 3.57e-43
2.18 0.36 0.85 3.57e-43
2.36 0.36 0.85 3.57e-43
2.43 0.36 0.85 3.57e-43
2.48 0.36 0.85 3.57e-43
2.54 0.36 0.85 3.57e-43
2.61 0.36 0.85 3.57e-43
2.67 0.36 0.85 3.57e-43
2.71 0.36 0.85 3.57e-43
2.78 0.36 0.85 3.57e-43
2.84 0.36 0.81 9.1477e-41
2.89 0.36 0.82 9.1477e-41
2.93 0.36 0.81 9.1477e-41
2.97 0.36 0.78 9.1477e-41
3 0.36 0.78 3.57e-43
1.48 0.38 0.87 9.1477e-41
1.54 0.38 0.87 3.57e-43
1.57 0.38 0.87 3.57e-43
1.61 0.38 0.87 3.57e-43
1.65 0.38 0.87 3.57e-43
1.66 0.38 0.87 3.57e-43
1.71 0.38 0.87 3.57e-43
1.77 0.38 0.87 3.57e-43
1.81 0.38 0.87 3.57e-43
1.82 0.38 0.87 3.57e-43
1.89 0.38 0.87 3.57e-43
1.9 0.38 0.87 3.57e-43
1.77 0.38 0.87 3.57e-43
2.11 0.38 0.87 3.57e-43
2.16 0.38 0.87 3.57e-43
2.21 0.38 0.87 3.57e-43
2.26 0.38 0.87 3.57e-43
2.3 0.38 0.87 3.57e-43
2.16 0.38 0.87 3.57e-43
2.18 0.38 0.87 3.57e-43
2.36 0.38 0.87 3.57e-43
2.43 0.38 0.87 3.57e-43
2.48 0.38 0.87 3.57e-43
2.54 0.38 0.87 3.57e-43
2.61 0.38 0.87 3.57e-43
2.67 0.38 0.87 3.57e-43
2.71 0.38 0.87 3.57e-43
2.78 0.38 0.87 3.57e-43
2.84 0.38 0.81 9.1477e-41
2.89 0.38 0.82 9.1477e-41
2.93 0.38 0.82 9.1477e-41
2.97 0.38 0.79 9.1477e-41
3 0.38 0.79 3.57e-43
3.03 0.38 0.42 9.1477e-41
2.36 0.4 0.81 3.57e-43
2.89 0.4 0.83 9.1477e-41
2.93 0.4 0.81 9.1477e-41
2.97 0.4 0.79 9.1477e-41
3.01 0.4 0.79 3.57e-43
3.04 0.4 0.47 9.1477e-41
2.36 0.42 0.81 3.57e-43
2.9 0.42 0.86 9.1477e-41
2.93 0.42 0.83 9.1477e-41
2.97 0.42 0.81 9.1477e-41
3.01 0.42 0.81 3.57e-43
3.04 0.42 0.47 9.1477e-41
2.9 0.44 0.87 3.57e-43
2.94 0.44 0.85 9.1477e-41
2.98 0.44 0.85 3.57e-43
3.01 0.44 0.85 3.57e-43
3.02 0.44 0.41 9.1477e-41
2.52 0.46 0.81 3.57e-43
2.9 0.46 0.87 9.1477e-41
2.94 0.46 0.86 9.1477e-41
2.98 0.46 0.86 3.57e-43
3.01 0.46 0.86 3.57e-43
3.03 0.46 0.43 9.1477e-41
2.9 0.48 0.87 3.57e-43
2.95 0.48 0.89 9.1477e-41
2.98 0.48 0.89 3.57e-43
3.01 0.48 0.89 3.57e-43
3.03 0.48 0.43 9.1477e-41
1.86 0.5 0.98 3.57e-43
1.9 0.5 0.97 9.1477e-41
1.95 0.5 0.96 9.1477e-41
2 0.5 0.98 9.1477e-41
2.05 0.5 0.97 9.1477e-41
2.1 0.5 0.97 9.1477e-41
2.15 0.5 0.97 9.1477e-41
2.2 0.5 0.97 9.1477e-41
2.24 0.5 0.98 9.1477e-41
2.29 0.5 0.98 3.57e-43
2.26 0.5 0.98 3.57e-43
2.3 0.5 0.98 3.57e-43
2.16 0.5 0.98 3.57e-43
2.18 0.5 0.98 3.57e-43
2.52 0.5 0.98 3.57e-43
2.43 0.5 0.98 3.57e-43
2.48 0.5 0.98 3.57e-43
2.54 0.5 0.98 3.57e-43
2.61 0.5 0.98 3.57e-43
2.67 0.5 0.7 9.1477e-41
2.79 0.5 0.7 3.57e-43
2.78 0.5 0.7 3.57e-43
2.84 0.5 0.7 3.57e-43
2.9 0.5 0.87 9.1477e-41
2.95 0.5 0.89 9.1477e-41
2.98 0.5 0.89 3.57e-43
3.01 0.5 0.89 3.57e-43
3.03 0.5 0.43 9.1477e-41
1.74 0.52 0.96 3.57e-43
1.79 0.52 0.96 9.1477e-41
1.86 0.52 0.98 9.1477e-41
1.89 0.52 0.95 9.1477e-41
1.95 0.52 0.97 9.1477e-41
2 0.52 0.97 9.1477e-41
2.05 0.52 0.97 9.1477e-41
2.1 0.52 0.97 9.1477e-41
2.15 0.52 0.97 9.1477e-41
2.2 0.52 0.97 9.1477e-41
2.24 0.52 0.97 9.1477e-41
2.29 0.52 0.97 9.1477e-41
2.34 0.52 0.99 9.1477e-41
2.39 0.52 0.99 9.1477e-41
2.43 0.52 0.98 9.1477e-41
2.48 0.52 0.98 3.57e-43
2.52 0.52 0.98 3.57e-43
2.43 0.52 0.98 3.57e-43
2.48 0.52 0.98 3.57e-43
2.54 0.52 0.98 3.57e-43
2.61 0.52 0.98 3.57e-43
2.67 0.52 0.98 3.57e-43
2.79 0.52 0.98 3.57e-43
2.78 0.52 0.98 3.57e-43
2.84 0.52 0.98 3.57e-43
2.9 0.52 0.87 9.1477e-41
2.95 0.52 0.89 9.1477e-41
2.99 0.52 0.89 3.57e-43
3.01 0.52 0.89 3.57e-43
3.03 0.52 0.43 9.1477e-41
1.64 0.54 0.96 3.57e-43
1.69 0.54 0.96 9.1477e-41
1.74 0.54 0.96 9.1477e-41
1.8 0.54 0.97 9.1477e-41
1.85 0.54 0.96 9.1477e-41
1.91 0.54 0.98 9.1477e-41
1.96 0.54 0.98 9.1477e-41
2.01 0.54 0.99 9.1477e-41
2.06 0.54 0.99 9.1477e-41
2.11 0.54 0.99 9.1477e-41
2.15 0.54 0.99 9.1477e-41
2.2 0.54 0.98 9.1477e-41
2.26 0.54 1 9.1477e-41
2.3 0.54 1 9.1477e-41
2.35 0.54 1 9.1477e-41
2.39 0.54 0.99 9.1477e-41
2.43 0.54 0.98 9.1477e-41
2.48 0.54 0.98 9.1477e-41
2.51 0.54 0.95 9.1477e-41
2.56 0.54 0.96 9.1477e-41
2.61 0.54 0.96 3.57e-43
2.54 0.54 0.96 3.57e-43
2.61 0.54 0.96 3.57e-43
2.67 0.54 0.96 3.57e-43
2.79 0.54 0.95 9.1477e-41
2.83 0.54 0.95 3.57e-43
2.84 0.54 0.95 3.57e-43
2.9 0.54 0.87 9.1477e-41
2.95 0.54 0.9 9.1477e-41
2.99 0.54 0.9 3.57e-43
3.01 0.54 0.9 3.57e-43
3.03 0.54 0.43 9.1477e-41
1.59 0.56 0.96 3.57e-43
1.64 0.56 0.96 9.1477e-41
1.69 0.56 0.96 9.1477e-41
1.75 0.56 0.97 9.1477e-41
1.8 0.56 0.97 9.1477e-41
1.86 0.56 0.98 9.1477e-41
1.91 0.56 0.99 9.1477e-41
1.96 0.56 0.99 9.1477e-41
2.01 0.56 0.99 9.1477e-41
2.06 0.56 0.99 9.1477e-41
2.11 0.56 0.99 3.57e-43
2.15 0.56 0.99 9.1477e-41
2.2 0.56 0.99 3.57e-43
2.26 0.56 1 9.1477e-41
2.3 0.56 1 9.1477e-41
2.34 0.56 0.99 9.1477e-41
2.39 0.56 0.99 9.1477e-41
2.43 0.56 0.97 9.1477e-41
2.48 0.56 0.98 9.1477e-41
2.52 0.56 0.96 9.1477e-41
2.56 0.56 0.96 9.1477e-41
2.61 0.56 0.96 9.1477e-41
2.65 0.56 0.95 9.1477e-41
2.69 0.56 0.95 3.57e-43
2.67 0.56 0.95 3.57e-43
2.79 0.56 0.95 9.1477e-41
2.83 0.56 0.95 3.57e-43
2.84 0.56 0.95 3.57e-43
2.9 0.56 0.87 9.1477e-41
2.95 0.56 0.9 9.1477e-41
2.99 0.56 0.9 3.57e-43
3.01 0.56 0.9 3.57e-43
3.03 0.56 0.44 9.1477e-41
1.49 0.58 0.89 9.1477e-41
1.59 0.58 0.96 9.1477e-41
1.64 0.58 0.96 9.1477e-41
1.7 0.58 0.97 9.1477e-41
1.74 0.58 0.96 9.1477e-41
1.8 0.58 0.97 9.1477e-41
1.86 0.58 0.99 9.1477e-41
1.91 0.58 0.99 3.57e-43
1.96 0.58 0.99 3.57e-43
2.01 0.58 0.99 9.1477e-41
2.07 0.58 1.02 9.1477e-41
2.11 0.58 1.01 9.1477e-41
2.16 0.58 1.01 9.1477e-41
2.21 0.58 1.01 3.57e-43
2.26 0.58 1 9.1477e-41
2.31 0.58 1 3.57e-43
2.34 0.58 1 3.57e-43
2.39 0.58 0.99 9.1477e-41
2.44 0.58 1 9.1477e-41
2.48 0.58 0.99 9.1477e-41
2.52 0.58 0.98 9.1477e-41
2.57 0.58 0.98 9.1477e-41
2.61 0.58 0.96 9.1477e-41
2.65 0.58 0.94 9.1477e-41
2.69 0.58 0.95 9.1477e-41
2.74 0.58 0.95 3.57e-43
2.79 0.58 0.95 3.57e-43
2.83 0.58 0.95 3.57e-43
2.84 0.58 0.95 3.57e-43
2.9 0.58 0.87 9.1477e-41
2.95 0.58 0.87 3.57e-43
2.99 0.58 0.87 3.57e-43
3.01 0.58 0.87 3.57e-43
3.02 0.58 0.41 9.1477e-41
1.49 0.6 0.89 9.1477e-41
1.59 0.6 0.97 9.1477e-41
1.64 0.6 0.96 9.1477e-41
1.7 0.6 0.98 9.1477e-41
1.75 0.6 0.98 3.57e-43
1.8 0.6 0.98 3.57e-43
1.86 0.6 0.98 3.57e-43
1.91 0.6 0.98 3.57e-43
1.96 0.6 0.98 3.57e-43
2.01 0.6 0.98 3.57e-43
2.07 0.6 0.98 3.57e-43
2.11 0.6 0.98 3.57e-43
2.16 0.6 0.98 3.57e-43
2.21 0.6 0.98 3.57e-43
2.26 0.6 1 9.1477e-41
2.31 0.6 1 3.57e-43
2.34 0.6 0.99 9.1477e-41
2.4 0.6 1 9.1477e-41
2.45 0.6 1.02 9.1477e-41
2.49 0.6 1 9.1477e-41
2.53 0.6 1 9.1477e-41
2.57 0.6 1 9.1477e-41
2.62 0.6 0.99 9.1477e-41
2.66 0.6 0.97 9.1477e-41
2.7 0.6 0.97 9.1477e-41
2.74 0.6 0.96 9.1477e-41
2.79 0.6 0.96 3.57e-43
2.83 0.6 0.96 3.57e-43
2.84 0.6 0.96 3.57e-43
2.9 0.6 0.87 9.1477e-41
2.95 0.6 0.87 3.57e-43
2.99 0.6 0.87 3.57e-43
3.01 0.6 0.87 3.57e-43
3.02 0.6 0.41 9.1477e-41
1.49 0.62 0.89 9.1477e-41
1.59 0.62 0.97 9.1477e-41
1.65 0.62 0.97 3.57e-43
1.7 0.62 0.97 3.57e-43
1.75 0.62 0.98 9.1477e-41
1.82 0.62 1.02 9.1477e-41
1.87 0.62 1.02 3.57e-43
1.91 0.62 1.02 3.57e-43
1.96 0.62 1.02 3.57e-43
2.01 0.62 1.02 3.57e-43
2.07 0.62 1.02 3.57e-43
2.11 0.62 1.02 3.57e-43
2.16 0.62 1.02 3.57e-43
2.21 0.62 1.02 3.57e-43
2.26 0.62 1.02 3.57e-43
2.31 0.62 1.02 3.57e-43
2.34 0.62 1.02 3.57e-43
2.4 0.62 1.02 3.57e-43
2.45 0.62 1.02 3.57e-43
2.49 0.62 1.02 3.57e-43
2.53 0.62 1.02 3.57e-43
2.57 0.62 1 9.1477e-41
2.62 0.62 0.98 9.1477e-41
2.66 0.62 0.98 9.1477e-41
2.7 0.62 0.98 9.1477e-41
2.75 0.62 0.98 9.1477e-41
2.79 0.62 0.98 3.57e-43
2.83 0.62 0.98 3.57e-43
2.84 0.62 0.98 3.57e-43
2.9 0.62 0.87 9.1477e-41
2.95 0.62 0.87 3.57e-43
2.99 0.62 0.87 3.57e-43
3.01 0.62 0.87 3.57e-43
3.03 0.62 0.46 9.1477e-41
1.55 0.64 0.98 9.1477e-41
1.59 0.64 0.98 3.57e-43
1.65 0.64 0.98 3.57e-43
1.7 0.64 0.98 9.1477e-41
1.78 0.64 0.98 3.57e-43
1.82 0.64 0.98 3.57e-43
1.87 0.64 0.98 3.57e-43
1.91 0.64 0.98 3.57e-43
1.96 0.64 0.98 3.57e-43
2.01 0.64 0.98 3.57e-43
2.07 0.64 0.98 3.57e-43
2.11 0.64 0.98 3.57e-43
2.16 0.64 0.98 3.57e-43
2.21 0.64 0.98 3.57e-43
2.26 0.64 0.98 3.57e-43
2.31 0.64 0.98 3.57e-43
2.34 0.64 0.98 3.57e-43
2.4 0.64 0.98 3.57e-43
2.45 0.64 0.98 3.57e-43
2.49 0.64 0.98 3.57e-43
2.53 0.64 0.98 3.57e-43
2.57 0.64 0.98 3.57e-43
2.62 0.64 0.98 3.57e-43
2.66 0.64 0.98 9.1477e-41
2.7 0.64 0.97 9.1477e-41
2.74 0.64 0.96 9.1477e-41
2.79 0.64 0.95 9.1477e-41
2.83 0.64 0.95 9.1477e-41
2.88 0.64 0.95 3.57e-43
2.9 0.64 0.87 9.1477e-41
2.95 0.64 0.87 3.57e-43
2.99 0.64 0.87 3.57e-43
3.01 0.64 0.87 3.57e-43
3.03 0.64 0.46 9.1477e-41
1.68 0.66 1.03 3.57e-43
1.73 0.66 1.03 3.57e-43
1.78 0.66 1.03 3.57e-43
1.82 0.66 1.03 3.57e-43
1.87 0.66 1.03 3.57e-43
1.91 0.66 1.03 3.57e-43
1.96 0.66 1.03 3.57e-43
2.01 0.66 1.03 3.57e-43
2.07 0.66 1.03 3.57e-43
2.11 0.66 1.03 3.57e-43
2.16 0.66 1.03 3.57e-43
2.21 0.66 1.03 3.57e-43
2.26 0.66 1.03 3.57e-43
2.31 0.66 1.03 3.57e-43
2.34 0.66 1.03 3.57e-43
2.4 0.66 1.03 3.57e-43
2.45 0.66 1.03 3.57e-43
2.49 0.66 1.03 3.57e-43
2.53 0.66 1.03 3.57e-43
2.57 0.66 1.03 3.57e-43
2.62 0.66 1.03 3.57e-43
2.66 0.66 1.03 3.57e-43
2.7 0.66 1.03 3.57e-43
2.74 0.66 0.96 9.1477e-41
2.79 0.66 0.96 9.1477e-41
2.83 0.66 0.94 9.1477e-41
2.87 0.66 0.94 3.57e-43
2.9 0.66 0.87 9.1477e-41
2.95 0.66 0.87 3.57e-43
2.99 0.66 0.87 3.57e-43
3.01 0.66 0.87 3.57e-43
3.03 0.66 0.45 9.1477e-41
1.68 0.68 1.03 3.57e-43
1.73 0.68 1.03 3.57e-43
1.78 0.68 1.03 3.57e-43
1.82 0.68 1.03 3.57e-43
1.87 0.68 1.03 3.57e-43
1.91 0.68 1.03 3.57e-43
1.96 0.68 1.03 3.57e-43
2.01 0.68 1.03 3.57e-43
2.07 0.68 1.03 3.57e-43
2.11 0.68 1.03 3.57e-43
2.16 0.68 1.03 3.57e-43
2.21 0.68 1.03 3.57e-43
2.26 0.68 1.03 3.57e-43
2.31 0.68 1.03 3.57e-43
2.34 0.68 1.03 3.57e-43
2.4 0.68 1.03 3.57e-43
2.45 0.68 1.03 3.57e-43
2.49 0.68 1.03 3.57e-43
2.53 0.68 1.03 3.57e-43
2.57 0.68 1.03 3.57e-43
2.62 0.68 1.03 3.57e-43
2.66 0.68 1.03 3.57e-43
2.7 0.68 1.03 3.57e-43
2.74 0.68 1.03 3.57e-43
2.79 0.68 0.96 9.1477e-41
2.83 0.68 0.96 9.1477e-41
2.88 0.68 0.96 3.57e-43
2.9 0.68 0.96 3.57e-43
2.95 0.68 0.96 3.57e-43
2.99 0.68 0.96 3.57e-43
3.01 0.68 0.96 3.57e-43
3.04 0.68 0.47 9.1477e-41
1.55 0.7 0.98 9.1477e-41
1.63 0.7 1.03 9.1477e-41
1.68 0.7 1.03 3.57e-43
1.73 0.7 1.03 3.57e-43
1.78 0.7 1.03 3.57e-43
1.82 0.7 1.03 3.57e-43
1.87 0.7 1.03 3.57e-43
1.91 0.7 1.03 3.57e-43
1.96 0.7 1.03 3.57e-43
2.01 0.7 1.03 3.57e-43
2.07 0.7 1.03 3.57e-43
2.11 0.7 1.03 3.57e-43
2.16 0.7 1.03 3.57e-43
2.21 0.7 1.03 3.57e-43
2.26 0.7 1.03 3.57e-43
2.31 0.7 1.03 3.57e-43
2.34 0.7 1.03 3.57e-43
2.4 0.7 1.03 3.57e-43
2.45 0.7 1.03 3.57e-43
2.49 0.7 1.03 3.57e-43
2.53 0.7 1.03 3.57e-43
2.57 0.7 1.03 3.57e-43
2.62 0.7 1.03 3.57e-43
2.66 0.7 1.03 3.57e-43
2.7 0.7 1.03 3.57e-43
2.74 0.7 1.03 3.57e-43
2.79 0.7 1.03 3.57e-43
2.83 0.7 0.96 9.1477e-41
2.87 0.7 0.96 3.57e-43
2.9 0.7 0.96 3.57e-43
2.95 0.7 0.96 3.57e-43
2.99 0.7 0.96 3.57e-43
3.01 0.7 0.96 3.57e-43
3.04 0.7 0.49 9.1477e-41
2.83 0.72 1.05 3.57e-43
2.88 0.72 0.96 9.1477e-41
2.92 0.72 0.96 3.57e-43
2.95 0.72 0.96 3.57e-43
2.99 0.72 0.96 3.57e-43
3.01 0.72 0.96 3.57e-43
3.04 0.72 0.51 9.1477e-41
2.47 0.74 1.08 3.57e-43
2.51 0.74 1.07 9.1477e-41
2.55 0.74 1.06 9.1477e-41
2.59 0.74 1.05 9.1477e-41
2.63 0.74 1.05 3.57e-43
2.66 0.74 1.05 3.57e-43
2.7 0.74 1.05 3.57e-43
2.74 0.74 1.05 3.57e-43
2.79 0.74 1.05 3.57e-43
2.83 0.74 1.05 3.57e-43
2.88 0.74 1.05 3.57e-43
2.92 0.74 1.05 3.57e-43
2.95 0.74 1.05 3.57e-43
2.99 0.74 1.05 3.57e-43
3.01 0.74 1.05 3.57e-43
3.05 0.74 0.52 9.1477e-41
1.91 0.76 1 3.57e-43
2.47 0.76 1.08 9.1477e-41
2.51 0.76 1.07 9.1477e-41
2.56 0.76 1.08 9.1477e-41
2.59 0.76 1.05 9.1477e-41
2.63 0.76 1.05 3.57e-43
2.66 0.76 1.05 3.57e-43
2.7 0.76 1.05 3.57e-43
2.74 0.76 1.05 3.57e-43
2.79 0.76 1.05 3.57e-43
2.83 0.76 1.05 3.57e-43
2.88 0.76 1.05 3.57e-43
2.92 0.76 1.05 3.57e-43
2.95 0.76 1.05 3.57e-43
2.99 0.76 1.05 3.57e-43
3.01 0.76 1.05 3.57e-43
3.04 0.76 0.5 9.1477e-41
1.91 0.78 1 3.57e-43
2.47 0.78 1.08 9.1477e-41
2.51 0.78 1.07 9.1477e-41
2.55 0.78 1.07 9.1477e-41
2.6 0.78 1.07 9.1477e-41
2.64 0.78 1.07 3.57e-43
2.66 0.78 1.07 3.57e-43
2.7 0.78 1.07 3.57e-43
2.74 0.78 1.07 3.57e-43
2.79 0.78 1.07 3.57e-43
2.83 0.78 1.07 3.57e-43
2.88 0.78 1.07 3.57e-43
2.92 0.78 1.07 3.57e-43
2.95 0.78 1.07 3.57e-43
2.99 0.78 1.07 3.57e-43
3.01 0.78 1.07 3.57e-43
3.04 0.78 0.49 9.1477e-41
1.91 0.8 1 3.57e-43
2.47 0.8 1.08 9.1477e-41
2.51 0.8 1.07 9.1477e-41
2.55 0.8 1.07 9.1477e-41
2.6 0.8 1.08 9.1477e-41
2.64 0.8 1.08 3.57e-43
2.66 0.8 1.08 3.57e-43
2.7 0.8 1.08 3.57e-43
2.74 0.8 1.08 3.57e-43
2.79 0.8 0.96 9.1477e-41
2.84 0.8 0.96 3.57e-43
2.88 0.8 0.96 3.57e-43
2.92 0.8 0.96 3.57e-43
2.95 0.8 0.96 3.57e-43
2.99 0.8 0.96 3.57e-43
3.01 0.8 0.96 3.57e-43
3.03 0.8 0.45 9.1477e-41
2.47 0.82 1.05 3.57e-43
2.51 0.82 1.07 9.1477e-41
2.55 0.82 1.07 9.1477e-41
2.6 0.82 1.07 3.57e-43
2.64 0.82 1.07 3.57e-43
2.66 0.82 1.07 3.57e-43
2.7 0.82 1.07 3.57e-43
2.74 0.82 1.07 3.57e-43
2.79 0.82 0.96 9.1477e-41
2.84 0.82 0.96 3.57e-43
2.88 0.82 0.96 3.57e-43
2.92 0.82 0.96 3.57e-43
2.95 0.82 0.96 3.57e-43
2.99 0.82 0.96 3.57e-43
3.01 0.82 0.96 3.57e-43
3.03 0.82 0.44 9.1477e-41
1.73 0.84 1.02 3.57e-43
2.27 0.84 1.05 9.1477e-41
2.31 0.84 1.05 3.57e-43
2.34 0.84 1.05 3.57e-43
2.4 0.84 1.05 3.57e-43
2.47 0.84 1.05 3.57e-43
2.51 0.84 1.05 3.57e-43
2.55 0.84 1.05 3.57e-43
2.6 0.84 1.05 3.57e-43
2.64 0.84 1.05 3.57e-43
2.66 0.84 1.05 3.57e-43
2.7 0.84 1.05 3.57e-43
2.74 0.84 1.05 3.57e-43
2.79 0.84 1.05 3.57e-43
2.84 0.84 1.05 3.57e-43
2.88 0.84 1.05 3.57e-43
2.92 0.84 1.05 3.57e-43
2.95 0.84 1.05 3.57e-43
2.99 0.84 1.05 3.57e-43
3.01 0.84 1.05 3.57e-43
3.05 0.84 0.53 9.1477e-41
1.73 0.86 1.02 3.57e-43
2.27 0.86 1.05 9.1477e-41
2.32 0.86 1.05 3.57e-43
2.34 0.86 1.05 3.57e-43
2.4 0.86 1.05 3.57e-43
2.47 0.86 1.05 3.57e-43
2.51 0.86 1.05 3.57e-43
2.55 0.86 1.05 3.57e-43
2.6 0.86 1.05 3.57e-43
2.64 0.86 1.05 3.57e-43
2.66 0.86 1.05 3.57e-43
2.7 0.86 1.05 3.57e-43
2.74 0.86 1.05 3.57e-43
2.79 0.86 1.05 3.57e-43
2.84 0.86 1.05 3.57e-43
2.88 0.86 1.05 3.57e-43
2.92 0.86 1.05 3.57e-43
2.95 0.86 0.91 9.1477e-41
3 0.86 0.91 3.57e-43
3.01 0.86 0.91 3.57e-43
3.05 0.86 0.54 9.1477e-41
2.24 0.88 0.97 3.57e-43
2.31 0.88 1.04 9.1477e-41
2.36 0.88 1.04 3.57e-43
2.4 0.88 1.04 3.57e-43
2.47 0.88 1.04 3.57e-43
2.51 0.88 1.04 3.57e-43
2.55 0.88 1.04 3.57e-43
2.6 0.88 1.04 3.57e-43
2.64 0.88 1.04 3.57e-43
2.66 0.88 1.04 3.57e-43
2.7 0.88 1.04 3.57e-43
2.74 0.88 1.04 3.57e-43
2.79 0.88 1.04 3.57e-43
2.84 0.88 1.04 3.57e-43
2.88 0.88 1.04 3.57e-43
2.92 0.88 1.04 3.57e-43
2.95 0.88 0.91 9.1477e-41
2.99 0.88 0.91 3.57e-43
3.01 0.88 0.91 3.57e-43
3.05 0.88 0.55 9.1477e-41
2.07 0.9 0.49 3.57e-43
2.12 0.9 1.02 9.1477e-41
2.15 0.9 0.97 9.1477e-41
2.2 0.9 0.99 9.1477e-41
2.24 0.9 0.97 9.1477e-41
2.29 0.9 0.98 9.1477e-41
2.35 0.9 0.98 3.57e-43
2.4 0.9 0.98 3.57e-43
2.47 0.9 0.98 3.57e-43
2.51 0.9 0.98 3.57e-43
2.55 0.9 0.98 3.57e-43
2.6 0.9 0.98 3.57e-43
2.64 0.9 0.98 3.57e-43
2.66 0.9 0.98 3.57e-43
2.7 0.9 0.98 3.57e-43
2.74 0.9 0.98 3.57e-43
2.79 0.9 0.98 3.57e-43
2.84 0.9 0.98 3.57e-43
2.88 0.9 0.98 3.57e-43
2.92 0.9 0.98 3.57e-43
2.95 0.9 0.91 9.1477e-41
2.99 0.9 0.91 3.57e-43
3.01 0.9 0.91 3.57e-43
3.05 0.9 0.56 9.1477e-41
2.07 0.92 0.49 3.57e-43
2.11 0.92 1.01 9.1477e-41
2.14 0.92 0.96 9.1477e-41
2.19 0.92 0.96 9.1477e-41
2.24 0.92 0.96 9.1477e-41
2.29 0.92 0.96 9.1477e-41
2.36 0.92 0.96 3.57e-43
2.4 0.92 0.96 3.57e-43
2.47 0.92 0.96 3.57e-43
2.51 0.92 0.96 3.57e-43
2.55 0.92 0.96 3.57e-43
2.6 0.92 0.96 3.57e-43
2.64 0.92 0.96 3.57e-43
2.66 0.92 0.96 3.57e-43
2.7 0.92 0.96 3.57e-43
2.74 0.92 0.96 3.57e-43
2.79 0.92 0.96 3.57e-43
2.84 0.92 0.96 3.57e-43
2.88 0.92 0.96 3.57e-43
2.92 0.92 0.96 3.57e-43
2.95 0.92 0.91 9.1477e-41
2.99 0.92 0.91 3.57e-43
3.01 0.92 0.91 3.57e-43
3.05 0.92 0.54 9.1477e-41
2.07 0.94 0.49 3.57e-43
2.12 0.94 1.02 9.1477e-41
2.15 0.94 0.97 9.1477e-41
2.19 0.94 0.96 9.1477e-41
2.24 0.94 0.98 9.1477e-41
2.29 0.94 0.97 9.1477e-41
2.36 0.94 0.97 3.57e-43
2.4 0.94 0.97 3.57e-43
2.47 0.94 0.97 3.57e-43
2.51 0.94 0.97 3.57e-43
2.55 0.94 0.97 3.57e-43
2.6 0.94 0.97 3.57e-43
2.64 0.94 0.97 3.57e-43
2.66 0.94 0.97 3.57e-43
2.7 0.94 0.97 3.57e-43
2.74 0.94 0.97 3.57e-43
2.79 0.94 0.97 3.57e-43
2.84 0.94 0.97 3.57e-43
2.88 0.94 0.97 3.57e-43
2.92 0.94 0.97 3.57e-43
2.95 0.94 0.91 9.1477e-41
2.99 0.94 0.91 3.57e-43
3.01 0.94 0.91 3.57e-43
3.05 0.94 0.54 9.1477e-41
2.07 0.96 0.49 3.57e-43
2.11 0.96 1.01 9.1477e-41
2.14 0.96 0.96 9.1477e-41
2.19 0.96 0.96 9.1477e-41
2.24 0.96 0.98 9.1477e-41
2.29 0.96 0.98 9.1477e-41
2.35 0.96 0.98 3.57e-43
2.4 0.96 0.98 3.57e-43
2.47 0.96 0.98 3.57e-43
2.51 0.96 0.98 3.57e-43
2.55 0.96 0.98 3.57e-43
2.6 0.96 0.98 3.57e-43
2.64 0.96 0.98 3.57e-43
2.66 0.96 0.98 3.57e-43
2.7 0.96 0.98 3.57e-43
2.74 0.96 0.98 3.57e-43
2.79 0.96 0.98 3.57e-43
2.84 0.96 0.98 3.57e-43
2.88 0.96 0.98 3.57e-43
2.92 0.96 0.98 3.57e-43
2.95 0.96 0.91 9.1477e-41
2.99 0.96 0.91 3.57e-43
3.01 0.96 0.91 3.57e-43
3.05 0.96 0.55 9.1477e-41
2.07 0.98 0.49 3.57e-43
2.12 0.98 1.02 9.1477e-41
2.15 0.98 0.97 9.1477e-41
2.2 0.98 0.97 9.1477e-41
2.24 0.98 0.98 9.1477e-41
2.29 0.98 0.98 3.57e-43
2.35 0.98 0.98 3.57e-43
2.4 0.98 0.98 3.57e-43
2.47 0.98 0.98 3.57e-43
2.51 0.98 0.98 3.57e-43
2.55 0.98 0.98 3.57e-43
2.6 0.98 0.98 3.57e-43
2.64 0.98 0.98 3.57e-43
2.66 0.98 0.98 3.57e-43
2.7 0.98 0.98 3.57e-43
2.74 0.98 0.98 3.57e-43
2.79 0.98 0.98 3.57e-43
2.84 0.98 0.98 3.57e-43
2.88 0.98 0.98 3.57e-43
2.92 0.98 0.98 3.57e-43
2.95 0.98 0.91 9.1477e-41
2.99 0.98 0.91 3.57e-43
3.01 0.98 0.91 3.57e-43
3.05 0.98 0.55 9.1477e-41
2.07 1 0.49 3.57e-43
2.12 1 1.02 9.1477e-41
2.15 1 0.98 9.1477e-41
2.2 1 0.98 9.1477e-41
2.24 1 0.97 9.1477e-41
2.29 1 0.97 3.57e-43
2.35 1 0.97 3.57e-43
2.4 1 0.97 3.57e-43
2.47 1 0.97 3.57e-43
2.51 1 0.97 3.57e-43
2.55 1 0.97 3.57e-43
2.6 1 0.97 3.57e-43
2.64 1 0.97 3.57e-43
2.66 1 0.97 3.57e-43
2.7 1 0.97 3.57e-43
2.74 1 0.97 3.57e-43
2.79 1 0.97 3.57e-43
2.84 1 0.97 3.57e-43
2.88 1 0.97 3.57e-43
2.92 1 0.97 3.57e-43
2.95 1 0.91 9.1477e-41
2.99 1 0.91 3.57e-43
3.01 1 0.91 3.57e-43
3.06 1 0.57 9.1477e-41
1.73 1.02 1.03 3.57e-43
1.51 1.02 0.49 9.1477e-41
1.56 1.02 0.49 3.57e-43
1.87 1.02 0.49 3.57e-43
1.91 1.02 0.49 3.57e-43
1.96 1.02 0.49 3.57e-43
2.01 1.02 0.49 3.57e-43
2.07 1.02 0.49 3.57e-43
2.12 1.02 1.02 9.1477e-41
2.16 1.02 1 9.1477e-41
2.2 1.02 0.99 9.1477e-41
2.25 1.02 0.99 3.57e-43
2.29 1.02 0.99 3.57e-43
2.35 1.02 0.99 3.57e-43
2.4 1.02 0.99 3.57e-43
2.47 1.02 0.99 3.57e-43
2.51 1.02 0.99 3.57e-43
2.55 1.02 0.99 3.57e-43
2.6 1.02 0.99 3.57e-43
2.64 1.02 0.99 3.57e-43
2.66 1.02 0.99 3.57e-43
2.7 1.02 0.99 3.57e-43
2.74 1.02 0.99 3.57e-43
2.79 1.02 0.99 3.57e-43
2.84 1.02 0.99 3.57e-43
2.88 1.02 0.99 3.57e-43
2.92 1.02 0.99 3.57e-43
2.95 1.02 0.91 9.1477e-41
2.99 1.02 0.91 3.57e-43
3.01 1.02 0.91 3.57e-43
3.05 1.02 0.55 9.1477e-41
1.38 1.04 1.07 9.1477e-41
1.41 1.04 1.07 3.57e-43
0.88 1.04 1.07 3.57e-43
1.6 1.04 1.07 3.57e-43
1.58 1.04 1.07 3.57e-43
1.63 1.04 1.07 3.57e-43
1.68 1.04 1.07 3.57e-43
1.73 1.04 1.03 9.1477e-41
1.5 1.04 0.47 9.1477e-41
1.55 1.04 0.47 3.57e-43
1.87 1.04 0.47 3.57e-43
1.91 1.04 0.47 3.57e-43
1.96 1.04 0.47 3.57e-43
2.01 1.04 0.47 3.57e-43
2.07 1.04 0.47 3.57e-43
2.12 1.04 0.47 3.57e-43
2.16 1.04 0.47 3.57e-43
2.2 1.04 0.47 3.57e-43
2.25 1.04 0.47 3.57e-43
2.29 1.04 0.47 3.57e-43
2.35 1.04 0.47 3.57e-43
2.4 1.04 0.47 3.57e-43
2.47 1.04 0.47 3.57e-43
2.51 1.04 0.47 3.57e-43
2.55 1.04 0.47 3.57e-43
2.6 1.04 0.47 3.57e-43
2.64 1.04 0.47 3.57e-43
2.66 1.04 0.47 3.57e-43
2.7 1.04 0.47 3.57e-43
2.74 1.04 0.47 3.57e-43
2.79 1.04 0.47 3.57e-43
2.84 1.04 0.47 3.57e-43
2.88 1.04 0.47 3.57e-43
2.92 1.04 0.47 3.57e-43
2.95 1.04 0.91 9.1477e-41
2.99 1.04 0.91 3.57e-43
3.01 1.04 0.91 3.57e-43
3.05 1.04 0.56 9.1477e-41
1.37 1.06 1.06 9.1477e-41
1.41 1.06 1.06 3.57e-43
0.88 1.06 1.06 3.57e-43
1.6 1.06 1.06 3.57e-43
1.58 1.06 1.06 3.57e-43
1.63 1.06 1.06 3.57e-43
1.68 1.06 1.06 3.57e-43
1.73 1.06 1.03 9.1477e-41
1.5 1.06 0.48 9.1477e-41
1.55 1.06 0.48 3.57e-43
1.87 1.06 0.48 3.57e-43
1.91 1.06 0.48 3.57e-43
1.96 1.06 0.48 3.57e-43
2.01 1.06 0.48 3.57e-43
2.07 1.06 0.48 3.57e-43
2.12 1.06 0.48 3.57e-43
2.16 1.06 0.48 3.57e-43
2.2 1.06 0.48 3.57e-43
2.25 1.06 0.48 3.57e-43
2.29 1.06 0.48 3.57e-43
2.35 1.06 0.48 3.57e-43
2.4 1.06 0.48 3.57e-43
2.47 1.06 0.48 3.57e-43
2.51 1.06 0.48 3.57e-43
2.55 1.06 0.48 3.57e-43
2.6 1.06 0.48 3.57e-43
2.64 1.06 0.48 3.57e-43
2.66 1.06 0.48 3.57e-43
2.7 1.06 0.48 3.57e-43
2.74 1.06 0.48 3.57e-43
2.79 1.06 0.48 3.57e-43
2.84 1.06 0.48 3.57e-43
2.88 1.06 0.48 3.57e-43
2.92 1.06 0.48 3.57e-43
2.95 1.06 0.91 9.1477e-41
2.99 1.06 0.91 3.57e-43
3.01 1.06 0.91 3.57e-43
2.96 1.06 0.91 3.57e-43
3.05 1.06 0.56 9.1477e-41
1.37 1.08 1.06 9.1477e-41
1.38 1.08 1.06 3.57e-43
0.88 1.08 1.06 3.57e-43
1.6 1.08 1.06 3.57e-43
1.58 1.08 1.06 3.57e-43
1.63 1.08 1.06 3.57e-43
1.68 1.08 1.06 3.57e-43
1.73 1.08 1.03 9.1477e-41
1.5 1.08 0.48 9.1477e-41
1.55 1.08 0.48 3.57e-43
1.87 1.08 0.48 3.57e-43
1.91 1.08 0.48 3.57e-43
1.96 1.08 0.48 3.57e-43
2.01 1.08 0.48 3.57e-43
2.07 1.08 0.48 3.57e-43
2.12 1.08 0.48 3.57e-43
2.16 1.08 0.48 3.57e-43
2.2 1.08 0.48 3.57e-43
2.25 1.08 0.48 3.57e-43
2.29 1.08 0.48 3.57e-43
2.35 1.08 0.48 3.57e-43
2.4 1.08 0.48 3.57e-43
2.47 1.08 0.48 3.57e-43
2.51 1.08 0.48 3.57e-43
2.55 1.08 0.48 3.57e-43
2.6 1.08 0.48 3.57e-43
2.64 1.08 0.48 3.57e-43
2.66 1.08 0.48 3.57e-43
2.7 1.08 0.48 3.57e-43
2.74 1.08 0.48 3.57e-43
2.79 1.08 0.48 3.57e-43
2.84 1.08 0.48 3.57e-43
2.88 1.08 0.48 3.57e-43
2.92 1.08 0.48 3.57e-43
2.95 1.08 0.91 9.1477e-41
2.99 1.08 0.91 3.57e-43
3.01 1.08 0.91 3.57e-43
2.96 1.08 0.91 3.57e-43
3.05 1.08 0.56 9.1477e-41
1.35 1.1 1.02 9.1477e-41
0.82 1.1 1.02 3.57e-43
0.88 1.1 1.02 3.57e-43
1.6 1.1 1.02 3.57e-43
1.58 1.1 1.02 3.57e-43
1.63 1.1 1.02 3.57e-43
1.68 1.1 1.02 3.57e-43
1.73 1.1 1.03 9.1477e-41
1.5 1.1 0.48 9.1477e-41
1.55 1.1 0.48 3.57e-43
1.87 1.1 0.48 3.57e-43
1.91 1.1 0.48 3.57e-43
1.96 1.1 0.48 3.57e-43
2.01 1.1 0.48 3.57e-43
2.07 1.1 0.48 3.57e-43
2.12 1.1 1.02 9.1477e-41
2.14 1.1 0.95 9.1477e-41
2.18 1.1 0.95 3.57e-43
2.25 1.1 0.95 3.57e-43
2.29 1.1 0.95 3.57e-43
2.35 1.1 0.95 3.57e-43
2.4 1.1 0.95 3.57e-43
2.47 1.1 0.95 3.57e-43
2.51 1.1 0.95 3.57e-43
2.55 1.1 0.95 3.57e-43
2.6 1.1 0.95 3.57e-43
2.64 1.1 0.95 3.57e-43
2.66 1.1 0.95 3.57e-43
2.7 1.1 0.95 3.57e-43
2.74 1.1 0.95 3.57e-43
2.79 1.1 0.95 3.57e-43
2.84 1.1 0.95 3.57e-43
2.88 1.1 0.95 3.57e-43
2.92 1.1 0.95 3.57e-43
2.95 1.1 0.91 9.1477e-41
2.99 1.1 0.91 3.57e-43
3.01 1.1 0.91 3.57e-43
2.96 1.1 0.91 3.57e-43
3.05 1.1 0.56 9.1477e-41
1.64 1.12 1.03 3.57e-43
1.5 1.12 0.48 9.1477e-41
1.55 1.12 0.48 3.57e-43
1.87 1.12 0.48 3.57e-43
1.91 1.12 1 9.1477e-41
1.63 1.12 1 3.57e-43
2.01 1.12 1 3.57e-43
2.07 1.12 1 3.57e-43
2.12 1.12 1 3.57e-43
2.14 1.12 0.95 9.1477e-41
2.18 1.12 0.94 9.1477e-41
2.23 1.12 0.94 3.57e-43
2.29 1.12 0.94 3.57e-43
2.35 1.12 0.94 3.57e-43
2.4 1.12 0.94 3.57e-43
2.47 1.12 0.94 3.57e-43
2.51 1.12 0.94 3.57e-43
2.55 1.12 0.94 3.57e-43
2.6 1.12 0.94 3.57e-43
2.64 1.12 0.94 3.57e-43
2.66 1.12 0.94 3.57e-43
2.7 1.12 0.94 3.57e-43
2.74 1.12 0.94 3.57e-43
2.79 1.12 0.94 3.57e-43
2.84 1.12 0.94 3.57e-43
2.88 1.12 0.94 3.57e-43
2.92 1.12 0.94 3.57e-43
2.95 1.12 0.91 9.1477e-41
3 1.12 0.92 9.1477e-41
3.07 1.12 1.04 9.1477e-41
3.11 1.12 1.04 3.57e-43
3.05 1.12 0.56 9.1477e-41
1.64 1.14 1.03 3.57e-43
1.5 1.14 0.48 9.1477e-41
1.55 1.14 0.48 3.57e-43
1.87 1.14 0.48 3.57e-43
1.91 1.14 0.48 3.57e-43
1.63 1.14 0.48 3.57e-43
2.01 1.14 0.48 3.57e-43
2.07 1.14 0.48 3.57e-43
2.12 1.14 0.48 3.57e-43
2.14 1.14 0.48 3.57e-43
2.18 1.14 0.48 3.57e-43
2.23 1.14 0.48 3.57e-43
2.29 1.14 0.48 3.57e-43
2.35 1.14 0.48 3.57e-43
2.4 1.14 0.48 3.57e-43
2.47 1.14 0.48 3.57e-43
2.51 1.14 0.48 3.57e-43
2.55 1.14 0.48 3.57e-43
2.6 1.14 0.48 3.57e-43
2.64 1.14 0.48 3.57e-43
2.66 1.14 0.48 3.57e-43
2.7 1.14 0.48 3.57e-43
2.74 1.14 0.48 3.57e-43
2.79 1.14 0.48 3.57e-43
2.84 1.14 0.48 3.57e-43
2.88 1.14 0.48 3.57e-43
2.92 1.14 0.96 9.1477e-41
2.96 1.14 0.96 9.1477e-41
2.99 1.14 0.91 9.1477e-41
3.07 1.14 1.05 9.1477e-41
3.11 1.14 1.05 3.57e-43
3.05 1.14 0.56 9.1477e-41
1.64 1.16 1.03 3.57e-43
1.51 1.16 0.48 9.1477e-41
1.55 1.16 0.48 3.57e-43
1.87 1.16 0.48 3.57e-43
1.91 1.16 0.48 3.57e-43
1.63 1.16 0.48 3.57e-43
2.01 1.16 0.48 3.57e-43
2.07 1.16 1.02 9.1477e-41
1.8 1.16 1.02 3.57e-43
2.14 1.16 1.02 3.57e-43
2.18 1.16 1.02 3.57e-43
2.23 1.16 1.02 3.57e-43
2.29 1.16 1.02 3.57e-43
2.35 1.16 1.02 9.1477e-41
2.22 1.16 1.02 3.57e-43
2.47 1.16 1.02 3.57e-43
2.51 1.16 1.02 3.57e-43
2.55 1.16 1.02 3.57e-43
2.6 1.16 1.02 3.57e-43
2.64 1.16 1.02 3.57e-43
2.66 1.16 1.02 3.57e-43
2.7 1.16 1.02 3.57e-43
2.74 1.16 1.02 3.57e-43
2.79 1.16 1.02 3.57e-43
2.84 1.16 1 9.1477e-41
2.92 1.16 1.13 9.1477e-41
2.94 1.16 1.04 9.1477e-41
2.96 1.16 0.93 9.1477e-41
2.99 1.16 0.91 9.1477e-41
3.07 1.16 1.06 9.1477e-41
3.11 1.16 1.06 3.57e-43
3.05 1.16 1.06 3.57e-43
1.64 1.18 1.03 3.57e-43
1.5 1.18 1.03 3.57e-43
2 1.18 1.35 3.57e-43
2.03 1.18 1.35 3.57e-43
1.91 1.18 1.35 3.57e-43
1.63 1.18 1.35 3.57e-43
2.01 1.18 1.35 3.57e-43
2.07 1.18 1.02 9.1477e-41
1.8 1.18 1.02 3.57e-43
2.14 1.18 1.02 3.57e-43
2.18 1.18 1.02 3.57e-43
2.23 1.18 1.02 3.57e-43
2.29 1.18 1.02 3.57e-43
2.35 1.18 1.02 3.57e-43
2.22 1.18 1.02 3.57e-43
2.47 1.18 1.02 3.57e-43
2.51 1.18 1.07 9.1477e-41
2.57 1.18 1.07 3.57e-43
2.6 1.18 1.07 3.57e-43
2.64 1.18 1.07 3.57e-43
2.66 1.18 1.07 3.57e-43
2.7 1.18 1.07 3.57e-43
2.74 1.18 1.07 3.57e-43
2.79 1.18 0.96 9.1477e-41
2.89 1.18 1.19 9.1477e-41
2.91 1.18 1.09 9.1477e-41
2.92 1.18 0.96 9.1477e-41
2.95 1.18 0.9 9.1477e-41
2.99 1.18 0.9 9.1477e-41
3.07 1.18 1.05 9.1477e-41
3.11 1.18 1.03 9.1477e-41
3.15 1.18 1.03 3.57e-43
1.64 1.2 1.03 3.57e-43
1.5 1.2 1.03 3.57e-43
2 1.2 1.35 3.57e-43
2.03 1.2 1.35 3.57e-43
1.91 1.2 1.35 3.57e-43
1.63 1.2 1.35 3.57e-43
2.01 1.2 1.35 3.57e-43
2.07 1.2 1.35 3.57e-43
1.8 1.2 1.35 3.57e-43
2.14 1.2 0.95 3.57e-43
2.35 1.2 0.95 3.57e-43
2.23 1.2 0.95 3.57e-43
2.29 1.2 0.98 3.57e-43
2.24 1.2 0.98 3.57e-43
2.22 1.2 0.98 3.57e-43
2.47 1.2 1.08 9.1477e-41
2.52 1.2 1.1 9.1477e-41
2.58 1.2 1.15 9.1477e-41
2.62 1.2 1.15 3.57e-43
2.64 1.2 1.15 3.57e-43
2.66 1.2 1.15 3.57e-43
2.7 1.2 1.15 3.57e-43
2.74 1.2 1.15 3.57e-43
2.79 1.2 0.96 9.1477e-41
2.87 1.2 1.11 9.1477e-41
2.95 1.2 0.92 9.1477e-41
2.99 1.2 0.92 3.57e-43
3.07 1.2 1.05 9.1477e-41
3.1 1.2 1 9.1477e-41
3.15 1.2 1.01 9.1477e-41
3.18 1.2 0.98 9.1477e-41
1.64 1.22 1.03 3.57e-43
1.5 1.22 1.03 3.57e-43
2 1.22 1.35 3.57e-43
2.03 1.22 1.35 3.57e-43
1.91 1.22 1.35 3.57e-43
1.63 1.22 1.35 3.57e-43
2.01 1.22 1.35 3.57e-43
2.07 1.22 1.35 3.57e-43
1.8 1.22 1.35 3.57e-43
2.14 1.22 0.95 3.57e-43
2.35 1.22 0.95 3.57e-43
2.23 1.22 0.95 3.57e-43
2.29 1.22 0.98 3.57e-43
2.24 1.22 0.98 3.57e-43
2.22 1.22 0.98 3.57e-43
2.47 1.22 1.08 9.1477e-41
2.55 1.22 1.17 9.1477e-41
2.59 1.22 1.17 9.1477e-41
2.62 1.22 1.17 3.57e-43
2.64 1.22 1.17 3.57e-43
2.66 1.22 1.17 3.57e-43
2.7 1.22 1.17 3.57e-43
2.74 1.22 1.17 3.57e-43
2.79 1.22 1.17 3.57e-43
2.87 1.22 1.11 9.1477e-41
2.95 1.22 0.92 9.1477e-41
2.99 1.22 0.92 3.57e-43
3.07 1.22 0.92 3.57e-43
3.1 1.22 0.92 3.57e-43
3.15 1.22 1.01 9.1477e-41
2 1.24 1.35 3.57e-43
2.03 1.24 1.35 3.57e-43
1.91 1.24 1.35 3.57e-43
1.63 1.24 1.35 3.57e-43
2.01 1.24 1.35 3.57e-43
2.07 1.24 1.35 3.57e-43
1.8 1.24 1.35 3.57e-43
2.14 1.24 0.95 3.57e-43
2.35 1.24 0.95 3.57e-43
2.23 1.24 0.95 3.57e-43
2.29 1.24 0.98 9.1477e-41
2.24 1.24 0.98 3.57e-43
2.22 1.24 0.98 3.57e-43
2.47 1.24 1.08 9.1477e-41
2.54 1.24 1.16 9.1477e-41
2.59 1.24 1.17 9.1477e-41
2.62 1.24 1.17 3.57e-43
2.64 1.24 1.05 9.1477e-41
2.75 1.24 1.05 3.57e-43
2.7 1.24 1.05 3.57e-43
2.74 1.24 1.05 3.57e-43
2.79 1.24 0.96 9.1477e-41
2.73 1.24 0.57 9.1477e-41
2.95 1.24 0.91 9.1477e-41
2.99 1.24 0.91 3.57e-43
3.07 1.24 0.91 3.57e-43
3.1 1.24 0.91 3.57e-43
3.15 1.24 1.01 9.1477e-41
1.5 1.26 1.35 3.57e-43
2 1.26 1.35 3.57e-43
2.03 1.26 1.35 3.57e-43
1.91 1.26 1.35 3.57e-43
1.63 1.26 1.35 3.57e-43
2.01 1.26 1.35 3.57e-43
2.07 1.26 1.35 3.57e-43
1.8 1.26 1.35 3.57e-43
2.14 1.26 0.95 9.1477e-41
2.35 1.26 0.95 3.57e-43
2.23 1.26 0.95 3.57e-43
2.29 1.26 0.98 9.1477e-41
2.24 1.26 0.98 3.57e-43
2.22 1.26 0.98 3.57e-43
2.47 1.26 1.08 9.1477e-41
2.53 1.26 1.14 9.1477e-41
2.58 1.26 1.15 9.1477e-41
2.62 1.26 1.15 9.1477e-41
2.67 1.26 1.15 9.1477e-41
2.75 1.26 1.15 3.57e-43
2.7 1.26 1.15 3.57e-43
2.74 1.26 1.15 3.57e-43
2.79 1.26 0.96 9.1477e-41
2.74 1.26 0.63 9.1477e-41
2.69 1.26 0.63 3.57e-43
2.95 1.26 0.92 9.1477e-41
2.99 1.26 0.92 3.57e-43
3.07 1.26 0.92 3.57e-43
3.1 1.26 0.92 3.57e-43
3.15 1.26 1.01 9.1477e-41
1.5 1.28 1.35 3.57e-43
2 1.28 1.35 3.57e-43
2.03 1.28 1.35 3.57e-43
1.91 1.28 1.35 3.57e-43
1.63 1.28 1.35 3.57e-43
2.01 1.28 1.35 3.57e-43
2.07 1.28 1.35 3.57e-43
1.8 1.28 1.35 3.57e-43
2.14 1.28 1.35 3.57e-43
2.35 1.28 1.35 3.57e-43
2.23 1.28 1.35 3.57e-43
2.29 1.28 0.98 9.1477e-41
2.25 1.28 0.98 3.57e-43
2.22 1.28 0.98 3.57e-43
2.47 1.28 0.98 3.57e-43
2.53 1.28 1.14 9.1477e-41
2.59 1.28 1.17 9.1477e-41
2.62 1.28 1.14 9.1477e-41
2.66 1.28 1.14 3.57e-43
2.75 1.28 1.14 3.57e-43
2.7 1.28 1.14 3.57e-43
2.74 1.28 1.14 3.57e-43
2.79 1.28 0.96 9.1477e-41
2.75 1.28 0.67 9.1477e-41
2.88 1.28 0.8 9.1477e-41
2.95 1.28 0.92 9.1477e-41
2.99 1.28 0.92 3.57e-43
3.07 1.28 0.92 3.57e-43
3.1 1.28 0.92 3.57e-43
3.15 1.28 1.01 9.1477e-41
1.7 1.3 1.35 9.1477e-41
1.76 1.3 1.35 3.57e-43
1.63 1.3 1.35 3.57e-43
1.68 1.3 1.35 3.57e-43
1.73 1.3 1.35 3.57e-43
1.5 1.3 1.35 3.57e-43
2 1.3 1.35 3.57e-43
2.03 1.3 1.35 3.57e-43
1.91 1.3 1.35 3.57e-43
1.63 1.3 1.35 3.57e-43
2.01 1.3 1.35 3.57e-43
2.07 1.3 1.35 3.57e-43
1.8 1.3 1.35 3.57e-43
2.14 1.3 1.35 3.57e-43
2.35 1.3 1.35 3.57e-43
2.23 1.3 1.35 3.57e-43
2.29 1.3 1.35 3.57e-43
2.25 1.3 1.35 3.57e-43
2.22 1.3 1.35 3.57e-43
2.47 1.3 1.35 3.57e-43
2.53 1.3 1.35 3.57e-43
2.59 1.3 1.17 9.1477e-41
2.63 1.3 1.16 9.1477e-41
2.67 1.3 1.16 3.57e-43
2.75 1.3 1.16 3.57e-43
2.7 1.3 1.16 3.57e-43
2.74 1.3 1.16 3.57e-43
2.79 1.3 0.96 9.1477e-41
2.76 1.3 0.68 9.1477e-41
2.88 1.3 0.8 9.1477e-41
2.95 1.3 0.92 9.1477e-41
2.99 1.3 0.92 3.57e-43
3.07 1.3 0.92 3.57e-43
3.1 1.3 0.92 3.57e-43
3.15 1.3 1.01 9.1477e-41
1.7 1.32 1.36 9.1477e-41
1.75 1.32 1.36 3.57e-43
1.63 1.32 1.36 3.57e-43
1.68 1.32 1.36 3.57e-43
1.73 1.32 1.36 3.57e-43
1.5 1.32 1.36 3.57e-43
2 1.32 1.36 3.57e-43
2.03 1.32 1.36 3.57e-43
1.91 1.32 1.36 3.57e-43
1.63 1.32 1.36 3.57e-43
2.01 1.32 1.36 3.57e-43
2.07 1.32 1.36 3.57e-43
1.8 1.32 1.36 3.57e-43
2.14 1.32 1.36 3.57e-43
2.35 1.32 1.36 3.57e-43
2.23 1.32 1.36 3.57e-43
2.29 1.32 0.98 9.1477e-41
2.25 1.32 0.98 3.57e-43
2.22 1.32 0.98 3.57e-43
2.47 1.32 0.98 3.57e-43
2.53 1.32 0.98 3.57e-43
2.59 1.32 1.17 9.1477e-41
2.63 1.32 1.17 9.1477e-41
2.68 1.32 1.17 3.57e-43
2.75 1.32 1.17 3.57e-43
2.7 1.32 1.17 3.57e-43
2.74 1.32 0.96 9.1477e-41
2.73 1.32 0.75 9.1477e-41
2.76 1.32 0.69 9.1477e-41
2.88 1.32 0.79 9.1477e-41
2.95 1.32 0.92 9.1477e-41
2.99 1.32 0.92 3.57e-43
3.07 1.32 0.92 3.57e-43
3.1 1.32 0.92 3.57e-43
3.15 1.32 1.01 9.1477e-41
2 1.34 0.98 3.57e-43
2.25 1.34 0.98 3.57e-43
2.22 1.34 0.98 3.57e-43
2.47 1.34 0.98 3.57e-43
2.53 1.34 0.98 3.57e-43
2.59 1.34 1.17 9.1477e-41
2.63 1.34 1.17 9.1477e-41
2.67 1.34 1.17 3.57e-43
2.75 1.34 1.17 3.57e-43
2.7 1.34 1.17 3.57e-43
2.74 1.34 0.96 9.1477e-41
2.73 1.34 0.74 9.1477e-41
2.76 1.34 0.7 9.1477e-41
2.89 1.34 0.82 9.1477e-41
2.95 1.34 0.92 9.1477e-41
3 1.34 0.92 3.57e-43
3.07 1.34 0.92 3.57e-43
3.1 1.34 0.92 3.57e-43
3.15 1.34 1.01 9.1477e-41
2.07 1.36 1.17 3.57e-43
2.63 1.36 1.18 9.1477e-41
2.67 1.36 1.18 3.57e-43
2.75 1.36 1.18 3.57e-43
2.7 1.36 1.18 3.57e-43
2.74 1.36 0.96 9.1477e-41
2.73 1.36 0.75 9.1477e-41
2.76 1.36 0.7 9.1477e-41
2.77 1.36 0.55 9.1477e-41
2.87 1.36 0.78 9.1477e-41
2.95 1.36 0.91 9.1477e-41
2.99 1.36 0.91 3.57e-43
3.07 1.36 0.91 3.57e-43
3.1 1.36 0.91 3.57e-43
3.15 1.36 1.01 9.1477e-41
2.63 1.38 0.73 3.57e-43
2.68 1.38 0.73 3.57e-43
2.75 1.38 0.73 3.57e-43
2.7 1.38 0.73 3.57e-43
2.74 1.38 0.96 9.1477e-41
2.73 1.38 0.75 9.1477e-41
2.76 1.38 0.7 9.1477e-41
2.78 1.38 0.57 9.1477e-41
2.87 1.38 0.77 9.1477e-41
2.95 1.38 0.92 9.1477e-41
3 1.38 0.92 3.57e-43
3.07 1.38 0.92 3.57e-43
3.1 1.38 0.92 3.57e-43
3.15 1.38 1.01 9.1477e-41
1.5 1.4 0.93 3.57e-43
2.46 1.4 0.93 3.57e-43
2.25 1.4 0.73 9.1477e-41
2.54 1.4 0.73 3.57e-43
2.47 1.4 0.73 3.57e-43
2.53 1.4 0.73 3.57e-43
2.59 1.4 0.73 3.57e-43
2.63 1.4 0.73 3.57e-43
2.68 1.4 0.73 3.57e-43
2.75 1.4 0.73 3.57e-43
2.7 1.4 0.73 3.57e-43
2.74 1.4 0.96 9.1477e-41
2.73 1.4 0.75 9.1477e-41
2.76 1.4 0.71 9.1477e-41
2.78 1.4 0.59 9.1477e-41
2.87 1.4 0.78 9.1477e-41
2.96 1.4 0.93 9.1477e-41
2.99 1.4 0.93 3.57e-43
3.07 1.4 0.93 3.57e-43
3.1 1.4 0.93 3.57e-43
3.15 1.4 1.01 9.1477e-41
2.01 1.42 1.08 3.57e-43
2.62 1.42 1.4 9.1477e-41
2.66 1.42 1.4 3.57e-43
2.63 1.42 1.4 3.57e-43
2.68 1.42 1.4 3.57e-43
2.75 1.42 1.4 3.57e-43
2.7 1.42 1.4 3.57e-43
2.74 1.42 0.96 9.1477e-41
2.73 1.42 0.75 9.1477e-41
2.76 1.42 0.7 9.1477e-41
2.79 1.42 0.61 9.1477e-41
2.89 1.42 0.82 9.1477e-41
2.96 1.42 0.93 9.1477e-41
3 1.42 0.93 3.57e-43
3.07 1.42 0.93 3.57e-43
3.1 1.42 0.93 3.57e-43
3.15 1.42 1.01 9.1477e-41
2.63 1.44 1.41 3.57e-43
2.66 1.44 1.4 9.1477e-41
2.7 1.44 1.4 9.1477e-41
2.74 1.44 1.38 9.1477e-41
2.78 1.44 1.38 3.57e-43
2.7 1.44 1.38 3.57e-43
2.74 1.44 0.96 9.1477e-41
2.73 1.44 0.75 9.1477e-41
2.76 1.44 0.7 9.1477e-41
2.78 1.44 0.6 9.1477e-41
2.89 1.44 0.83 9.1477e-41
2.96 1.44 0.93 9.1477e-41
2.99 1.44 0.93 3.57e-43
3.07 1.44 0.93 3.57e-43
3.1 1.44 0.93 3.57e-43
3.15 1.44 1.01 9.1477e-41
2.63 1.46 1.41 3.57e-43
2.67 1.46 1.41 9.1477e-41
2.71 1.46 1.4 9.1477e-41
2.74 1.46 1.38 9.1477e-41
2.78 1.46 1.38 3.57e-43
2.7 1.46 0.97 9.1477e-41
2.68 1.46 0.73 9.1477e-41
2.73 1.46 0.74 9.1477e-41
2.76 1.46 0.7 9.1477e-41
2.79 1.46 0.62 9.1477e-41
2.9 1.46 0.86 9.1477e-41
2.96 1.46 0.94 9.1477e-41
3 1.46 0.94 3.57e-43
3.07 1.46 0.94 3.57e-43
3.1 1.46 0.94 3.57e-43
3.15 1.46 1.01 9.1477e-41
2.63 1.48 1.41 3.57e-43
2.67 1.48 1.41 9.1477e-41
2.71 1.48 1.4 9.1477e-41
2.75 1.48 1.4 9.1477e-41
2.78 1.48 1.4 3.57e-43
2.7 1.48 0.97 9.1477e-41
2.68 1.48 0.74 9.1477e-41
2.73 1.48 0.75 9.1477e-41
2.76 1.48 0.7 9.1477e-41
2.79 1.48 0.63 9.1477e-41
2.89 1.48 0.82 9.1477e-41
2.96 1.48 0.93 9.1477e-41
3 1.48 0.93 3.57e-43
3.07 1.48 0.93 3.57e-43
3.1 1.48 0.93 3.57e-43
3.15 1.48 1.01 9.1477e-41
2.63 1.5 1.41 3.57e-43
2.67 1.5 1.41 9.1477e-41
2.71 1.5 1.4 9.1477e-41
2.74 1.5 1.39 9.1477e-41
2.79 1.5 1.39 3.57e-43
2.7 1.5 0.97 9.1477e-41
2.68 1.5 0.74 9.1477e-41
2.73 1.5 0.74 9.1477e-41
2.76 1.5 0.71 9.1477e-41
2.79 1.5 0.62 9.1477e-41
2.89 1.5 0.85 9.1477e-41
2.96 1.5 0.94 9.1477e-41
3 1.5 0.94 3.57e-43
3.07 1.5 0.94 3.57e-43
3.1 1.5 0.94 3.57e-43
3.15 1.5 1.01 9.1477e-41
2.59 1.52 1.43 3.57e-43
2.63 1.52 1.41 9.1477e-41
2.67 1.52 1.42 9.1477e-41
2.71 1.52 1.41 9.1477e-41
2.75 1.52 1.4 9.1477e-41
2.79 1.52 1.4 3.57e-43
2.7 1.52 0.97 9.1477e-41
2.69 1.52 0.76 9.1477e-41
2.73 1.52 0.74 9.1477e-41
2.76 1.52 0.7 9.1477e-41
2.79 1.52 0.62 9.1477e-41
2.89 1.52 0.84 9.1477e-41
2.96 1.52 0.94 9.1477e-41
3 1.52 0.94 3.57e-43
3.07 1.52 0.94 3.57e-43
3.1 1.52 1 9.1477e-41
3.05 1.52 0.56 9.1477e-41
1.91 1.54 1.4 3.57e-43
2.59 1.54 1.43 3.57e-43
2.63 1.54 1.41 9.1477e-41
2.67 1.54 1.41 9.1477e-41
2.71 1.54 1.41 9.1477e-41
2.75 1.54 1.4 9.1477e-41
2.79 1.54 1.4 3.57e-43
2.7 1.54 0.97 9.1477e-41
2.7 1.54 0.8 9.1477e-41
2.72 1.54 0.72 9.1477e-41
2.76 1.54 0.7 9.1477e-41
2.79 1.54 0.61 9.1477e-41
2.89 1.54 0.85 9.1477e-41
2.96 1.54 0.95 9.1477e-41
3 1.54 0.95 3.57e-43
3.07 1.54 0.95 3.57e-43
3.1 1.54 0.95 3.57e-43
3.05 1.54 0.56 9.1477e-41
2.59 1.56 1.43 3.57e-43
2.63 1.56 1.42 9.1477e-41
2.67 1.56 1.43 9.1477e-41
2.71 1.56 1.42 9.1477e-41
2.75 1.56 1.4 9.1477e-41
2.79 1.56 1.4 3.57e-43
2.7 1.56 0.97 9.1477e-41
2.71 1.56 0.86 9.1477e-41
2.72 1.56 0.72 9.1477e-41
2.76 1.56 0.7 9.1477e-41
2.79 1.56 0.61 9.1477e-41
2.89 1.56 0.85 9.1477e-41
2.96 1.56 0.94 9.1477e-41
3 1.56 0.94 3.57e-43
3.07 1.56 0.94 3.57e-43
3.1 1.56 0.94 3.57e-43
3.05 1.56 0.56 9.1477e-41
2.56 1.58 1.46 3.57e-43
2.59 1.58 1.43 9.1477e-41
2.63 1.58 1.42 9.1477e-41
2.67 1.58 1.42 9.1477e-41
2.71 1.58 1.42 9.1477e-41
2.75 1.58 1.41 9.1477e-41
2.79 1.58 1.41 3.57e-43
2.7 1.58 0.97 9.1477e-41
2.73 1.58 0.92 9.1477e-41
2.72 1.58 0.72 9.1477e-41
2.76 1.58 0.69 9.1477e-41
2.79 1.58 0.61 9.1477e-41
2.88 1.58 0.81 9.1477e-41
2.96 1.58 0.95 9.1477e-41
3 1.58 0.95 3.57e-43
3.07 1.58 0.95 3.57e-43
3.1 1.58 0.95 3.57e-43
3.05 1.58 0.56 9.1477e-41
2.56 1.6 1.46 3.57e-43
2.6 1.6 1.44 9.1477e-41
2.63 1.6 1.43 9.1477e-41
2.67 1.6 1.43 9.1477e-41
2.71 1.6 1.42 9.1477e-41
2.75 1.6 1.42 3.57e-43
2.79 1.6 1.42 3.57e-43
2.7 1.6 0.97 9.1477e-41
2.73 1.6 0.92 9.1477e-41
2.72 1.6 0.72 9.1477e-41
2.76 1.6 0.68 9.1477e-41
2.78 1.6 0.6 9.1477e-41
2.89 1.6 0.84 9.1477e-41
2.96 1.6 0.96 9.1477e-41
3 1.6 0.96 3.57e-43
3.07 1.6 0.96 3.57e-43
3.1 1.6 0.96 3.57e-43
3.05 1.6 0.56 9.1477e-41
2.56 1.62 1.46 3.57e-43
2.59 1.62 1.43 9.1477e-41
2.64 1.62 1.45 9.1477e-41
2.67 1.62 1.42 9.1477e-41
2.71 1.62 1.42 9.1477e-41
2.75 1.62 1.42 3.57e-43
2.79 1.62 1.39 9.1477e-41
2.77 1.62 1.2 9.1477e-41
2.73 1.62 0.91 9.1477e-41
2.72 1.62 0.71 9.1477e-41
2.75 1.62 0.67 9.1477e-41
2.78 1.62 0.59 9.1477e-41
2.9 1.62 0.87 9.1477e-41
2.96 1.62 0.94 9.1477e-41
3 1.62 0.94 3.57e-43
3.07 1.62 0.94 3.57e-43
3.1 1.62 0.94 3.57e-43
3.05 1.62 0.56 9.1477e-41
2.56 1.64 1.46 3.57e-43
2.6 1.64 1.45 9.1477e-41
2.64 1.64 1.45 9.1477e-41
2.68 1.64 1.44 9.1477e-41
2.71 1.64 1.42 9.1477e-41
2.75 1.64 1.42 3.57e-43
2.79 1.64 1.39 9.1477e-41
2.75 1.64 1.14 9.1477e-41
2.73 1.64 0.93 9.1477e-41
2.72 1.64 0.7 9.1477e-41
2.76 1.64 0.68 9.1477e-41
2.78 1.64 0.59 9.1477e-41
2.89 1.64 0.84 9.1477e-41
2.96 1.64 0.94 9.1477e-41
3 1.64 0.94 3.57e-43
3.07 1.64 0.94 3.57e-43
3.1 1.64 0.94 3.57e-43
3.05 1.64 0.56 9.1477e-41
1.7 1.66 1.44 9.1477e-41
1.75 1.66 1.44 3.57e-43
1.75 1.66 1.44 3.57e-43
1.63 1.66 1.44 3.57e-43
1.68 1.66 1.44 3.57e-43
1.73 1.66 1.44 3.57e-43
1.5 1.66 1.44 3.57e-43
2 1.66 1.44 3.57e-43
2.03 1.66 1.44 3.57e-43
1.91 1.66 1.44 3.57e-43
1.63 1.66 1.44 3.57e-43
2.01 1.66 1.44 3.57e-43
2.07 1.66 1.44 3.57e-43
1.8 1.66 1.44 3.57e-43
2.14 1.66 1.44 3.57e-43
2.35 1.66 1.44 3.57e-43
2.23 1.66 1.44 3.57e-43
2.46 1.66 1.44 3.57e-43
2.25 1.66 0.73 9.1477e-41
2.56 1.66 1.46 9.1477e-41
2.6 1.66 1.44 9.1477e-41
2.64 1.66 1.45 9.1477e-41
2.68 1.66 1.44 9.1477e-41
2.71 1.66 1.42 9.1477e-41
2.75 1.66 1.42 3.57e-43
2.79 1.66 1.39 9.1477e-41
2.75 1.66 1.14 9.1477e-41
2.74 1.66 0.95 9.1477e-41
2.72 1.66 0.71 9.1477e-41
2.75 1.66 0.67 9.1477e-41
2.78 1.66 0.6 9.1477e-41
2.89 1.66 0.83 9.1477e-41
2.96 1.66 0.95 9.1477e-41
3 1.66 0.95 3.57e-43
3.07 1.66 0.95 3.57e-43
3.1 1.66 0.95 3.57e-43
3.05 1.66 0.56 9.1477e-41
1.7 1.68 1.45 9.1477e-41
1.74 1.68 1.45 3.57e-43
1.75 1.68 1.45 3.57e-43
1.63 1.68 1.45 3.57e-43
1.68 1.68 1.45 3.57e-43
1.73 1.68 1.45 3.57e-43
1.5 1.68 1.45 3.57e-43
2 1.68 1.45 3.57e-43
2.03 1.68 1.45 3.57e-43
1.91 1.68 1.45 3.57e-43
1.63 1.68 1.45 3.57e-43
2.01 1.68 1.45 3.57e-43
2.07 1.68 1.45 3.57e-43
1.8 1.68 1.45 3.57e-43
2.14 1.68 1.45 3.57e-43
2.35 1.68 1.45 3.57e-43
2.23 1.68 1.45 3.57e-43
2.46 1.68 1.45 3.57e-43
2.25 1.68 1.45 3.57e-43
2.56 1.68 1.46 9.1477e-41
2.6 1.68 1.45 9.1477e-41
2.64 1.68 1.45 9.1477e-41
2.68 1.68 1.45 9.1477e-41
2.71 1.68 1.42 9.1477e-41
2.75 1.68 1.42 3.57e-43
2.79 1.68 1.39 9.1477e-41
2.75 1.68 1.12 9.1477e-41
2.74 1.68 0.96 9.1477e-41
2.72 1.68 0.7 9.1477e-41
2.75 1.68 0.66 9.1477e-41
2.78 1.68 0.58 9.1477e-41
2.89 1.68 0.83 9.1477e-41
2.96 1.68 0.95 9.1477e-41
3 1.68 0.95 3.57e-43
3.07 1.68 0.95 3.57e-43
3.1 1.68 0.95 3.57e-43
3.05 1.68 0.56 9.1477e-41
1.7 1.7 1.45 9.1477e-41
1.74 1.7 1.45 3.57e-43
1.75 1.7 1.45 3.57e-43
1.63 1.7 1.45 3.57e-43
1.68 1.7 1.45 3.57e-43
1.73 1.7 1.45 3.57e-43
1.5 1.7 1.45 3.57e-43
2 1.7 1.45 3.57e-43
2.03 1.7 1.45 3.57e-43
1.91 1.7 1.45 3.57e-43
1.63 1.7 1.45 3.57e-43
2.01 1.7 1.45 3.57e-43
2.07 1.7 1.45 3.57e-43
1.8 1.7 1.45 3.57e-43
2.14 1.7 1.45 3.57e-43
2.35 1.7 1.45 3.57e-43
2.23 1.7 1.45 3.57e-43
2.46 1.7 1.41 9.1477e-41
2.52 1.7 1.41 3.57e-43
2.56 1.7 1.46 9.1477e-41
2.6 1.7 1.45 9.1477e-41
2.64 1.7 1.45 9.1477e-41
2.68 1.7 1.44 9.1477e-41
2.72 1.7 1.43 9.1477e-41
2.75 1.7 1.43 3.57e-43
2.79 1.7 1.39 9.1477e-41
2.74 1.7 1.09 9.1477e-41
2.74 1.7 0.96 9.1477e-41
2.72 1.7 0.7 9.1477e-41
2.75 1.7 0.66 9.1477e-41
2.78 1.7 0.57 9.1477e-41
2.89 1.7 0.85 9.1477e-41
2.96 1.7 0.95 9.1477e-41
3 1.7 0.95 3.57e-43
3.07 1.7 0.95 3.57e-43
3.1 1.7 0.95 3.57e-43
3.05 1.7 0.56 9.1477e-41
2 1.72 1.41 3.57e-43
2.52 1.72 1.41 3.57e-43
2.56 1.72 1.46 9.1477e-41
2.6 1.72 1.44 9.1477e-41
2.64 1.72 1.46 9.1477e-41
2.68 1.72 1.45 9.1477e-41
2.72 1.72 1.44 9.1477e-41
2.76 1.72 1.44 3.57e-43
2.79 1.72 1.39 9.1477e-41
2.73 1.72 1.08 9.1477e-41
2.74 1.72 0.96 9.1477e-41
2.72 1.72 0.7 9.1477e-41
2.75 1.72 0.64 9.1477e-41
2.78 1.72 0.59 9.1477e-41
2.9 1.72 0.88 9.1477e-41
2.96 1.72 0.96 9.1477e-41
3 1.72 0.96 3.57e-43
3.07 1.72 0.96 3.57e-43
3.1 1.72 0.96 3.57e-43
3.05 1.72 0.56 9.1477e-41
2.56 1.74 1.47 3.57e-43
2.6 1.74 1.46 9.1477e-41
2.64 1.74 1.46 9.1477e-41
2.68 1.74 1.45 9.1477e-41
2.72 1.74 1.43 9.1477e-41
2.76 1.74 1.43 3.57e-43
2.79 1.74 1.39 9.1477e-41
2.73 1.74 1.08 9.1477e-41
2.74 1.74 0.96 9.1477e-41
2.72 1.74 0.71 9.1477e-41
2.74 1.74 0.62 9.1477e-41
2.78 1.74 0.58 9.1477e-41
2.89 1.74 0.85 9.1477e-41
2.96 1.74 0.85 3.57e-43
3 1.74 0.85 3.57e-43
3.07 1.74 1.05 9.1477e-41
3.06 1.74 1.05 3.57e-43
3.05 1.74 0.56 9.1477e-41
2.52 1.76 1.47 3.57e-43
2.56 1.76 1.47 9.1477e-41
2.6 1.76 1.45 9.1477e-41
2.64 1.76 1.45 9.1477e-41
2.68 1.76 1.45 9.1477e-41
2.72 1.76 1.44 9.1477e-41
2.75 1.76 1.44 3.57e-43
2.79 1.76 1.39 9.1477e-41
2.74 1.76 1.09 9.1477e-41
2.74 1.76 0.96 9.1477e-41
2.72 1.76 0.73 9.1477e-41
2.75 1.76 0.64 9.1477e-41
2.78 1.76 0.57 9.1477e-41
2.9 1.76 0.86 9.1477e-41
2.96 1.76 0.96 9.1477e-41
3 1.76 0.96 3.57e-43
3.07 1.76 1.05 9.1477e-41
3.06 1.76 0.8 9.1477e-41
3.09 1.76 0.75 9.1477e-41
2.52 1.78 1.47 3.57e-43
2.56 1.78 1.46 9.1477e-41
2.6 1.78 1.45 9.1477e-41
2.64 1.78 1.46 9.1477e-41
2.68 1.78 1.45 9.1477e-41
2.72 1.78 1.43 9.1477e-41
2.76 1.78 1.43 3.57e-43
2.79 1.78 1.39 9.1477e-41
2.73 1.78 1.08 9.1477e-41
2.74 1.78 0.96 9.1477e-41
2.72 1.78 0.73 9.1477e-41
2.76 1.78 0.68 9.1477e-41
2.78 1.78 0.59 9.1477e-41
2.91 1.78 0.91 9.1477e-41
2.96 1.78 0.96 9.1477e-41
3 1.78 0.96 3.57e-43
3.07 1.78 1.05 9.1477e-41
3.06 1.78 0.8 9.1477e-41
3.1 1.78 0.78 9.1477e-41
2.52 1.8 1.47 3.57e-43
2.56 1.8 1.47 9.1477e-41
2.61 1.8 1.47 9.1477e-41
2.64 1.8 1.44 9.1477e-41
2.68 1.8 1.45 9.1477e-41
2.72 1.8 1.44 9.1477e-41
2.76 1.8 1.44 3.57e-43
2.79 1.8 1.39 9.1477e-41
2.74 1.8 1.09 9.1477e-41
2.74 1.8 0.96 9.1477e-41
2.73 1.8 0.76 9.1477e-41
2.78 1.8 0.75 9.1477e-41
2.8 1.8 0.68 9.1477e-41
2.92 1.8 0.95 9.1477e-41
2.97 1.8 0.95 3.57e-43
3 1.8 0.95 3.57e-43
3.07 1.8 1.05 9.1477e-41
3.06 1.8 0.8 9.1477e-41
3.06 1.8 0.61 9.1477e-41
1.73 1.82 1.35 3.57e-43
2.44 1.82 1.35 3.57e-43
2.46 1.82 1.41 9.1477e-41
2.52 1.82 1.47 9.1477e-41
2.56 1.82 1.47 9.1477e-41
2.61 1.82 1.47 9.1477e-41
2.64 1.82 1.46 9.1477e-41
2.68 1.82 1.45 9.1477e-41
2.72 1.82 1.44 9.1477e-41
2.76 1.82 1.44 3.57e-43
2.79 1.82 1.39 9.1477e-41
2.73 1.82 1.08 9.1477e-41
2.73 1.82 0.93 9.1477e-41
2.74 1.82 0.8 9.1477e-41
2.78 1.82 0.77 9.1477e-41
2.85 1.82 0.85 9.1477e-41
2.94 1.82 1.03 9.1477e-41
2.97 1.82 1.03 3.57e-43
3 1.82 1.03 3.57e-43
3.07 1.82 1.03 3.57e-43
3.06 1.82 1.03 3.57e-43
3.06 1.82 0.61 9.1477e-41
2 1.84 1.41 3.57e-43
2.52 1.84 1.47 9.1477e-41
2.56 1.84 1.47 9.1477e-41
2.6 1.84 1.46 9.1477e-41
2.65 1.84 1.47 9.1477e-41
2.68 1.84 1.45 9.1477e-41
2.72 1.84 1.44 9.1477e-41
2.76 1.84 1.44 3.57e-43
2.79 1.84 1.39 9.1477e-41
2.73 1.84 1.07 9.1477e-41
2.73 1.84 0.9 9.1477e-41
2.75 1.84 0.81 9.1477e-41
2.8 1.84 0.85 9.1477e-41
2.91 1.84 1.11 9.1477e-41
2.94 1.84 1.05 9.1477e-41
2.97 1.84 1.05 3.57e-43
3 1.84 1.05 3.57e-43
3.07 1.84 1.05 3.57e-43
3.06 1.84 1.05 3.57e-43
3.06 1.84 0.61 9.1477e-41
2.52 1.86 1.47 3.57e-43
2.57 1.86 1.47 9.1477e-41
2.6 1.86 1.46 9.1477e-41
2.65 1.86 1.47 9.1477e-41
2.68 1.86 1.45 9.1477e-41
2.72 1.86 1.44 9.1477e-41
2.76 1.86 1.43 9.1477e-41
2.78 1.86 1.38 9.1477e-41
2.73 1.86 1.05 9.1477e-41
2.72 1.86 0.87 9.1477e-41
2.76 1.86 0.87 9.1477e-41
2.89 1.86 1.16 9.1477e-41
2.92 1.86 1.12 9.1477e-41
2.95 1.86 1.12 3.57e-43
2.97 1.86 1.12 3.57e-43
3 1.86 1.12 3.57e-43
3.07 1.86 1.12 3.57e-43
3.06 1.86 1.12 3.57e-43
3.06 1.86 0.61 9.1477e-41
1.5 1.88 1.48 3.57e-43
2.48 1.88 1.46 9.1477e-41
2.52 1.88 1.47 9.1477e-41
2.56 1.88 1.47 9.1477e-41
2.6 1.88 1.46 9.1477e-41
2.65 1.88 1.47 9.1477e-41
2.68 1.88 1.45 9.1477e-41
2.73 1.88 1.46 9.1477e-41
2.76 1.88 1.44 9.1477e-41
2.79 1.88 1.4 9.1477e-41
2.74 1.88 1.4 3.57e-43
2.72 1.88 0.87 9.1477e-41
2.84 1.88 1.16 9.1477e-41
2.89 1.88 1.16 3.57e-43
2.92 1.88 1.16 3.57e-43
2.95 1.88 1.16 3.57e-43
2.97 1.88 1.16 3.57e-43
3 1.88 1.16 3.57e-43
3.07 1.88 1.16 3.57e-43
3.06 1.88 0.8 9.1477e-41
3.05 1.88 0.55 9.1477e-41
2.52 1.9 1.47 3.57e-43
2.56 1.9 1.47 9.1477e-41
2.6 1.9 1.46 9.1477e-41
2.64 1.9 1.46 9.1477e-41
2.68 1.9 1.45 9.1477e-41
2.72 1.9 1.44 9.1477e-41
2.76 1.9 1.44 9.1477e-41
2.79 1.9 1.39 9.1477e-41
2.8 1.9 1.3 9.1477e-41
2.82 1.9 1.24 9.1477e-41
2.87 1.9 1.24 3.57e-43
2.89 1.9 1.24 3.57e-43
2.92 1.9 1.24 3.57e-43
2.95 1.9 1.24 3.57e-43
2.97 1.9 1.24 3.57e-43
3 1.9 1.24 3.57e-43
3.07 1.9 1.24 3.57e-43
3.06 1.9 1.24 3.57e-43
3.05 1.9 0.55 9.1477e-41
2.44 1.92 1.48 3.57e-43
2.49 1.92 1.48 9.1477e-41
2.52 1.92 1.47 9.1477e-41
2.57 1.92 1.48 9.1477e-41
2.6 1.92 1.46 9.1477e-41
2.64 1.92 1.46 9.1477e-41
2.68 1.92 1.45 9.1477e-41
2.72 1.92 1.45 9.1477e-41
2.76 1.92 1.44 9.1477e-41
2.79 1.92 1.39 9.1477e-41
2.81 1.92 1.39 3.57e-43
2.82 1.92 1.39 3.57e-43
2.87 1.92 1.39 3.57e-43
2.89 1.92 1.39 3.57e-43
2.92 1.92 1.39 3.57e-43
2.95 1.92 1.39 3.57e-43
2.97 1.92 1.39 3.57e-43
3 1.92 1.39 3.57e-43
3.07 1.92 1.39 3.57e-43
3.06 1.92 1.39 3.57e-43
3.05 1.92 0.55 9.1477e-41
1.73 1.94 1.35 3.57e-43
2.44 1.94 1.48 9.1477e-41
2.49 1.94 1.49 9.1477e-41
2.53 1.94 1.48 9.1477e-41
2.56 1.94 1.47 9.1477e-41
2.61 1.94 1.47 9.1477e-41
2.65 1.94 1.47 9.1477e-41
2.68 1.94 1.45 9.1477e-41
2.72 1.94 1.45 9.1477e-41
2.76 1.94 1.45 3.57e-43
2.79 1.94 1.45 3.57e-43
2.81 1.94 1.45 3.57e-43
2.82 1.94 1.45 3.57e-43
2.87 1.94 1.45 3.57e-43
2.89 1.94 1.45 3.57e-43
2.92 1.94 1.45 3.57e-43
