# .PCD v.7 - Point Cloud Data file format
VERSION .7
FIELDS x y z rgb
SIZE 4 4 4 4
TYPE F F F F
WIDTH 505
HEIGHT 1
POINTS 505
DATA ascii
3.28 0 0.56 9.1477e-41
3.33 0 0.55 9.1477e-41
3.38 0 0.59 9.1477e-41
3.43 0 0.59 3.57e-43
3.4 0 0.59 3.57e-43
3.45 0 0.59 3.57e-43
3.5 0 0.59 3.57e-43
3.55 0 0.59 3.57e-43
3.6 0 0.59 3.57e-43
3.75 0 0.68 9.1477e-41
3.79 0 0.66 9.1477e-41
3.83 0 0.66 9.1477e-41
3.88 0 0.66 3.57e-43
3.9 0 0.66 3.57e-43
3.95 0 0.66 3.57e-43
3.99 0 0.66 3.57e-43
4.05 0 0.66 3.57e-43
4.19 0 0.52 9.1477e-41
4.23 0 0.52 9.1477e-41
4.28 0 0.5 9.1477e-41
3.08 0.23 0.68 9.1477e-41
3.13 0.23 0.69 9.1477e-41
3.17 0.23 0.68 9.1477e-41
3.21 0.23 0.68 9.1477e-41
3.27 0.23 0.68 3.57e-43
3.28 0.23 0.68 3.57e-43
3.33 0.23 0.68 3.57e-43
3.38 0.23 0.68 3.57e-43
3.43 0.23 0.68 3.57e-43
3.4 0.23 0.68 3.57e-43
3.45 0.23 0.68 3.57e-43
3.5 0.23 0.68 3.57e-43
3.55 0.23 0.68 3.57e-43
3.6 0.23 0.68 3.57e-43
3.65 0.23 0.68 3.57e-43
3.75 0.23 0.68 3.57e-43
3.79 0.23 0.68 3.57e-43
3.83 0.23 0.68 3.57e-43
3.88 0.23 0.68 3.57e-43
3.9 0.23 0.68 3.57e-43
3.95 0.23 0.68 3.57e-43
3.99 0.23 0.68 3.57e-43
4.05 0.23 0.68 3.57e-43
4.09 0.23 0.68 3.57e-43
4.14 0.23 0.68 3.57e-43
4.19 0.23 0.68 3.57e-43
4.23 0.23 0.68 3.57e-43
4.28 0.23 0.5 9.1477e-41
4.32 0.23 0.63 9.1477e-41
4.36 0.23 0.61 9.1477e-41
4.4 0.23 0.62 9.1477e-41
4.45 0.23 0.64 9.1477e-41
4.49 0.23 0.64 3.57e-43
3.06 0.46 0.81 9.1477e-41
3.11 0.46 0.83 9.1477e-41
3.15 0.46 0.83 3.57e-43
3.17 0.46 0.83 3.57e-43
3.21 0.46 0.83 3.57e-43
3.27 0.46 0.83 3.57e-43
3.28 0.46 0.83 3.57e-43
3.33 0.46 0.83 3.57e-43
3.38 0.46 0.83 3.57e-43
3.43 0.46 0.83 3.57e-43
3.4 0.46 0.83 3.57e-43
3.45 0.46 0.83 3.57e-43
3.5 0.46 0.83 3.57e-43
3.55 0.46 0.83 3.57e-43
3.72 0.46 0.93 9.1477e-41
3.76 0.46 0.93 3.57e-43
3.79 0.46 0.66 9.1477e-41
3.84 0.46 0.9 9.1477e-41
3.89 0.46 0.92 9.1477e-41
3.93 0.46 0.92 3.57e-43
4.01 0.46 0.92 3.57e-43
4.05 0.46 0.92 3.57e-43
4.09 0.46 0.92 3.57e-43
4.14 0.46 0.92 3.57e-43
4.19 0.46 0.92 3.57e-43
4.23 0.46 0.92 3.57e-43
4.28 0.46 0.92 3.57e-43
4.32 0.46 0.92 3.57e-43
4.36 0.46 0.92 3.57e-43
4.4 0.46 0.92 3.57e-43
4.45 0.46 0.64 9.1477e-41
4.48 0.46 0.78 9.1477e-41
4.52 0.46 0.77 9.1477e-41
4.57 0.46 0.74 9.1477e-41
3.44 0.69 1 3.57e-43
3.48 0.69 0.97 9.1477e-41
3.51 0.69 0.95 9.1477e-41
3.56 0.69 0.95 9.1477e-41
3.6 0.69 0.94 9.1477e-41
3.64 0.69 0.95 9.1477e-41
3.68 0.69 0.95 9.1477e-41
3.72 0.69 0.94 9.1477e-41
3.76 0.69 0.94 9.1477e-41
3.81 0.69 0.94 9.1477e-41
3.85 0.69 0.94 9.1477e-41
3.89 0.69 0.92 9.1477e-41
3.93 0.69 0.95 9.1477e-41
3.97 0.69 0.94 9.1477e-41
4.01 0.69 0.96 9.1477e-41
4.05 0.69 0.96 3.57e-43
4.09 0.69 0.96 3.57e-43
4.14 0.69 0.96 3.57e-43
4.19 0.69 0.96 3.57e-43
4.23 0.69 0.96 3.57e-43
4.28 0.69 0.96 3.57e-43
4.32 0.69 0.96 3.57e-43
4.36 0.69 0.96 3.57e-43
4.4 0.69 0.96 3.57e-43
4.45 0.69 0.96 3.57e-43
4.48 0.69 0.96 3.57e-43
4.52 0.69 0.77 9.1477e-41
4.56 0.69 0.77 3.57e-43
3.06 0.92 0.81 9.1477e-41
3.14 0.92 0.81 3.57e-43
3.15 0.92 0.81 3.57e-43
3.17 0.92 0.68 9.1477e-41
3.27 0.92 1.02 9.1477e-41
3.32 0.92 1.02 9.1477e-41
3.36 0.92 1 9.1477e-41
3.39 0.92 0.99 9.1477e-41
3.44 0.92 1 9.1477e-41
3.48 0.92 1 9.1477e-41
3.52 0.92 0.99 9.1477e-41
3.56 0.92 1.01 9.1477e-41
3.6 0.92 0.99 9.1477e-41
3.64 0.92 0.99 9.1477e-41
3.69 0.92 0.99 9.1477e-41
3.73 0.92 1 9.1477e-41
3.77 0.92 1 9.1477e-41
3.81 0.92 1 9.1477e-41
3.85 0.92 0.98 9.1477e-41
3.89 0.92 0.99 9.1477e-41
3.93 0.92 0.99 9.1477e-41
3.97 0.92 1 9.1477e-41
4.01 0.92 0.99 9.1477e-41
4.05 0.92 0.98 9.1477e-41
4.09 0.92 0.98 9.1477e-41
4.18 0.92 0.97 9.1477e-41
4.22 0.92 0.97 3.57e-43
4.28 0.92 0.97 3.57e-43
4.32 0.92 0.97 3.57e-43
4.36 0.92 0.97 3.57e-43
4.4 0.92 0.62 9.1477e-41
4.43 0.92 0.93 9.1477e-41
4.47 0.92 0.92 9.1477e-41
4.51 0.92 0.92 3.57e-43
4.56 0.92 0.92 3.57e-43
3.06 1.15 0.84 3.57e-43
3.31 1.15 1.43 3.57e-43
3.35 1.15 1.43 3.57e-43
3.32 1.15 1.02 3.57e-43
3.42 1.15 1.02 3.57e-43
3.39 1.15 0.99 3.57e-43
3.5 1.15 1.42 3.57e-43
3.54 1.15 1.42 3.57e-43
3.52 1.15 0.99 3.57e-43
3.6 1.15 1.33 3.57e-43
3.64 1.15 1.33 3.57e-43
3.64 1.15 1.33 3.57e-43
3.69 1.15 1.33 3.57e-43
3.73 1.15 1.33 3.57e-43
3.77 1.15 1 9.1477e-41
3.81 1.15 0.97 9.1477e-41
3.85 1.15 0.97 3.57e-43
3.89 1.15 0.97 3.57e-43
3.93 1.15 0.97 3.57e-43
3.97 1.15 0.97 3.57e-43
4.01 1.15 0.97 3.57e-43
4.05 1.15 0.97 3.57e-43
4.09 1.15 0.97 3.57e-43
4.14 1.15 0.97 3.57e-43
4.18 1.15 0.97 3.57e-43
4.22 1.15 0.97 3.57e-43
4.28 1.15 0.97 3.57e-43
4.32 1.15 0.97 3.57e-43
4.36 1.15 0.97 3.57e-43
4.4 1.15 0.97 3.57e-43
4.43 1.15 0.97 3.57e-43
4.47 1.15 0.97 3.57e-43
4.51 1.15 0.94 9.1477e-41
4.55 1.15 0.93 9.1477e-41
4.6 1.15 0.93 3.57e-43
3.06 1.38 0.84 3.57e-43
3.31 1.38 1.43 3.57e-43
3.35 1.38 1.43 3.57e-43
3.32 1.38 1.02 3.57e-43
3.42 1.38 1.02 3.57e-43
3.39 1.38 0.99 3.57e-43
3.5 1.38 1.42 3.57e-43
3.54 1.38 1.42 3.57e-43
3.52 1.38 0.99 9.1477e-41
3.6 1.38 1.33 9.1477e-41
3.64 1.38 1.33 3.57e-43
3.64 1.38 1.33 3.57e-43
3.69 1.38 1.33 3.57e-43
3.73 1.38 1.33 3.57e-43
3.77 1.38 1.33 3.57e-43
3.81 1.38 1.33 3.57e-43
3.85 1.38 1.33 3.57e-43
3.89 1.38 0.99 9.1477e-41
3.94 1.38 1.32 9.1477e-41
3.98 1.38 1.32 3.57e-43
4.01 1.38 1.32 3.57e-43
4.05 1.38 1.32 3.57e-43
4.09 1.38 1.32 3.57e-43
4.14 1.38 1.32 3.57e-43
4.18 1.38 1.32 3.57e-43
4.22 1.38 1.32 3.57e-43
4.28 1.38 1.32 3.57e-43
4.32 1.38 0.63 9.1477e-41
4.34 1.38 0.63 3.57e-43
4.4 1.38 0.63 3.57e-43
4.43 1.38 0.63 3.57e-43
4.47 1.38 0.92 9.1477e-41
4.51 1.38 0.96 9.1477e-41
4.56 1.38 0.87 9.1477e-41
4.6 1.38 0.87 9.1477e-41
3.06 1.61 0.84 3.57e-43
3.31 1.61 1.43 3.57e-43
3.35 1.61 1.43 3.57e-43
3.32 1.61 1.02 9.1477e-41
3.42 1.61 1.02 3.57e-43
3.39 1.61 0.99 9.1477e-41
3.5 1.61 1.42 9.1477e-41
3.54 1.61 1.42 9.1477e-41
3.57 1.61 1.43 9.1477e-41
3.61 1.61 1.44 9.1477e-41
3.65 1.61 1.43 9.1477e-41
3.68 1.61 1.41 9.1477e-41
3.72 1.61 1.42 9.1477e-41
3.76 1.61 1.43 9.1477e-41
3.8 1.61 1.41 9.1477e-41
3.83 1.61 1.42 9.1477e-41
3.87 1.61 1.42 9.1477e-41
3.91 1.61 1.41 9.1477e-41
3.95 1.61 1.42 9.1477e-41
3.98 1.61 1.42 9.1477e-41
4.02 1.61 1.42 9.1477e-41
4.06 1.61 1.41 9.1477e-41
4.09 1.61 1.41 9.1477e-41
4.17 1.61 1.4 9.1477e-41
4.21 1.61 1.4 3.57e-43
4.28 1.61 1.4 3.57e-43
4.32 1.61 0.63 9.1477e-41
4.32 1.61 1.37 9.1477e-41
4.36 1.61 1.37 3.57e-43
4.43 1.61 0.93 9.1477e-41
4.46 1.61 1.05 9.1477e-41
4.51 1.61 0.89 9.1477e-41
4.56 1.61 0.91 9.1477e-41
4.6 1.61 0.9 9.1477e-41
3.06 1.84 0.84 3.57e-43
3.31 1.84 1.43 9.1477e-41
3.35 1.84 1.43 9.1477e-41
3.39 1.84 1.44 9.1477e-41
3.43 1.84 1.45 9.1477e-41
3.46 1.84 1.45 9.1477e-41
3.5 1.84 1.44 9.1477e-41
3.54 1.84 1.45 9.1477e-41
3.58 1.84 1.46 9.1477e-41
3.61 1.84 1.45 9.1477e-41
3.65 1.84 1.45 9.1477e-41
3.69 1.84 1.44 9.1477e-41
3.73 1.84 1.45 9.1477e-41
3.76 1.84 1.45 9.1477e-41
3.8 1.84 1.45 9.1477e-41
3.84 1.84 1.44 9.1477e-41
3.87 1.84 1.45 9.1477e-41
3.91 1.84 1.45 9.1477e-41
3.95 1.84 1.45 9.1477e-41
3.98 1.84 1.44 9.1477e-41
4.02 1.84 1.44 9.1477e-41
4.06 1.84 1.45 9.1477e-41
4.09 1.84 1.44 9.1477e-41
4.17 1.84 1.43 9.1477e-41
4.21 1.84 1.43 9.1477e-41
4.24 1.84 1.43 9.1477e-41
4.28 1.84 1.41 9.1477e-41
4.32 1.84 1.4 9.1477e-41
4.36 1.84 1.4 3.57e-43
4.43 1.84 0.93 9.1477e-41
4.47 1.84 0.97 9.1477e-41
4.51 1.84 0.9 9.1477e-41
4.55 1.84 0.93 9.1477e-41
4.6 1.84 0.92 9.1477e-41
3.06 2.07 0.84 3.57e-43
3.31 2.07 1.45 9.1477e-41
3.35 2.07 1.45 9.1477e-41
3.39 2.07 1.46 9.1477e-41
3.43 2.07 1.47 9.1477e-41
3.47 2.07 1.47 9.1477e-41
3.5 2.07 1.46 9.1477e-41
3.54 2.07 1.46 9.1477e-41
3.58 2.07 1.46 9.1477e-41
3.62 2.07 1.46 9.1477e-41
3.65 2.07 1.47 9.1477e-41
3.69 2.07 1.46 9.1477e-41
3.73 2.07 1.47 9.1477e-41
3.76 2.07 1.47 9.1477e-41
3.8 2.07 1.47 9.1477e-41
3.84 2.07 1.46 9.1477e-41
3.87 2.07 1.46 9.1477e-41
3.91 2.07 1.47 9.1477e-41
3.95 2.07 1.46 9.1477e-41
3.98 2.07 1.45 9.1477e-41
4.02 2.07 1.45 9.1477e-41
4.06 2.07 1.45 9.1477e-41
4.09 2.07 1.45 9.1477e-41
4.17 2.07 1.44 9.1477e-41
4.21 2.07 1.43 9.1477e-41
4.24 2.07 1.42 9.1477e-41
4.28 2.07 1.43 9.1477e-41
4.32 2.07 1.41 9.1477e-41
4.36 2.07 1.41 9.1477e-41
4.4 2.07 1.41 3.57e-43
4.47 2.07 1.41 3.57e-43
4.51 2.07 1.41 3.57e-43
4.55 2.07 1.41 3.57e-43
4.6 2.07 0.92 9.1477e-41
3.06 2.3 0.84 3.57e-43
3.31 2.3 1.44 9.1477e-41
3.35 2.3 1.43 9.1477e-41
3.39 2.3 1.45 9.1477e-41
3.43 2.3 1.45 9.1477e-41
3.47 2.3 1.46 9.1477e-41
3.5 2.3 1.48 9.1477e-41
3.54 2.3 1.46 9.1477e-41
3.58 2.3 1.46 9.1477e-41
3.62 2.3 1.46 9.1477e-41
3.65 2.3 1.46 9.1477e-41
3.69 2.3 1.45 9.1477e-41
3.73 2.3 1.46 9.1477e-41
3.76 2.3 1.46 9.1477e-41
3.8 2.3 1.46 9.1477e-41
3.84 2.3 1.46 9.1477e-41
3.87 2.3 1.46 9.1477e-41
3.91 2.3 1.46 9.1477e-41
3.95 2.3 1.45 9.1477e-41
3.98 2.3 1.45 9.1477e-41
4.02 2.3 1.45 9.1477e-41
4.06 2.3 1.45 9.1477e-41
4.09 2.3 1.45 9.1477e-41
4.17 2.3 1.44 9.1477e-41
4.21 2.3 1.44 9.1477e-41
4.24 2.3 1.44 9.1477e-41
4.28 2.3 1.42 9.1477e-41
4.32 2.3 1.42 3.57e-43
4.36 2.3 1.42 3.57e-43
4.4 2.3 1.42 3.57e-43
4.47 2.3 1.42 3.57e-43
4.51 2.3 0.9 9.1477e-41
4.55 2.3 0.97 9.1477e-41
4.59 2.3 0.95 9.1477e-41
3.06 2.53 1.44 3.57e-43
3.35 2.53 1.43 9.1477e-41
3.38 2.53 1.42 9.1477e-41
3.42 2.53 1.44 9.1477e-41
3.46 2.53 1.43 9.1477e-41
3.5 2.53 1.46 9.1477e-41
3.54 2.53 1.44 9.1477e-41
3.58 2.53 1.46 9.1477e-41
3.62 2.53 1.46 9.1477e-41
3.65 2.53 1.45 9.1477e-41
3.69 2.53 1.44 9.1477e-41
3.73 2.53 1.45 9.1477e-41
3.76 2.53 1.45 9.1477e-41
3.8 2.53 1.45 9.1477e-41
3.84 2.53 1.44 9.1477e-41
3.87 2.53 1.43 9.1477e-41
3.91 2.53 1.44 9.1477e-41
3.95 2.53 1.44 9.1477e-41
3.98 2.53 1.44 9.1477e-41
4.02 2.53 1.44 9.1477e-41
4.06 2.53 1.43 9.1477e-41
4.09 2.53 1.44 9.1477e-41
4.17 2.53 1.42 9.1477e-41
4.21 2.53 1.42 9.1477e-41
4.24 2.53 1.42 9.1477e-41
4.28 2.53 1.41 9.1477e-41
4.32 2.53 1.41 3.57e-43
4.36 2.53 1.41 3.57e-43
4.4 2.53 1.41 3.57e-43
4.47 2.53 1.41 3.57e-43
4.51 2.53 0.9 9.1477e-41
4.55 2.53 0.9 3.57e-43
4.59 2.53 0.95 9.1477e-41
3.06 2.76 1.44 3.57e-43
3.34 2.76 1.41 9.1477e-41
3.38 2.76 1.41 9.1477e-41
3.42 2.76 1.42 9.1477e-41
3.46 2.76 1.43 9.1477e-41
3.5 2.76 1.43 9.1477e-41
3.54 2.76 1.42 9.1477e-41
3.57 2.76 1.44 9.1477e-41
3.61 2.76 1.43 9.1477e-41
3.65 2.76 1.43 9.1477e-41
3.69 2.76 1.42 9.1477e-41
3.72 2.76 1.42 9.1477e-41
3.76 2.76 1.44 9.1477e-41
3.8 2.76 1.45 9.1477e-41
3.84 2.76 1.44 9.1477e-41
3.87 2.76 1.43 9.1477e-41
3.91 2.76 1.42 9.1477e-41
3.95 2.76 1.43 9.1477e-41
3.98 2.76 1.43 9.1477e-41
4.02 2.76 1.41 9.1477e-41
4.06 2.76 1.42 9.1477e-41
4.09 2.76 1.42 9.1477e-41
4.17 2.76 1.42 9.1477e-41
4.21 2.76 1.4 9.1477e-41
4.24 2.76 1.4 9.1477e-41
4.28 2.76 1.39 9.1477e-41
4.32 2.76 1.39 3.57e-43
4.36 2.76 1.39 3.57e-43
4.4 2.76 1.39 3.57e-43
4.47 2.76 1.39 3.57e-43
4.51 2.76 1.39 3.57e-43
4.55 2.76 1.39 3.57e-43
4.59 2.76 0.95 9.1477e-41
3.06 2.99 1.42 3.57e-43
3.45 2.99 1.39 9.1477e-41
3.5 2.99 1.41 9.1477e-41
3.53 2.99 1.39 9.1477e-41
3.57 2.99 1.4 9.1477e-41
3.61 2.99 1.39 9.1477e-41
3.65 2.99 1.4 9.1477e-41
3.68 2.99 1.39 9.1477e-41
3.72 2.99 1.39 9.1477e-41
3.76 2.99 1.39 9.1477e-41
3.8 2.99 1.4 9.1477e-41
3.83 2.99 1.39 9.1477e-41
3.87 2.99 1.39 9.1477e-41
3.91 2.99 1.39 9.1477e-41
3.95 2.99 1.39 9.1477e-41
3.98 2.99 1.39 9.1477e-41
4.02 2.99 1.39 9.1477e-41
4.06 2.99 1.39 9.1477e-41
4.09 2.99 1.39 9.1477e-41
4.17 2.99 1.37 9.1477e-41
4.21 2.99 1.37 9.1477e-41
4.25 2.99 1.37 3.57e-43
4.28 2.99 1.37 3.57e-43
4.32 2.99 1.37 3.57e-43
4.36 2.99 1.37 3.57e-43
4.4 2.99 1.37 3.57e-43
4.47 2.99 1.37 3.57e-43
4.51 2.99 1.37 3.57e-43
4.55 2.99 1.37 3.57e-43
4.59 2.99 0.95 9.1477e-41
3.87 3.22 1.06 3.57e-43
3.89 3.22 1.06 3.57e-43
3.95 3.22 1.39 9.1477e-41
3.97 3.22 1.39 3.57e-43
4.02 3.22 1.39 3.57e-43
4.06 3.22 1.39 3.57e-43
4.09 3.22 1.39 3.57e-43
4.13 3.22 1.39 3.57e-43
4.17 3.22 1.39 3.57e-43
4.21 3.22 1.39 3.57e-43
4.25 3.22 1.39 3.57e-43
4.28 3.22 1.39 3.57e-43
4.32 3.22 1.39 3.57e-43
4.36 3.22 1.39 3.57e-43
4.4 3.22 1.39 3.57e-43
4.47 3.22 1.39 3.57e-43
4.51 3.22 0.9 9.1477e-41
4.55 3.22 0.94 9.1477e-41
4.6 3.22 0.86 9.1477e-41
3.06 3.45 0.97 3.57e-43
3.15 3.45 0.97 3.57e-43
3.31 3.45 0.97 3.57e-43
3.34 3.45 0.97 3.57e-43
3.38 3.45 0.97 3.57e-43
3.42 3.45 0.97 3.57e-43
3.45 3.45 1.39 9.1477e-41
3.44 3.45 0.99 9.1477e-41
3.48 3.45 1.01 9.1477e-41
3.53 3.45 1.04 9.1477e-41
3.57 3.45 1.04 9.1477e-41
3.61 3.45 1.06 9.1477e-41
3.65 3.45 1.07 9.1477e-41
3.69 3.45 1.07 9.1477e-41
3.73 3.45 1.06 9.1477e-41
3.77 3.45 1.06 9.1477e-41
3.81 3.45 1.06 3.57e-43
3.87 3.45 1.06 3.57e-43
3.89 3.45 1.06 3.57e-43
3.95 3.45 1.06 3.57e-43
3.97 3.45 1.06 3.57e-43
4.02 3.45 1.06 3.57e-43
4.06 3.45 1.06 3.57e-43
4.09 3.45 1.39 9.1477e-41
4.18 3.45 0.99 9.1477e-41
4.22 3.45 0.97 9.1477e-41
4.26 3.45 0.97 3.57e-43
4.28 3.45 0.97 3.57e-43
4.32 3.45 0.97 3.57e-43
4.36 3.45 0.97 3.57e-43
4.4 3.45 1.37 9.1477e-41
4.48 3.45 0.81 9.1477e-41
4.52 3.45 0.81 3.57e-43
4.55 3.45 0.94 9.1477e-41
