# .PCD v.7 - Point Cloud Data file format
VERSION .7
FIELDS x y z rgb
SIZE 4 4 4 4
TYPE F F F F
WIDTH 1983
HEIGHT 1
POINTS 1983
DATA ascii
6.13 1.52 0.94 3.57e-43
6.18 1.52 0.94 3.57e-43
6.25 1.52 0.94 3.57e-43
6.28 1.52 0.94 3.57e-43
6.29 1.52 0.94 3.57e-43
4.79 1.54 1.02 3.57e-43
4.85 1.54 0.9 3.57e-43
4.89 1.54 0.9 3.57e-43
4.94 1.54 0.9 3.57e-43
4.98 1.54 0.9 3.57e-43
5.01 1.54 0.9 3.57e-43
5.05 1.54 0.9 3.57e-43
5.1 1.54 0.9 3.57e-43
5.14 1.54 0.9 3.57e-43
5.18 1.54 0.9 3.57e-43
5.23 1.54 0.9 3.57e-43
5.28 1.54 0.9 3.57e-43
5.32 1.54 0.9 3.57e-43
5.37 1.54 0.9 3.57e-43
5.42 1.54 0.9 3.57e-43
5.46 1.54 0.9 3.57e-43
5.5 1.54 0.97 9.1477e-41
5.56 1.54 0.95 9.1477e-41
5.6 1.54 0.95 9.1477e-41
5.66 1.54 0.93 9.1477e-41
5.7 1.54 0.95 9.1477e-41
5.74 1.54 0.95 3.57e-43
5.78 1.54 0.95 3.57e-43
5.83 1.54 0.95 3.57e-43
5.88 1.54 0.95 3.57e-43
5.9 1.54 0.95 3.57e-43
5.95 1.54 0.95 3.57e-43
6 1.54 0.95 3.57e-43
6.05 1.54 0.95 3.57e-43
6.13 1.54 0.95 3.57e-43
6.18 1.54 0.95 3.57e-43
6.25 1.54 0.95 3.57e-43
6.28 1.54 0.95 3.57e-43
6.29 1.54 0.95 3.57e-43
4.78 1.56 0.49 9.1477e-41
4.75 1.56 1.02 9.1477e-41
4.79 1.56 1.02 9.1477e-41
4.85 1.56 0.9 9.1477e-41
4.89 1.56 0.9 3.57e-43
4.94 1.56 0.9 3.57e-43
4.98 1.56 0.9 3.57e-43
5.01 1.56 0.9 3.57e-43
5.05 1.56 0.9 3.57e-43
5.1 1.56 0.9 3.57e-43
5.14 1.56 0.9 3.57e-43
5.18 1.56 0.9 3.57e-43
5.23 1.56 0.9 3.57e-43
5.28 1.56 0.9 3.57e-43
5.32 1.56 0.9 3.57e-43
5.37 1.56 0.9 3.57e-43
5.42 1.56 0.9 3.57e-43
5.46 1.56 0.9 3.57e-43
5.5 1.56 0.9 3.57e-43
5.56 1.56 0.9 3.57e-43
5.6 1.56 0.9 3.57e-43
5.66 1.56 0.9 3.57e-43
5.69 1.56 0.9 3.57e-43
5.74 1.56 0.9 3.57e-43
5.78 1.56 0.9 3.57e-43
5.83 1.56 0.9 3.57e-43
5.88 1.56 0.9 3.57e-43
5.9 1.56 0.9 3.57e-43
5.95 1.56 0.9 3.57e-43
6 1.56 0.9 3.57e-43
6.05 1.56 0.9 3.57e-43
6.13 1.56 0.9 3.57e-43
6.18 1.56 0.9 3.57e-43
6.25 1.56 0.9 3.57e-43
6.28 1.56 0.9 3.57e-43
6.29 1.56 0.9 3.57e-43
6.89 1.56 0.9 3.57e-43
4.78 1.58 0.49 9.1477e-41
4.75 1.58 1.02 9.1477e-41
4.79 1.58 1.02 9.1477e-41
4.85 1.58 0.91 9.1477e-41
4.9 1.58 0.92 9.1477e-41
4.92 1.58 0.92 3.57e-43
4.98 1.58 0.92 3.57e-43
5.01 1.58 0.92 3.57e-43
5.05 1.58 0.92 3.57e-43
5.1 1.58 0.92 3.57e-43
5.14 1.58 0.92 3.57e-43
5.18 1.58 0.92 3.57e-43
5.23 1.58 0.92 3.57e-43
5.28 1.58 0.92 3.57e-43
5.32 1.58 0.92 3.57e-43
5.37 1.58 0.92 3.57e-43
5.42 1.58 0.92 3.57e-43
5.46 1.58 0.92 3.57e-43
5.5 1.58 0.92 3.57e-43
5.56 1.58 0.92 3.57e-43
5.6 1.58 0.92 3.57e-43
5.66 1.58 0.92 3.57e-43
5.69 1.58 0.92 3.57e-43
5.74 1.58 0.92 3.57e-43
5.78 1.58 0.92 3.57e-43
5.83 1.58 0.92 3.57e-43
5.88 1.58 0.92 3.57e-43
5.9 1.58 0.92 3.57e-43
5.95 1.58 0.92 3.57e-43
6 1.58 0.92 3.57e-43
6.05 1.58 0.92 3.57e-43
6.13 1.58 0.92 3.57e-43
6.18 1.58 0.92 3.57e-43
6.25 1.58 0.92 3.57e-43
6.28 1.58 0.92 3.57e-43
6.29 1.58 0.92 3.57e-43
6.89 1.58 0.92 3.57e-43
6.95 1.58 0.92 3.57e-43
4.71 1.6 0.98 9.1477e-41
4.75 1.6 0.98 3.57e-43
4.79 1.6 1.02 9.1477e-41
4.86 1.6 0.86 9.1477e-41
4.9 1.6 0.88 9.1477e-41
4.94 1.6 0.92 9.1477e-41
4.96 1.6 1.04 9.1477e-41
4.98 1.6 1.04 3.57e-43
5.05 1.6 1.04 3.57e-43
5.1 1.6 1.04 3.57e-43
5.14 1.6 1.04 3.57e-43
5.18 1.6 1.04 3.57e-43
5.23 1.6 1.04 3.57e-43
5.28 1.6 1.04 3.57e-43
5.32 1.6 1.04 3.57e-43
5.37 1.6 1.04 3.57e-43
5.42 1.6 1.04 3.57e-43
5.46 1.6 0.98 9.1477e-41
5.57 1.6 0.98 3.57e-43
5.56 1.6 0.95 9.1477e-41
5.63 1.6 0.87 9.1477e-41
5.67 1.6 0.89 9.1477e-41
5.72 1.6 0.89 3.57e-43
5.74 1.6 0.89 3.57e-43
5.78 1.6 0.89 3.57e-43
5.83 1.6 0.89 3.57e-43
5.88 1.6 0.89 3.57e-43
5.9 1.6 0.89 3.57e-43
5.95 1.6 0.89 3.57e-43
6 1.6 0.89 3.57e-43
6.05 1.6 0.89 3.57e-43
6.13 1.6 0.89 3.57e-43
6.18 1.6 0.89 3.57e-43
6.25 1.6 0.89 3.57e-43
6.28 1.6 0.89 3.57e-43
6.29 1.6 0.89 3.57e-43
6.89 1.6 0.89 3.57e-43
6.48 1.6 0.89 3.57e-43
4.79 1.62 0.74 3.57e-43
4.86 1.62 0.88 9.1477e-41
4.9 1.62 0.89 9.1477e-41
4.96 1.62 0.78 9.1477e-41
5.17 1.62 0.78 3.57e-43
5.05 1.62 0.78 3.57e-43
5.1 1.62 0.78 3.57e-43
5.14 1.62 0.78 3.57e-43
5.18 1.62 0.78 3.57e-43
5.23 1.62 0.78 3.57e-43
5.28 1.62 0.78 3.57e-43
5.32 1.62 0.78 3.57e-43
5.37 1.62 0.78 3.57e-43
5.42 1.62 0.78 3.57e-43
5.46 1.62 0.98 9.1477e-41
5.6 1.62 0.98 3.57e-43
5.56 1.62 0.98 3.57e-43
5.63 1.62 0.98 3.57e-43
5.67 1.62 0.89 9.1477e-41
5.78 1.62 0.69 9.1477e-41
5.84 1.62 0.69 3.57e-43
5.78 1.62 0.69 3.57e-43
5.83 1.62 0.69 3.57e-43
5.88 1.62 0.69 3.57e-43
5.9 1.62 0.69 3.57e-43
5.95 1.62 0.69 3.57e-43
6 1.62 1.04 9.1477e-41
6.29 1.62 0.46 9.1477e-41
6.33 1.62 0.46 3.57e-43
6.18 1.62 0.46 3.57e-43
6.25 1.62 0.46 3.57e-43
6.28 1.62 0.46 3.57e-43
6.29 1.62 0.46 3.57e-43
6.89 1.62 0.46 3.57e-43
6.48 1.62 0.46 3.57e-43
4.79 1.64 0.74 3.57e-43
4.86 1.64 0.88 9.1477e-41
4.9 1.64 0.9 9.1477e-41
4.96 1.64 0.79 9.1477e-41
5.17 1.64 0.79 3.57e-43
5.05 1.64 0.79 3.57e-43
5.1 1.64 0.79 3.57e-43
5.14 1.64 0.79 3.57e-43
5.18 1.64 0.79 3.57e-43
5.23 1.64 0.79 3.57e-43
5.28 1.64 0.79 3.57e-43
5.32 1.64 0.79 3.57e-43
5.37 1.64 0.79 3.57e-43
5.42 1.64 0.79 3.57e-43
5.46 1.64 0.98 9.1477e-41
5.66 1.64 0.46 9.1477e-41
5.69 1.64 0.46 3.57e-43
5.63 1.64 0.46 3.57e-43
5.67 1.64 0.89 9.1477e-41
5.78 1.64 0.7 9.1477e-41
5.81 1.64 0.7 3.57e-43
5.78 1.64 0.7 3.57e-43
5.83 1.64 0.7 3.57e-43
5.88 1.64 0.7 3.57e-43
5.9 1.64 0.7 3.57e-43
5.95 1.64 0.7 3.57e-43
6 1.64 0.7 3.57e-43
6.29 1.64 0.46 9.1477e-41
6.35 1.64 0.46 3.57e-43
6.18 1.64 0.46 3.57e-43
6.25 1.64 0.46 3.57e-43
6.28 1.64 0.46 3.57e-43
6.29 1.64 0.46 3.57e-43
6.56 1.64 0.84 9.1477e-41
6.55 1.64 0.95 9.1477e-41
4.79 1.66 0.74 3.57e-43
4.86 1.66 0.88 9.1477e-41
4.9 1.66 0.9 9.1477e-41
4.96 1.66 0.78 9.1477e-41
5.16 1.66 0.78 3.57e-43
5.05 1.66 0.78 3.57e-43
5.1 1.66 0.78 3.57e-43
5.14 1.66 0.78 3.57e-43
5.18 1.66 0.78 3.57e-43
5.23 1.66 0.78 3.57e-43
5.28 1.66 0.78 3.57e-43
5.32 1.66 0.78 3.57e-43
5.37 1.66 0.78 3.57e-43
5.42 1.66 0.78 3.57e-43
5.46 1.66 0.78 3.57e-43
5.66 1.66 0.46 9.1477e-41
5.65 1.66 0.46 3.57e-43
5.63 1.66 0.46 3.57e-43
5.67 1.66 0.89 9.1477e-41
5.78 1.66 0.71 9.1477e-41
5.81 1.66 0.71 3.57e-43
5.78 1.66 0.71 3.57e-43
5.83 1.66 0.71 3.57e-43
5.88 1.66 0.98 9.1477e-41
5.88 1.66 1.09 9.1477e-41
5.92 1.66 1.1 9.1477e-41
5.97 1.66 1.1 3.57e-43
6.29 1.66 1.1 3.57e-43
6.35 1.66 1.1 3.57e-43
6.18 1.66 1.1 3.57e-43
6.25 1.66 1.1 3.57e-43
6.28 1.66 1.1 3.57e-43
6.29 1.66 1.1 3.57e-43
4.79 1.68 0.74 3.57e-43
4.86 1.68 0.88 9.1477e-41
4.9 1.68 0.89 9.1477e-41
4.96 1.68 0.79 9.1477e-41
5.14 1.68 0.79 3.57e-43
5.05 1.68 0.79 3.57e-43
5.1 1.68 0.79 3.57e-43
5.14 1.68 0.79 3.57e-43
5.18 1.68 0.79 3.57e-43
5.23 1.68 0.79 3.57e-43
5.28 1.68 0.79 3.57e-43
5.32 1.68 0.79 3.57e-43
5.37 1.68 0.79 3.57e-43
5.42 1.68 0.79 3.57e-43
5.46 1.68 0.98 9.1477e-41
5.61 1.68 0.61 9.1477e-41
5.46 1.68 1.26 9.1477e-41
5.49 1.68 1.26 3.57e-43
5.67 1.68 1.26 3.57e-43
5.78 1.68 0.71 9.1477e-41
5.81 1.68 0.71 3.57e-43
5.78 1.68 0.71 3.57e-43
5.83 1.68 0.71 3.57e-43
5.88 1.68 0.98 9.1477e-41
5.84 1.68 1.21 9.1477e-41
5.9 1.68 1.17 9.1477e-41
5.96 1.68 1.17 3.57e-43
6.29 1.68 1.17 3.57e-43
6.35 1.68 1.17 3.57e-43
6.18 1.68 1.17 3.57e-43
6.25 1.68 1.17 3.57e-43
6.28 1.68 0.96 9.1477e-41
6.22 1.68 0.96 3.57e-43
4.79 1.7 0.74 3.57e-43
4.86 1.7 0.88 9.1477e-41
4.9 1.7 0.9 9.1477e-41
4.96 1.7 0.79 9.1477e-41
5.07 1.7 0.45 9.1477e-41
5.1 1.7 0.55 9.1477e-41
5.16 1.7 0.55 3.57e-43
5.1 1.7 0.55 3.57e-43
5.14 1.7 0.55 3.57e-43
5.18 1.7 0.55 3.57e-43
5.23 1.7 0.55 3.57e-43
5.28 1.7 0.99 9.1477e-41
5.45 1.7 0.99 3.57e-43
5.37 1.7 0.99 3.57e-43
5.42 1.7 0.99 3.57e-43
5.46 1.7 0.99 3.57e-43
5.61 1.7 0.61 9.1477e-41
5.45 1.7 1.31 9.1477e-41
5.48 1.7 1.31 3.57e-43
5.67 1.7 1.31 3.57e-43
5.78 1.7 1.31 3.57e-43
5.81 1.7 1.31 3.57e-43
5.78 1.7 1.31 3.57e-43
5.83 1.7 1.31 3.57e-43
5.88 1.7 1.31 3.57e-43
5.84 1.7 1.31 3.57e-43
5.9 1.7 1.17 9.1477e-41
5.96 1.7 1.17 3.57e-43
6.29 1.7 1.17 3.57e-43
6.35 1.7 1.17 3.57e-43
6.18 1.7 1.17 3.57e-43
6.25 1.7 1.17 3.57e-43
6.28 1.7 1.17 3.57e-43
6.22 1.7 1.17 3.57e-43
4.79 1.72 0.74 3.57e-43
4.86 1.72 0.88 9.1477e-41
4.9 1.72 0.89 9.1477e-41
4.96 1.72 0.77 9.1477e-41
5.05 1.72 0.55 9.1477e-41
5.1 1.72 0.56 9.1477e-41
5.15 1.72 0.56 3.57e-43
5.1 1.72 0.56 3.57e-43
5.14 1.72 0.56 3.57e-43
5.18 1.72 1 9.1477e-41
5.15 1.72 1.3 9.1477e-41
5.19 1.72 1.31 9.1477e-41
5.44 1.72 0.53 9.1477e-41
5.48 1.72 0.53 3.57e-43
5.42 1.72 0.53 3.57e-43
5.46 1.72 0.53 3.57e-43
5.61 1.72 0.62 9.1477e-41
5.64 1.72 0.62 3.57e-43
5.48 1.72 0.62 3.57e-43
5.67 1.72 0.62 3.57e-43
5.78 1.72 0.62 3.57e-43
5.81 1.72 0.62 3.57e-43
5.78 1.72 0.62 3.57e-43
5.83 1.72 0.62 3.57e-43
5.88 1.72 0.62 3.57e-43
5.84 1.72 0.62 3.57e-43
5.9 1.72 0.62 3.57e-43
5.96 1.72 0.62 3.57e-43
6.29 1.72 0.62 3.57e-43
6.35 1.72 0.62 3.57e-43
6.18 1.72 0.62 3.57e-43
6.25 1.72 0.62 3.57e-43
6.28 1.72 0.62 3.57e-43
6.22 1.72 0.62 3.57e-43
4.79 1.74 0.74 3.57e-43
4.86 1.74 0.89 9.1477e-41
4.9 1.74 0.91 9.1477e-41
4.96 1.74 0.81 9.1477e-41
5.05 1.74 0.56 9.1477e-41
5.09 1.74 0.57 9.1477e-41
5.15 1.74 0.57 3.57e-43
5.1 1.74 0.57 3.57e-43
5.14 1.74 0.57 3.57e-43
5.18 1.74 0.57 3.57e-43
5.15 1.74 1.3 9.1477e-41
5.4 1.74 0.49 9.1477e-41
5.44 1.74 0.52 9.1477e-41
5.48 1.74 0.52 3.57e-43
5.42 1.74 0.52 3.57e-43
5.46 1.74 0.52 3.57e-43
5.61 1.74 0.52 3.57e-43
5.64 1.74 0.52 3.57e-43
5.48 1.74 0.52 3.57e-43
5.67 1.74 0.52 3.57e-43
5.78 1.74 0.52 3.57e-43
5.81 1.74 0.52 3.57e-43
5.78 1.74 0.52 3.57e-43
5.83 1.74 0.52 3.57e-43
5.88 1.74 0.52 3.57e-43
5.84 1.74 0.52 3.57e-43
5.9 1.74 0.52 3.57e-43
5.96 1.74 0.52 3.57e-43
6.29 1.74 0.52 3.57e-43
6.35 1.74 0.52 3.57e-43
6.18 1.74 0.52 3.57e-43
6.25 1.74 0.52 3.57e-43
6.28 1.74 0.52 3.57e-43
6.22 1.74 0.52 3.57e-43
4.79 1.76 0.74 3.57e-43
4.86 1.76 0.88 9.1477e-41
4.9 1.76 0.91 9.1477e-41
4.95 1.76 0.83 9.1477e-41
5.05 1.76 0.56 9.1477e-41
5.1 1.76 0.56 9.1477e-41
5.15 1.76 0.56 3.57e-43
5.1 1.76 0.56 3.57e-43
5.14 1.76 0.56 3.57e-43
5.18 1.76 0.56 3.57e-43
5.15 1.76 0.56 3.57e-43
5.4 1.76 0.56 3.57e-43
5.44 1.76 0.56 3.57e-43
5.48 1.76 0.56 3.57e-43
5.42 1.76 0.56 3.57e-43
5.46 1.76 0.56 3.57e-43
5.61 1.76 0.56 3.57e-43
5.64 1.76 0.56 3.57e-43
5.48 1.76 0.56 3.57e-43
5.67 1.76 0.56 3.57e-43
5.78 1.76 0.56 3.57e-43
5.81 1.76 0.56 3.57e-43
5.78 1.76 0.56 3.57e-43
5.83 1.76 0.56 3.57e-43
5.88 1.76 0.56 3.57e-43
5.84 1.76 0.56 3.57e-43
5.9 1.76 0.56 3.57e-43
5.96 1.76 0.56 3.57e-43
6.29 1.76 0.56 3.57e-43
6.35 1.76 0.56 3.57e-43
6.18 1.76 0.56 3.57e-43
6.25 1.76 0.56 3.57e-43
6.28 1.76 0.56 3.57e-43
6.22 1.76 0.56 3.57e-43
4.79 1.78 0.74 3.57e-43
4.86 1.78 0.89 9.1477e-41
4.9 1.78 0.9 9.1477e-41
4.95 1.78 0.85 9.1477e-41
5.05 1.78 0.57 9.1477e-41
5.09 1.78 0.57 9.1477e-41
5.15 1.78 0.57 3.57e-43
5.1 1.78 0.57 3.57e-43
5.14 1.78 1 9.1477e-41
5.1 1.78 1.35 9.1477e-41
5.14 1.78 1.36 9.1477e-41
5.18 1.78 1.36 3.57e-43
5.44 1.78 1.36 3.57e-43
5.48 1.78 1.36 3.57e-43
5.42 1.78 1.36 3.57e-43
5.46 1.78 1.36 3.57e-43
5.61 1.78 1.36 3.57e-43
5.64 1.78 1.36 3.57e-43
5.48 1.78 1.36 3.57e-43
5.67 1.78 1.36 3.57e-43
5.78 1.78 1.36 3.57e-43
5.81 1.78 1.36 3.57e-43
5.78 1.78 1.36 3.57e-43
5.83 1.78 1.36 3.57e-43
5.88 1.78 1.36 3.57e-43
5.84 1.78 1.36 3.57e-43
5.9 1.78 1.36 3.57e-43
5.96 1.78 1.36 3.57e-43
6.29 1.78 1.36 3.57e-43
6.35 1.78 1.36 3.57e-43
6.18 1.78 1.36 3.57e-43
6.25 1.78 0.91 9.1477e-41
6.1 1.78 0.91 3.57e-43
6.22 1.78 0.91 3.57e-43
4.79 1.8 0.74 3.57e-43
4.86 1.8 0.89 9.1477e-41
4.9 1.8 0.92 9.1477e-41
4.97 1.8 0.75 9.1477e-41
5.05 1.8 0.56 9.1477e-41
5.1 1.8 0.54 9.1477e-41
5.15 1.8 0.52 9.1477e-41
5.21 1.8 0.52 3.57e-43
5.14 1.8 1 9.1477e-41
5.1 1.8 1.35 9.1477e-41
5.14 1.8 1.37 9.1477e-41
5.18 1.8 1.37 9.1477e-41
5.22 1.8 1.37 3.57e-43
5.48 1.8 1.37 3.57e-43
5.42 1.8 1.37 3.57e-43
5.46 1.8 1.37 3.57e-43
5.61 1.8 1.37 3.57e-43
5.64 1.8 1.37 3.57e-43
5.48 1.8 1.37 3.57e-43
5.67 1.8 1.37 3.57e-43
5.78 1.8 1.37 3.57e-43
5.81 1.8 1.37 3.57e-43
5.78 1.8 1.37 3.57e-43
5.83 1.8 1.37 3.57e-43
5.88 1.8 1.37 3.57e-43
5.84 1.8 1.37 3.57e-43
5.9 1.8 1.37 3.57e-43
5.96 1.8 1.37 3.57e-43
6.29 1.8 1.37 3.57e-43
6.35 1.8 1.37 3.57e-43
6.18 1.8 1.37 3.57e-43
6.25 1.8 1.37 3.57e-43
6.1 1.8 1.36 9.1477e-41
6.15 1.8 1.34 9.1477e-41
6.2 1.8 1.34 9.1477e-41
4.79 1.82 0.74 3.57e-43
4.86 1.82 0.89 9.1477e-41
4.9 1.82 0.92 9.1477e-41
4.97 1.82 0.76 9.1477e-41
5.05 1.82 0.55 9.1477e-41
5.1 1.82 0.54 9.1477e-41
5.15 1.82 0.52 9.1477e-41
5.21 1.82 0.52 3.57e-43
5.14 1.82 0.52 3.57e-43
5.1 1.82 1.35 9.1477e-41
5.14 1.82 1.37 9.1477e-41
5.18 1.82 1.38 9.1477e-41
5.21 1.82 1.4 9.1477e-41
5.26 1.82 1.4 3.57e-43
5.42 1.82 1.4 3.57e-43
5.46 1.82 1.4 3.57e-43
5.61 1.82 1.4 3.57e-43
5.64 1.82 1.4 3.57e-43
5.48 1.82 1.4 3.57e-43
5.67 1.82 1.4 3.57e-43
5.78 1.82 1.4 3.57e-43
5.81 1.82 1.4 3.57e-43
5.78 1.82 1.4 3.57e-43
5.83 1.82 1.4 3.57e-43
5.88 1.82 1.4 3.57e-43
5.84 1.82 1.4 3.57e-43
5.9 1.82 1.4 3.57e-43
5.96 1.82 1.4 3.57e-43
6.29 1.82 1.4 3.57e-43
6.35 1.82 1.4 3.57e-43
6.18 1.82 1.4 3.57e-43
6.25 1.82 1.4 3.57e-43
6.1 1.82 1.4 3.57e-43
6.15 1.82 1.34 9.1477e-41
6.2 1.82 1.35 9.1477e-41
4.79 1.84 0.74 3.57e-43
4.85 1.84 0.9 9.1477e-41
4.9 1.84 0.92 9.1477e-41
4.96 1.84 0.8 9.1477e-41
5.05 1.84 0.54 9.1477e-41
5.1 1.84 0.52 9.1477e-41
5.15 1.84 0.52 9.1477e-41
5.2 1.84 0.52 3.57e-43
5.14 1.84 0.52 3.57e-43
5.1 1.84 1.35 9.1477e-41
5.14 1.84 1.38 9.1477e-41
5.17 1.84 1.39 9.1477e-41
5.21 1.84 1.4 9.1477e-41
5.25 1.84 1.4 3.57e-43
5.42 1.84 1.4 3.57e-43
5.46 1.84 1.4 3.57e-43
5.61 1.84 1.4 3.57e-43
5.64 1.84 1.4 3.57e-43
5.48 1.84 1.4 3.57e-43
5.67 1.84 1.4 3.57e-43
5.78 1.84 1.4 3.57e-43
5.81 1.84 1.4 3.57e-43
5.78 1.84 1.4 3.57e-43
5.83 1.84 1.4 3.57e-43
5.88 1.84 1.4 3.57e-43
5.84 1.84 1.4 3.57e-43
5.9 1.84 1.4 3.57e-43
5.96 1.84 1.4 3.57e-43
6.29 1.84 1.4 3.57e-43
6.35 1.84 1.4 3.57e-43
6.18 1.84 1.4 3.57e-43
6.25 1.84 1.4 3.57e-43
6.1 1.84 1.4 3.57e-43
6.15 1.84 1.34 9.1477e-41
6.19 1.84 1.37 9.1477e-41
4.79 1.86 0.74 3.57e-43
4.85 1.86 0.9 9.1477e-41
4.9 1.86 0.92 9.1477e-41
4.95 1.86 0.84 9.1477e-41
5.05 1.86 0.53 9.1477e-41
5.11 1.86 0.51 9.1477e-41
5.16 1.86 0.5 9.1477e-41
5.21 1.86 0.49 9.1477e-41
5.26 1.86 0.49 3.57e-43
5.1 1.86 1.35 9.1477e-41
5.13 1.86 1.39 9.1477e-41
5.17 1.86 1.39 9.1477e-41
5.21 1.86 1.41 9.1477e-41
5.25 1.86 1.42 9.1477e-41
5.29 1.86 1.42 3.57e-43
5.46 1.86 1.42 3.57e-43
5.61 1.86 1.42 3.57e-43
5.64 1.86 1.42 3.57e-43
5.48 1.86 1.42 3.57e-43
5.67 1.86 1.42 3.57e-43
5.78 1.86 1.42 3.57e-43
5.81 1.86 1.42 3.57e-43
5.78 1.86 1.42 3.57e-43
5.83 1.86 1.42 3.57e-43
5.88 1.86 1.42 3.57e-43
5.84 1.86 1.42 3.57e-43
5.9 1.86 1.42 3.57e-43
5.96 1.86 1.42 3.57e-43
6.29 1.86 1.42 3.57e-43
6.35 1.86 1.42 3.57e-43
6.18 1.86 1.42 3.57e-43
6.25 1.86 1.42 3.57e-43
6.1 1.86 1.42 3.57e-43
6.15 1.86 1.34 9.1477e-41
6.19 1.86 1.37 9.1477e-41
4.79 1.88 0.74 3.57e-43
4.85 1.88 0.9 9.1477e-41
4.9 1.88 0.92 9.1477e-41
4.95 1.88 0.83 9.1477e-41
5.06 1.88 0.52 9.1477e-41
5.11 1.88 0.49 9.1477e-41
5.16 1.88 0.49 9.1477e-41
5.21 1.88 0.49 9.1477e-41
5.27 1.88 0.49 3.57e-43
5.1 1.88 1.35 9.1477e-41
5.13 1.88 1.39 9.1477e-41
5.17 1.88 1.39 9.1477e-41
5.21 1.88 1.41 9.1477e-41
5.25 1.88 1.42 9.1477e-41
5.29 1.88 1.42 9.1477e-41
5.34 1.88 1.4 9.1477e-41
5.37 1.88 1.4 3.57e-43
5.64 1.88 1.4 3.57e-43
5.48 1.88 1.4 3.57e-43
5.67 1.88 1.4 3.57e-43
5.78 1.88 1.4 3.57e-43
5.81 1.88 1.4 3.57e-43
5.78 1.88 1.4 3.57e-43
5.83 1.88 1.4 3.57e-43
5.88 1.88 1.4 3.57e-43
5.84 1.88 1.4 3.57e-43
5.9 1.88 1.4 3.57e-43
5.96 1.88 1.4 3.57e-43
6.29 1.88 1.4 3.57e-43
6.35 1.88 1.4 3.57e-43
6.18 1.88 1.4 3.57e-43
6.25 1.88 1.4 3.57e-43
6.1 1.88 1.4 3.57e-43
6.15 1.88 1.34 9.1477e-41
6.18 1.88 1.39 9.1477e-41
4.79 1.9 0.74 3.57e-43
4.85 1.9 0.91 9.1477e-41
4.89 1.9 0.94 9.1477e-41
4.96 1.9 0.82 9.1477e-41
5.06 1.9 0.5 9.1477e-41
5.11 1.9 0.49 9.1477e-41
5.16 1.9 0.48 9.1477e-41
5.21 1.9 0.47 9.1477e-41
5.27 1.9 0.47 3.57e-43
5.1 1.9 1.35 9.1477e-41
5.13 1.9 1.39 9.1477e-41
5.17 1.9 1.4 9.1477e-41
5.21 1.9 1.42 9.1477e-41
5.25 1.9 1.42 9.1477e-41
5.29 1.9 1.42 9.1477e-41
5.33 1.9 1.42 3.57e-43
5.37 1.9 1.42 3.57e-43
5.64 1.9 1.42 3.57e-43
5.48 1.9 1.42 3.57e-43
5.67 1.9 1.42 3.57e-43
5.78 1.9 1.42 3.57e-43
5.81 1.9 1.42 3.57e-43
5.78 1.9 1.42 3.57e-43
5.83 1.9 1.42 3.57e-43
5.88 1.9 1.42 3.57e-43
5.84 1.9 1.42 3.57e-43
5.9 1.9 1.42 3.57e-43
5.96 1.9 1.42 3.57e-43
6.29 1.9 1.42 3.57e-43
6.35 1.9 1.42 3.57e-43
6.18 1.9 1.42 3.57e-43
6.25 1.9 1.42 3.57e-43
6.1 1.9 1.42 3.57e-43
6.15 1.9 1.34 9.1477e-41
6.18 1.9 1.39 9.1477e-41
4.79 1.92 0.74 3.57e-43
4.85 1.92 0.92 9.1477e-41
4.89 1.92 0.93 9.1477e-41
4.95 1.92 0.87 9.1477e-41
5.06 1.92 0.49 9.1477e-41
5.11 1.92 0.49 9.1477e-41
5.16 1.92 0.46 9.1477e-41
5.21 1.92 0.46 9.1477e-41
5.27 1.92 0.46 3.57e-43
5.1 1.92 1.35 9.1477e-41
5.13 1.92 1.39 9.1477e-41
5.17 1.92 1.4 9.1477e-41
5.21 1.92 1.42 9.1477e-41
5.25 1.92 1.43 9.1477e-41
5.29 1.92 1.43 3.57e-43
5.33 1.92 1.43 3.57e-43
5.37 1.92 1.43 3.57e-43
5.64 1.92 1.43 3.57e-43
5.48 1.92 1.43 3.57e-43
5.67 1.92 1.43 3.57e-43
5.78 1.92 1.43 3.57e-43
5.81 1.92 1.43 3.57e-43
5.78 1.92 1.43 3.57e-43
5.83 1.92 1.43 3.57e-43
5.88 1.92 1.43 3.57e-43
5.84 1.92 1.43 3.57e-43
5.9 1.92 1.43 3.57e-43
5.96 1.92 1.43 3.57e-43
6.29 1.92 1.43 3.57e-43
6.35 1.92 1.43 3.57e-43
6.18 1.92 1.43 3.57e-43
6.25 1.92 1.43 3.57e-43
6.1 1.92 1.43 3.57e-43
6.15 1.92 1.34 9.1477e-41
6.18 1.92 1.39 9.1477e-41
4.75 1.94 0.74 9.1477e-41
4.79 1.94 0.74 3.57e-43
4.79 1.94 0.74 3.57e-43
4.85 1.94 0.92 9.1477e-41
4.89 1.94 0.92 3.57e-43
4.95 1.94 0.87 9.1477e-41
5.04 1.94 0.61 9.1477e-41
5.07 1.94 0.72 9.1477e-41
5.12 1.94 0.69 9.1477e-41
5.21 1.94 0.69 3.57e-43
5.27 1.94 0.69 3.57e-43
5.1 1.94 1.35 9.1477e-41
5.13 1.94 1.4 9.1477e-41
5.17 1.94 1.4 9.1477e-41
5.21 1.94 1.42 9.1477e-41
5.25 1.94 1.43 9.1477e-41
5.29 1.94 1.43 3.57e-43
5.33 1.94 1.41 9.1477e-41
5.37 1.94 1.41 3.57e-43
5.64 1.94 1.41 3.57e-43
5.48 1.94 1.41 3.57e-43
5.67 1.94 1.41 3.57e-43
5.78 1.94 1.41 3.57e-43
5.81 1.94 1.41 3.57e-43
5.78 1.94 1.41 3.57e-43
5.83 1.94 1.41 3.57e-43
5.88 1.94 1.41 3.57e-43
5.84 1.94 1.41 3.57e-43
5.9 1.94 1.41 3.57e-43
5.96 1.94 1.41 3.57e-43
6.29 1.94 1.41 3.57e-43
6.35 1.94 1.41 3.57e-43
6.18 1.94 1.41 3.57e-43
6.25 1.94 1.41 3.57e-43
6.1 1.94 1.41 3.57e-43
6.15 1.94 1.34 9.1477e-41
6.18 1.94 1.4 9.1477e-41
4.75 1.96 0.92 3.57e-43
4.89 1.96 0.95 9.1477e-41
4.94 1.96 0.92 9.1477e-41
5.03 1.96 0.65 9.1477e-41
5.06 1.96 0.76 9.1477e-41
5.1 1.96 0.79 9.1477e-41
5.16 1.96 0.79 3.57e-43
5.27 1.96 0.79 3.57e-43
5.1 1.96 1.35 9.1477e-41
5.13 1.96 1.4 9.1477e-41
5.17 1.96 1.41 9.1477e-41
5.21 1.96 1.43 9.1477e-41
5.24 1.96 1.44 9.1477e-41
5.29 1.96 1.43 9.1477e-41
5.33 1.96 1.43 3.57e-43
5.37 1.96 1.43 3.57e-43
5.64 1.96 1.43 3.57e-43
5.48 1.96 1.43 3.57e-43
5.67 1.96 1.43 3.57e-43
5.78 1.96 1.43 3.57e-43
5.81 1.96 1.43 3.57e-43
5.78 1.96 1.43 3.57e-43
5.83 1.96 1.43 3.57e-43
5.88 1.96 1.43 3.57e-43
5.84 1.96 1.43 3.57e-43
5.9 1.96 1.43 3.57e-43
5.96 1.96 1.43 3.57e-43
6.29 1.96 1.43 3.57e-43
6.35 1.96 1.43 3.57e-43
6.18 1.96 1.43 3.57e-43
6.25 1.96 1.43 3.57e-43
6.1 1.96 1.43 3.57e-43
6.15 1.96 1.34 9.1477e-41
6.17 1.96 1.41 9.1477e-41
4.75 1.98 0.92 3.57e-43
4.89 1.98 0.98 9.1477e-41
4.92 1.98 1.02 9.1477e-41
4.95 1.98 1.07 9.1477e-41
5.05 1.98 0.79 9.1477e-41
5.09 1.98 0.83 9.1477e-41
5.14 1.98 0.83 3.57e-43
5.27 1.98 0.83 3.57e-43
5.1 1.98 1.35 9.1477e-41
5.13 1.98 1.41 9.1477e-41
5.17 1.98 1.41 9.1477e-41
5.21 1.98 1.43 9.1477e-41
5.25 1.98 1.43 9.1477e-41
5.28 1.98 1.44 9.1477e-41
5.32 1.98 1.44 9.1477e-41
5.37 1.98 1.44 9.1477e-41
5.41 1.98 1.44 3.57e-43
5.48 1.98 1.44 3.57e-43
5.67 1.98 1.44 3.57e-43
5.78 1.98 1.44 3.57e-43
5.81 1.98 1.44 3.57e-43
5.78 1.98 1.44 3.57e-43
5.83 1.98 1.44 3.57e-43
5.88 1.98 1.44 3.57e-43
5.84 1.98 1.44 3.57e-43
5.9 1.98 1.44 3.57e-43
5.96 1.98 1.44 3.57e-43
6.29 1.98 1.44 3.57e-43
6.35 1.98 1.44 3.57e-43
6.18 1.98 1.44 3.57e-43
6.25 1.98 1.44 3.57e-43
6.1 1.98 1.44 3.57e-43
6.15 1.98 1.34 9.1477e-41
6.17 1.98 1.41 9.1477e-41
4.75 2 1.02 3.57e-43
4.94 2 1.12 9.1477e-41
4.98 2 1.15 9.1477e-41
5.03 2 1.12 9.1477e-41
5.12 2 1.12 3.57e-43
5.27 2 1.12 3.57e-43
5.1 2 1.35 9.1477e-41
5.13 2 1.42 9.1477e-41
5.17 2 1.4 9.1477e-41
5.21 2 1.43 9.1477e-41
5.25 2 1.43 9.1477e-41
5.28 2 1.44 9.1477e-41
5.32 2 1.44 3.57e-43
5.37 2 1.44 9.1477e-41
5.41 2 1.44 3.57e-43
5.48 2 1.44 3.57e-43
5.67 2 1.44 3.57e-43
5.78 2 1.44 3.57e-43
5.81 2 1.44 3.57e-43
5.78 2 1.44 3.57e-43
5.83 2 1.44 3.57e-43
5.88 2 1.44 3.57e-43
5.84 2 1.44 3.57e-43
5.9 2 1.44 3.57e-43
5.96 2 1.44 3.57e-43
6.29 2 1.44 3.57e-43
6.35 2 1.44 3.57e-43
6.18 2 1.44 3.57e-43
6.25 2 1.44 3.57e-43
6.1 2 1.44 3.57e-43
6.15 2 1.34 9.1477e-41
6.17 2 1.41 9.1477e-41
4.75 2.02 1.12 3.57e-43
5.04 2.02 1.27 9.1477e-41
5.07 2.02 1.27 3.57e-43
5.1 2.02 1.35 9.1477e-41
5.13 2.02 1.42 9.1477e-41
5.17 2.02 1.42 9.1477e-41
5.21 2.02 1.43 9.1477e-41
5.24 2.02 1.44 9.1477e-41
5.29 2.02 1.43 9.1477e-41
5.32 2.02 1.44 9.1477e-41
5.37 2.02 1.44 3.57e-43
5.41 2.02 1.44 3.57e-43
5.48 2.02 1.44 3.57e-43
5.67 2.02 1.44 3.57e-43
5.78 2.02 1.44 3.57e-43
5.81 2.02 1.44 3.57e-43
5.78 2.02 1.44 3.57e-43
5.83 2.02 1.44 3.57e-43
5.88 2.02 1.44 3.57e-43
5.84 2.02 1.44 3.57e-43
5.9 2.02 1.44 3.57e-43
5.96 2.02 1.44 3.57e-43
6.29 2.02 1.44 3.57e-43
6.35 2.02 1.44 3.57e-43
6.18 2.02 1.44 3.57e-43
6.25 2.02 1.44 3.57e-43
6.1 2.02 1.44 3.57e-43
6.15 2.02 1.34 9.1477e-41
6.17 2.02 1.41 9.1477e-41
5.07 2.04 1.29 3.57e-43
5.1 2.04 1.37 9.1477e-41
5.13 2.04 1.42 9.1477e-41
5.17 2.04 1.42 9.1477e-41
5.2 2.04 1.43 9.1477e-41
5.24 2.04 1.44 9.1477e-41
5.28 2.04 1.45 9.1477e-41
5.32 2.04 1.44 9.1477e-41
5.36 2.04 1.44 3.57e-43
5.41 2.04 1.44 3.57e-43
5.48 2.04 1.44 3.57e-43
5.67 2.04 1.44 3.57e-43
5.78 2.04 1.44 3.57e-43
5.81 2.04 1.44 3.57e-43
5.78 2.04 1.44 3.57e-43
5.83 2.04 1.44 3.57e-43
5.88 2.04 1.44 3.57e-43
5.84 2.04 1.44 3.57e-43
5.9 2.04 1.44 3.57e-43
5.96 2.04 1.44 3.57e-43
6.29 2.04 1.44 3.57e-43
6.35 2.04 1.44 3.57e-43
6.18 2.04 1.44 3.57e-43
6.25 2.04 1.44 3.57e-43
6.1 2.04 1.44 3.57e-43
6.15 2.04 1.34 9.1477e-41
6.17 2.04 1.41 9.1477e-41
4.78 2.06 0.92 3.57e-43
4.89 2.06 0.97 3.57e-43
4.92 2.06 1.02 3.57e-43
4.94 2.06 1.12 3.57e-43
5.08 2.06 0.64 3.57e-43
5.03 2.06 1.12 3.57e-43
5.17 2.06 1.12 3.57e-43
5.07 2.06 1.29 9.1477e-41
5.1 2.06 1.38 9.1477e-41
5.13 2.06 1.4 9.1477e-41
5.17 2.06 1.42 9.1477e-41
5.21 2.06 1.43 9.1477e-41
5.24 2.06 1.44 9.1477e-41
5.28 2.06 1.44 9.1477e-41
5.32 2.06 1.44 9.1477e-41
5.36 2.06 1.44 3.57e-43
5.41 2.06 1.44 3.57e-43
5.48 2.06 1.44 3.57e-43
5.67 2.06 1.44 3.57e-43
5.78 2.06 1.44 3.57e-43
5.81 2.06 1.44 3.57e-43
5.78 2.06 1.44 3.57e-43
5.83 2.06 1.44 3.57e-43
5.88 2.06 1.44 3.57e-43
5.84 2.06 1.44 3.57e-43
5.9 2.06 1.44 3.57e-43
5.96 2.06 1.44 3.57e-43
6.29 2.06 1.44 3.57e-43
6.35 2.06 1.44 3.57e-43
6.18 2.06 1.44 3.57e-43
6.25 2.06 1.44 3.57e-43
6.1 2.06 1.44 3.57e-43
6.15 2.06 1.34 9.1477e-41
6.17 2.06 1.42 9.1477e-41
4.78 2.08 0.92 3.57e-43
4.89 2.08 0.97 3.57e-43
4.92 2.08 1.02 3.57e-43
4.94 2.08 1.12 3.57e-43
5.08 2.08 0.64 3.57e-43
5.03 2.08 1.12 3.57e-43
5.17 2.08 1.12 3.57e-43
5.07 2.08 1.12 3.57e-43
5.1 2.08 1.38 9.1477e-41
5.13 2.08 1.41 9.1477e-41
5.17 2.08 1.41 9.1477e-41
5.21 2.08 1.43 9.1477e-41
5.24 2.08 1.44 9.1477e-41
5.29 2.08 1.43 9.1477e-41
5.32 2.08 1.43 3.57e-43
5.36 2.08 1.43 3.57e-43
5.41 2.08 1.43 3.57e-43
5.48 2.08 1.43 3.57e-43
5.67 2.08 1.43 3.57e-43
5.78 2.08 1.43 3.57e-43
5.81 2.08 1.43 3.57e-43
5.78 2.08 1.43 3.57e-43
5.83 2.08 1.43 3.57e-43
5.88 2.08 1.43 3.57e-43
5.84 2.08 1.43 3.57e-43
5.9 2.08 1.43 3.57e-43
5.96 2.08 1.43 3.57e-43
6.29 2.08 1.43 3.57e-43
6.35 2.08 1.43 3.57e-43
6.18 2.08 1.43 3.57e-43
6.25 2.08 1.43 3.57e-43
6.1 2.08 1.43 3.57e-43
6.15 2.08 1.34 9.1477e-41
6.17 2.08 1.41 9.1477e-41
4.78 2.1 0.92 3.57e-43
4.89 2.1 0.97 3.57e-43
4.92 2.1 1.02 3.57e-43
4.94 2.1 1.12 3.57e-43
5.08 2.1 0.64 3.57e-43
5.03 2.1 1.12 3.57e-43
5.17 2.1 1.12 3.57e-43
5.07 2.1 1.12 3.57e-43
5.1 2.1 1.38 9.1477e-41
5.13 2.1 1.4 9.1477e-41
5.17 2.1 1.41 9.1477e-41
5.21 2.1 1.41 9.1477e-41
5.24 2.1 1.44 9.1477e-41
5.29 2.1 1.43 9.1477e-41
5.32 2.1 1.43 3.57e-43
5.36 2.1 1.43 3.57e-43
5.41 2.1 1.43 3.57e-43
5.48 2.1 1.43 3.57e-43
5.67 2.1 1.43 3.57e-43
5.78 2.1 1.43 3.57e-43
5.81 2.1 1.43 3.57e-43
5.78 2.1 1.43 3.57e-43
5.83 2.1 1.43 3.57e-43
5.88 2.1 1.43 3.57e-43
5.84 2.1 1.43 3.57e-43
5.9 2.1 1.43 3.57e-43
5.96 2.1 1.43 3.57e-43
6.29 2.1 1.43 3.57e-43
6.35 2.1 1.43 3.57e-43
6.18 2.1 1.43 3.57e-43
6.25 2.1 1.43 3.57e-43
6.1 2.1 1.43 3.57e-43
6.15 2.1 1.34 9.1477e-41
6.17 2.1 1.42 9.1477e-41
4.78 2.12 0.92 3.57e-43
4.89 2.12 0.97 3.57e-43
4.92 2.12 1.02 3.57e-43
4.94 2.12 1.12 3.57e-43
5.08 2.12 0.64 3.57e-43
5.03 2.12 1.12 9.1477e-41
5.17 2.12 1.12 3.57e-43
5.07 2.12 1.12 3.57e-43
5.1 2.12 1.38 9.1477e-41
5.13 2.12 1.42 9.1477e-41
5.17 2.12 1.41 9.1477e-41
5.21 2.12 1.43 9.1477e-41
5.25 2.12 1.42 9.1477e-41
5.28 2.12 1.42 3.57e-43
5.32 2.12 1.45 9.1477e-41
5.36 2.12 1.45 3.57e-43
5.41 2.12 1.45 3.57e-43
5.48 2.12 1.45 3.57e-43
5.67 2.12 1.45 3.57e-43
5.78 2.12 1.45 3.57e-43
5.81 2.12 1.45 3.57e-43
5.78 2.12 1.45 3.57e-43
5.83 2.12 1.45 3.57e-43
5.88 2.12 1.45 3.57e-43
5.84 2.12 1.45 3.57e-43
5.9 2.12 1.45 3.57e-43
5.96 2.12 1.45 3.57e-43
6.29 2.12 1.45 3.57e-43
6.35 2.12 1.45 3.57e-43
6.18 2.12 1.45 3.57e-43
6.25 2.12 1.45 3.57e-43
6.1 2.12 1.45 3.57e-43
6.15 2.12 1.34 9.1477e-41
6.17 2.12 1.42 9.1477e-41
4.78 2.14 0.92 3.57e-43
4.89 2.14 0.97 3.57e-43
4.92 2.14 1.02 3.57e-43
4.94 2.14 1.12 9.1477e-41
5.08 2.14 0.64 9.1477e-41
5.12 2.14 0.64 3.57e-43
5.17 2.14 0.64 3.57e-43
5.07 2.14 0.64 3.57e-43
5.1 2.14 1.38 9.1477e-41
5.13 2.14 1.4 9.1477e-41
5.17 2.14 1.41 9.1477e-41
5.21 2.14 1.43 9.1477e-41
5.24 2.14 1.44 9.1477e-41
5.28 2.14 1.44 9.1477e-41
5.32 2.14 1.44 9.1477e-41
5.36 2.14 1.44 3.57e-43
5.41 2.14 1.44 3.57e-43
5.48 2.14 1.44 3.57e-43
5.67 2.14 1.44 3.57e-43
5.78 2.14 1.44 3.57e-43
5.81 2.14 1.44 3.57e-43
5.78 2.14 1.44 3.57e-43
5.83 2.14 1.44 3.57e-43
5.88 2.14 1.44 3.57e-43
5.84 2.14 1.44 3.57e-43
5.9 2.14 1.44 3.57e-43
5.96 2.14 1.44 3.57e-43
6.29 2.14 1.44 3.57e-43
6.35 2.14 1.44 3.57e-43
6.18 2.14 1.44 3.57e-43
6.25 2.14 1.44 3.57e-43
6.1 2.14 1.44 3.57e-43
6.15 2.14 1.34 9.1477e-41
6.17 2.14 1.41 9.1477e-41
4.78 2.16 0.92 3.57e-43
4.89 2.16 0.97 3.57e-43
4.92 2.16 1.02 9.1477e-41
5.02 2.16 0.71 9.1477e-41
5.06 2.16 0.74 9.1477e-41
5.11 2.16 0.75 9.1477e-41
5.15 2.16 0.75 3.57e-43
5.07 2.16 0.75 3.57e-43
5.1 2.16 0.75 3.57e-43
5.13 2.16 1.4 9.1477e-41
5.17 2.16 1.41 9.1477e-41
5.21 2.16 1.42 9.1477e-41
5.24 2.16 1.44 9.1477e-41
5.29 2.16 1.43 9.1477e-41
5.33 2.16 1.43 9.1477e-41
5.36 2.16 1.43 3.57e-43
5.41 2.16 1.43 3.57e-43
5.48 2.16 1.43 3.57e-43
5.67 2.16 1.43 3.57e-43
5.78 2.16 1.43 3.57e-43
5.81 2.16 1.43 3.57e-43
5.78 2.16 1.43 3.57e-43
5.83 2.16 1.43 3.57e-43
5.88 2.16 1.43 3.57e-43
5.84 2.16 1.43 3.57e-43
5.9 2.16 1.43 3.57e-43
5.96 2.16 1.43 3.57e-43
6.29 2.16 1.43 3.57e-43
6.35 2.16 1.43 3.57e-43
6.18 2.16 1.43 3.57e-43
6.25 2.16 1.43 3.57e-43
6.1 2.16 1.36 9.1477e-41
6.12 2.16 1.4 9.1477e-41
6.17 2.16 1.41 9.1477e-41
4.78 2.18 0.92 3.57e-43
4.89 2.18 0.97 3.57e-43
4.92 2.18 1.02 9.1477e-41
5.02 2.18 0.71 9.1477e-41
5.06 2.18 0.74 9.1477e-41
5.11 2.18 0.75 9.1477e-41
5.15 2.18 0.75 3.57e-43
5.07 2.18 0.75 3.57e-43
5.1 2.18 0.75 3.57e-43
5.13 2.18 1.4 9.1477e-41
5.17 2.18 1.41 9.1477e-41
5.21 2.18 1.43 9.1477e-41
5.25 2.18 1.43 9.1477e-41
5.28 2.18 1.44 9.1477e-41
5.33 2.18 1.43 9.1477e-41
5.37 2.18 1.44 9.1477e-41
5.41 2.18 1.44 3.57e-43
5.48 2.18 1.33 9.1477e-41
5.49 2.18 1.33 3.57e-43
5.78 2.18 1.33 3.57e-43
5.81 2.18 1.33 3.57e-43
5.78 2.18 1.33 3.57e-43
5.83 2.18 1.33 3.57e-43
5.88 2.18 1.33 3.57e-43
5.84 2.18 1.33 3.57e-43
5.9 2.18 1.33 3.57e-43
5.96 2.18 1.33 3.57e-43
6.29 2.18 1.33 3.57e-43
6.35 2.18 1.33 3.57e-43
6.18 2.18 1.33 3.57e-43
6.25 2.18 1.33 3.57e-43
6.1 2.18 1.36 9.1477e-41
6.12 2.18 1.4 9.1477e-41
6.17 2.18 1.41 9.1477e-41
4.78 2.2 0.92 3.57e-43
4.89 2.2 0.97 3.57e-43
4.92 2.2 1.02 9.1477e-41
5.02 2.2 0.71 9.1477e-41
5.06 2.2 0.73 9.1477e-41
5.11 2.2 0.74 9.1477e-41
5.16 2.2 0.74 3.57e-43
5.07 2.2 0.74 3.57e-43
5.1 2.2 0.74 3.57e-43
5.13 2.2 1.4 9.1477e-41
5.17 2.2 1.42 9.1477e-41
5.21 2.2 1.43 9.1477e-41
5.25 2.2 1.43 9.1477e-41
5.28 2.2 1.45 9.1477e-41
5.33 2.2 1.43 9.1477e-41
5.37 2.2 1.43 3.57e-43
5.41 2.2 1.43 3.57e-43
5.48 2.2 1.43 3.57e-43
5.49 2.2 1.43 3.57e-43
5.78 2.2 1.43 3.57e-43
5.81 2.2 1.43 3.57e-43
5.78 2.2 1.43 3.57e-43
5.83 2.2 1.43 3.57e-43
5.88 2.2 1.43 3.57e-43
5.84 2.2 1.43 3.57e-43
5.9 2.2 1.43 3.57e-43
5.96 2.2 1.43 3.57e-43
6.29 2.2 1.43 3.57e-43
6.35 2.2 1.43 3.57e-43
6.18 2.2 1.43 3.57e-43
6.25 2.2 1.43 3.57e-43
6.1 2.2 1.36 9.1477e-41
6.12 2.2 1.4 9.1477e-41
6.17 2.2 1.41 9.1477e-41
4.78 2.22 0.92 3.57e-43
4.89 2.22 0.97 3.57e-43
4.92 2.22 1.02 9.1477e-41
5.02 2.22 0.7 9.1477e-41
5.07 2.22 0.69 9.1477e-41
5.12 2.22 0.67 9.1477e-41
5.16 2.22 0.7 9.1477e-41
5.2 2.22 0.7 3.57e-43
5.1 2.22 0.7 3.57e-43
5.13 2.22 1.4 9.1477e-41
5.17 2.22 1.41 9.1477e-41
5.21 2.22 1.43 9.1477e-41
5.24 2.22 1.44 9.1477e-41
5.28 2.22 1.44 9.1477e-41
5.33 2.22 1.43 9.1477e-41
5.37 2.22 1.43 3.57e-43
5.41 2.22 1.43 3.57e-43
5.48 2.22 1.43 3.57e-43
5.49 2.22 1.43 3.57e-43
5.78 2.22 1.43 3.57e-43
5.81 2.22 1.43 3.57e-43
5.78 2.22 1.43 3.57e-43
5.83 2.22 1.43 3.57e-43
5.88 2.22 1.43 3.57e-43
5.84 2.22 1.43 3.57e-43
5.9 2.22 1.43 3.57e-43
5.96 2.22 1.43 3.57e-43
6.29 2.22 1.43 3.57e-43
6.35 2.22 1.43 3.57e-43
6.18 2.22 1.43 3.57e-43
6.25 2.22 1.43 3.57e-43
6.1 2.22 1.36 9.1477e-41
6.13 2.22 1.4 9.1477e-41
6.17 2.22 1.41 9.1477e-41
4.78 2.24 0.92 3.57e-43
4.89 2.24 0.97 9.1477e-41
4.98 2.24 0.66 9.1477e-41
5.03 2.24 0.68 9.1477e-41
5.07 2.24 0.68 9.1477e-41
5.12 2.24 0.67 9.1477e-41
5.16 2.24 0.69 9.1477e-41
5.2 2.24 0.69 3.57e-43
5.1 2.24 0.69 3.57e-43
5.13 2.24 1.4 9.1477e-41
5.17 2.24 1.41 9.1477e-41
5.21 2.24 1.42 9.1477e-41
5.25 2.24 1.43 9.1477e-41
5.29 2.24 1.43 9.1477e-41
5.33 2.24 1.43 9.1477e-41
5.37 2.24 1.43 3.57e-43
5.41 2.24 1.43 3.57e-43
5.48 2.24 1.43 3.57e-43
5.49 2.24 1.43 3.57e-43
5.78 2.24 1.43 3.57e-43
5.81 2.24 1.43 3.57e-43
5.78 2.24 1.43 3.57e-43
5.83 2.24 1.43 3.57e-43
5.88 2.24 1.43 3.57e-43
5.84 2.24 1.43 3.57e-43
5.9 2.24 1.43 3.57e-43
5.96 2.24 1.43 3.57e-43
6.29 2.24 1.43 3.57e-43
6.35 2.24 1.43 3.57e-43
6.18 2.24 1.43 3.57e-43
6.25 2.24 1.43 3.57e-43
6.1 2.24 1.36 9.1477e-41
6.12 2.24 1.4 9.1477e-41
6.17 2.24 1.41 9.1477e-41
4.78 2.26 0.92 3.57e-43
4.89 2.26 0.98 9.1477e-41
4.98 2.26 0.69 9.1477e-41
5.03 2.26 0.66 9.1477e-41
5.08 2.26 0.66 9.1477e-41
5.13 2.26 0.65 9.1477e-41
5.17 2.26 0.67 9.1477e-41
5.22 2.26 0.67 3.57e-43
5.1 2.26 0.67 3.57e-43
5.13 2.26 1.4 9.1477e-41
5.17 2.26 1.4 9.1477e-41
5.21 2.26 1.41 9.1477e-41
5.25 2.26 1.42 9.1477e-41
5.29 2.26 1.42 9.1477e-41
5.33 2.26 1.42 3.57e-43
5.37 2.26 1.43 9.1477e-41
5.41 2.26 1.43 3.57e-43
5.48 2.26 1.43 3.57e-43
5.49 2.26 1.43 3.57e-43
5.78 2.26 1.43 3.57e-43
5.81 2.26 1.43 3.57e-43
5.78 2.26 1.43 3.57e-43
5.83 2.26 1.43 3.57e-43
5.88 2.26 1.43 3.57e-43
5.84 2.26 1.43 3.57e-43
5.9 2.26 1.43 3.57e-43
5.96 2.26 1.43 3.57e-43
6.29 2.26 1.43 3.57e-43
6.35 2.26 1.43 3.57e-43
6.18 2.26 1.43 3.57e-43
6.25 2.26 1.43 3.57e-43
6.1 2.26 1.36 9.1477e-41
6.12 2.26 1.4 9.1477e-41
6.17 2.26 1.41 9.1477e-41
4.78 2.28 0.92 3.57e-43
4.88 2.28 0.92 3.57e-43
4.98 2.28 0.69 9.1477e-41
5.04 2.28 0.63 9.1477e-41
5.08 2.28 0.63 9.1477e-41
5.13 2.28 0.65 9.1477e-41
5.17 2.28 0.65 3.57e-43
5.22 2.28 0.65 3.57e-43
5.1 2.28 0.65 3.57e-43
5.13 2.28 1.4 9.1477e-41
5.17 2.28 1.4 9.1477e-41
5.21 2.28 1.42 9.1477e-41
5.25 2.28 1.42 9.1477e-41
5.29 2.28 1.43 9.1477e-41
5.33 2.28 1.43 3.57e-43
5.37 2.28 1.43 3.57e-43
5.41 2.28 1.43 3.57e-43
5.48 2.28 1.43 3.57e-43
5.49 2.28 1.43 3.57e-43
5.78 2.28 1.43 3.57e-43
5.81 2.28 1.43 3.57e-43
5.78 2.28 1.43 3.57e-43
5.83 2.28 1.43 3.57e-43
5.88 2.28 1.43 3.57e-43
5.84 2.28 1.43 3.57e-43
5.9 2.28 1.43 3.57e-43
5.96 2.28 1.43 3.57e-43
6.29 2.28 1.43 3.57e-43
6.35 2.28 1.43 3.57e-43
6.18 2.28 1.43 3.57e-43
6.25 2.28 1.43 3.57e-43
6.1 2.28 1.36 9.1477e-41
6.13 2.28 1.39 9.1477e-41
6.18 2.28 1.39 9.1477e-41
4.78 2.3 0.92 3.57e-43
4.88 2.3 0.92 3.57e-43
4.98 2.3 0.92 3.57e-43
5.04 2.3 0.92 3.57e-43
5.08 2.3 0.63 9.1477e-41
5.13 2.3 0.61 9.1477e-41
5.17 2.3 0.61 3.57e-43
5.22 2.3 0.61 3.57e-43
5.1 2.3 0.61 3.57e-43
5.13 2.3 1.4 9.1477e-41
5.17 2.3 1.4 9.1477e-41
5.21 2.3 1.41 9.1477e-41
5.25 2.3 1.42 9.1477e-41
5.29 2.3 1.42 9.1477e-41
5.33 2.3 1.41 9.1477e-41
5.37 2.3 1.43 9.1477e-41
5.41 2.3 1.43 3.57e-43
5.48 2.3 1.43 3.57e-43
5.49 2.3 1.43 3.57e-43
5.78 2.3 1.43 3.57e-43
5.81 2.3 1.43 3.57e-43
5.78 2.3 1.43 3.57e-43
5.83 2.3 1.43 3.57e-43
5.88 2.3 1.43 3.57e-43
5.84 2.3 1.43 3.57e-43
5.9 2.3 1.43 3.57e-43
5.96 2.3 1.43 3.57e-43
6.29 2.3 1.43 3.57e-43
6.35 2.3 1.43 3.57e-43
6.18 2.3 1.43 3.57e-43
6.25 2.3 1.43 3.57e-43
6.1 2.3 1.36 9.1477e-41
6.13 2.3 1.4 9.1477e-41
6.19 2.3 1.38 9.1477e-41
5.08 2.32 0.63 3.57e-43
5.14 2.32 0.6 3.57e-43
5.17 2.32 0.6 3.57e-43
5.22 2.32 0.6 3.57e-43
5.1 2.32 0.6 3.57e-43
5.13 2.32 1.4 9.1477e-41
5.17 2.32 1.4 9.1477e-41
5.21 2.32 1.41 9.1477e-41
5.25 2.32 1.42 9.1477e-41
5.29 2.32 1.42 9.1477e-41
5.33 2.32 1.41 9.1477e-41
5.37 2.32 1.41 3.57e-43
5.41 2.32 1.41 3.57e-43
5.48 2.32 1.41 3.57e-43
5.49 2.32 1.41 3.57e-43
5.78 2.32 1.41 3.57e-43
5.81 2.32 1.41 3.57e-43
5.78 2.32 1.41 3.57e-43
5.83 2.32 1.41 3.57e-43
5.88 2.32 1.41 3.57e-43
5.84 2.32 1.41 3.57e-43
5.9 2.32 1.41 3.57e-43
5.96 2.32 1.41 3.57e-43
6.29 2.32 1.41 3.57e-43
6.35 2.32 1.41 3.57e-43
6.18 2.32 1.41 3.57e-43
6.25 2.32 1.41 3.57e-43
6.1 2.32 1.36 9.1477e-41
6.13 2.32 1.36 3.57e-43
6.19 2.32 1.38 9.1477e-41
4.88 2.34 0.81 3.57e-43
4.92 2.34 0.81 3.57e-43
5.04 2.34 0.81 3.57e-43
5.08 2.34 0.63 9.1477e-41
5.14 2.34 0.6 9.1477e-41
5.17 2.34 0.6 3.57e-43
5.22 2.34 0.6 3.57e-43
5.1 2.34 0.6 3.57e-43
5.13 2.34 1.4 9.1477e-41
5.17 2.34 1.39 9.1477e-41
5.21 2.34 1.42 9.1477e-41
5.25 2.34 1.41 9.1477e-41
5.29 2.34 1.41 9.1477e-41
5.33 2.34 1.41 3.57e-43
5.37 2.34 1.41 3.57e-43
5.41 2.34 1.41 3.57e-43
5.48 2.34 1.41 3.57e-43
5.49 2.34 1.41 3.57e-43
5.78 2.34 1.41 3.57e-43
5.81 2.34 1.41 3.57e-43
5.78 2.34 1.41 3.57e-43
5.83 2.34 1.41 3.57e-43
5.88 2.34 1.41 3.57e-43
5.84 2.34 1.41 3.57e-43
5.9 2.34 1.41 3.57e-43
5.96 2.34 1.41 3.57e-43
6.29 2.34 1.41 3.57e-43
6.35 2.34 1.41 3.57e-43
6.18 2.34 1.41 3.57e-43
6.25 2.34 1.41 3.57e-43
6.1 2.34 1.36 9.1477e-41
6.13 2.34 1.36 3.57e-43
6.19 2.34 1.38 9.1477e-41
4.88 2.36 0.81 3.57e-43
4.92 2.36 0.81 3.57e-43
5.04 2.36 0.81 3.57e-43
5.08 2.36 0.63 9.1477e-41
5.13 2.36 0.65 9.1477e-41
5.18 2.36 0.61 9.1477e-41
5.22 2.36 0.61 3.57e-43
5.1 2.36 0.61 3.57e-43
5.13 2.36 1.4 9.1477e-41
5.17 2.36 1.39 9.1477e-41
5.21 2.36 1.4 9.1477e-41
5.25 2.36 1.4 9.1477e-41
5.29 2.36 1.41 9.1477e-41
5.33 2.36 1.41 3.57e-43
5.37 2.36 1.41 3.57e-43
5.41 2.36 1.41 3.57e-43
5.48 2.36 1.41 3.57e-43
5.49 2.36 1.41 3.57e-43
5.78 2.36 1.41 3.57e-43
5.81 2.36 1.41 3.57e-43
5.78 2.36 1.41 3.57e-43
5.83 2.36 1.41 3.57e-43
5.88 2.36 1.41 3.57e-43
5.84 2.36 1.41 3.57e-43
5.9 2.36 1.41 3.57e-43
5.96 2.36 1.41 3.57e-43
6.29 2.36 1.41 3.57e-43
6.35 2.36 1.41 3.57e-43
6.18 2.36 1.41 3.57e-43
6.25 2.36 1.41 3.57e-43
6.1 2.36 1.36 9.1477e-41
6.14 2.36 1.36 3.57e-43
6.19 2.36 1.38 9.1477e-41
4.78 2.38 0.81 9.1477e-41
4.82 2.38 0.81 3.57e-43
4.85 2.38 0.81 3.57e-43
4.88 2.38 0.81 3.57e-43
4.92 2.38 0.81 3.57e-43
5.04 2.38 0.81 3.57e-43
5.08 2.38 0.81 3.57e-43
5.13 2.38 0.65 9.1477e-41
5.18 2.38 0.63 9.1477e-41
5.23 2.38 0.63 3.57e-43
5.1 2.38 0.63 3.57e-43
5.13 2.38 1.4 9.1477e-41
5.18 2.38 1.38 9.1477e-41
5.21 2.38 1.4 9.1477e-41
5.25 2.38 1.41 9.1477e-41
5.3 2.38 1.39 9.1477e-41
5.34 2.38 1.39 3.57e-43
5.37 2.38 1.39 3.57e-43
5.41 2.38 1.39 3.57e-43
5.48 2.38 1.39 3.57e-43
5.49 2.38 1.39 3.57e-43
5.78 2.38 1.39 3.57e-43
5.81 2.38 1.39 3.57e-43
5.78 2.38 1.39 3.57e-43
5.83 2.38 1.39 3.57e-43
5.88 2.38 1.39 3.57e-43
5.84 2.38 1.39 3.57e-43
5.9 2.38 1.39 3.57e-43
5.96 2.38 1.39 3.57e-43
6.29 2.38 1.39 3.57e-43
6.35 2.38 1.39 3.57e-43
6.18 2.38 1.39 3.57e-43
6.25 2.38 1.39 3.57e-43
6.1 2.38 1.36 9.1477e-41
6.14 2.38 1.36 3.57e-43
6.19 2.38 1.38 9.1477e-41
5.15 2.4 1.34 3.57e-43
5.18 2.4 1.38 9.1477e-41
5.22 2.4 1.39 9.1477e-41
5.25 2.4 1.4 9.1477e-41
5.29 2.4 1.4 3.57e-43
5.34 2.4 1.4 3.57e-43
5.37 2.4 1.4 3.57e-43
5.41 2.4 1.4 3.57e-43
5.48 2.4 1.4 3.57e-43
5.49 2.4 1.4 3.57e-43
5.78 2.4 1.4 3.57e-43
5.81 2.4 1.4 3.57e-43
5.78 2.4 0.99 9.1477e-41
5.66 2.4 0.99 3.57e-43
5.88 2.4 0.99 3.57e-43
5.84 2.4 0.99 3.57e-43
5.9 2.4 0.99 3.57e-43
5.96 2.4 0.99 3.57e-43
6.29 2.4 0.99 3.57e-43
6.35 2.4 0.99 3.57e-43
6.18 2.4 0.99 3.57e-43
6.25 2.4 0.99 3.57e-43
6.1 2.4 1.36 9.1477e-41
6.14 2.4 1.36 3.57e-43
6.19 2.4 1.38 9.1477e-41
5.15 2.42 1.34 3.57e-43
5.18 2.42 1.37 9.1477e-41
5.22 2.42 1.39 9.1477e-41
5.26 2.42 1.39 9.1477e-41
5.3 2.42 1.39 3.57e-43
5.34 2.42 1.39 3.57e-43
5.37 2.42 1.39 3.57e-43
5.41 2.42 1.39 3.57e-43
5.48 2.42 1.39 3.57e-43
5.49 2.42 1.39 3.57e-43
5.78 2.42 1.39 3.57e-43
5.81 2.42 1.39 3.57e-43
5.78 2.42 0.99 9.1477e-41
5.66 2.42 0.99 3.57e-43
5.88 2.42 0.99 3.57e-43
5.84 2.42 0.99 3.57e-43
5.9 2.42 0.99 3.57e-43
5.96 2.42 0.99 3.57e-43
6.29 2.42 0.99 3.57e-43
6.35 2.42 0.99 3.57e-43
6.18 2.42 0.99 3.57e-43
6.25 2.42 0.99 3.57e-43
6.1 2.42 1.36 9.1477e-41
6.14 2.42 1.38 9.1477e-41
5.15 2.44 1.34 3.57e-43
5.18 2.44 1.36 9.1477e-41
5.22 2.44 1.38 9.1477e-41
5.26 2.44 1.38 3.57e-43
5.3 2.44 1.38 3.57e-43
5.34 2.44 1.38 3.57e-43
5.37 2.44 1.38 3.57e-43
5.41 2.44 1.38 3.57e-43
5.48 2.44 1.38 3.57e-43
5.49 2.44 1.38 3.57e-43
5.78 2.44 1.38 3.57e-43
5.81 2.44 1.38 3.57e-43
5.78 2.44 0.99 9.1477e-41
5.66 2.44 0.99 3.57e-43
5.88 2.44 0.99 3.57e-43
5.84 2.44 0.99 3.57e-43
5.9 2.44 0.99 3.57e-43
5.96 2.44 0.99 3.57e-43
6.29 2.44 0.99 3.57e-43
6.35 2.44 0.99 3.57e-43
6.18 2.44 0.99 3.57e-43
6.25 2.44 0.99 3.57e-43
6.1 2.44 1.36 9.1477e-41
6.14 2.44 1.36 3.57e-43
5.15 2.46 1.34 3.57e-43
5.18 2.46 1.36 9.1477e-41
5.22 2.46 1.38 9.1477e-41
5.26 2.46 1.37 9.1477e-41
5.3 2.46 1.37 3.57e-43
5.34 2.46 1.37 3.57e-43
5.37 2.46 1.37 3.57e-43
5.41 2.46 1.37 3.57e-43
5.48 2.46 1.37 3.57e-43
5.49 2.46 1.37 3.57e-43
5.78 2.46 1.37 3.57e-43
5.81 2.46 1.37 3.57e-43
5.78 2.46 1.37 3.57e-43
5.66 2.46 1.37 3.57e-43
5.88 2.46 1.37 3.57e-43
5.84 2.46 1.37 3.57e-43
5.9 2.46 1.37 3.57e-43
5.96 2.46 1.37 3.57e-43
6.29 2.46 1.37 3.57e-43
6.35 2.46 1.37 3.57e-43
6.18 2.46 1.37 3.57e-43
6.25 2.46 1.37 3.57e-43
6.1 2.46 1.36 9.1477e-41
6.14 2.46 1.36 9.1477e-41
4.78 2.48 1.38 3.57e-43
5.15 2.48 1.34 9.1477e-41
5.19 2.48 1.34 9.1477e-41
5.22 2.48 1.37 9.1477e-41
5.26 2.48 1.37 3.57e-43
5.3 2.48 1.37 3.57e-43
5.34 2.48 1.37 3.57e-43
5.37 2.48 1.37 3.57e-43
5.41 2.48 1.37 3.57e-43
5.48 2.48 1.37 3.57e-43
5.49 2.48 1.37 3.57e-43
5.78 2.48 1.37 3.57e-43
5.81 2.48 1.37 3.57e-43
5.78 2.48 1.37 3.57e-43
5.66 2.48 1.37 3.57e-43
5.88 2.48 1.37 3.57e-43
5.84 2.48 1.37 3.57e-43
5.9 2.48 1.37 3.57e-43
5.96 2.48 1.37 3.57e-43
6.29 2.48 1.37 3.57e-43
6.35 2.48 1.37 3.57e-43
6.18 2.48 1.37 3.57e-43
6.25 2.48 0.91 9.1477e-41
6.1 2.48 1.36 9.1477e-41
6.15 2.48 1.35 9.1477e-41
4.82 2.5 1.34 3.57e-43
5.18 2.5 1.35 9.1477e-41
5.22 2.5 1.36 9.1477e-41
5.26 2.5 1.36 9.1477e-41
5.31 2.5 1.35 9.1477e-41
5.35 2.5 1.35 9.1477e-41
5.39 2.5 1.35 9.1477e-41
5.43 2.5 1.35 9.1477e-41
5.47 2.5 1.37 9.1477e-41
5.52 2.5 1.36 9.1477e-41
5.56 2.5 1.36 9.1477e-41
5.6 2.5 1.36 9.1477e-41
5.64 2.5 1.36 9.1477e-41
5.69 2.5 1.36 3.57e-43
5.88 2.5 1.36 3.57e-43
5.84 2.5 1.36 3.57e-43
5.9 2.5 1.36 3.57e-43
5.96 2.5 1.36 3.57e-43
6.29 2.5 1.36 3.57e-43
6.35 2.5 1.36 3.57e-43
6.18 2.5 1.36 3.57e-43
6.25 2.5 1.36 3.57e-43
6.1 2.5 1.36 9.1477e-41
6.16 2.5 1.32 9.1477e-41
4.82 2.52 1.34 3.57e-43
5.19 2.52 1.33 9.1477e-41
5.22 2.52 1.36 9.1477e-41
5.26 2.52 1.36 9.1477e-41
5.3 2.52 1.37 9.1477e-41
5.34 2.52 1.37 3.57e-43
5.39 2.52 1.37 3.57e-43
5.43 2.52 1.37 3.57e-43
5.47 2.52 1.37 3.57e-43
5.52 2.52 1.37 3.57e-43
5.56 2.52 1.37 3.57e-43
5.6 2.52 1.37 3.57e-43
5.64 2.52 1.37 3.57e-43
5.69 2.52 1.37 3.57e-43
5.88 2.52 1.37 3.57e-43
5.84 2.52 1.37 3.57e-43
5.9 2.52 1.37 3.57e-43
5.96 2.52 1.37 3.57e-43
6.29 2.52 1.37 3.57e-43
6.35 2.52 1.37 3.57e-43
6.18 2.52 1.37 3.57e-43
6.25 2.52 1.37 3.57e-43
6.1 2.52 1.37 3.57e-43
6.16 2.52 1.32 9.1477e-41
5.13 2.54 1.35 3.57e-43
5.46 2.54 1.27 9.1477e-41
5.5 2.54 1.28 9.1477e-41
5.54 2.54 1.28 9.1477e-41
5.59 2.54 1.28 9.1477e-41
5.63 2.54 1.28 3.57e-43
5.64 2.54 1.28 3.57e-43
5.69 2.54 1.28 3.57e-43
5.88 2.54 1.28 3.57e-43
5.84 2.54 1.28 3.57e-43
5.9 2.54 1.28 3.57e-43
5.96 2.54 1.28 3.57e-43
6.29 2.54 1.28 3.57e-43
6.35 2.54 1.28 3.57e-43
6.18 2.54 1.28 3.57e-43
6.25 2.54 1.28 3.57e-43
6.1 2.54 1.28 3.57e-43
6.16 2.54 1.32 9.1477e-41
5.54 2.56 1.28 3.57e-43
5.59 2.56 1.26 9.1477e-41
5.65 2.56 1.22 9.1477e-41
5.7 2.56 1.22 9.1477e-41
5.74 2.56 1.22 3.57e-43
5.88 2.56 1.22 3.57e-43
5.84 2.56 1.22 3.57e-43
5.9 2.56 1.22 3.57e-43
5.96 2.56 1.22 3.57e-43
6.29 2.56 1.22 3.57e-43
6.35 2.56 1.22 3.57e-43
6.18 2.56 1.22 3.57e-43
6.25 2.56 1.22 3.57e-43
6.1 2.56 1.22 3.57e-43
6.16 2.56 1.32 9.1477e-41
4.78 2.58 0.83 3.57e-43
4.86 2.58 0.87 3.57e-43
4.89 2.58 0.87 3.57e-43
4.92 2.58 0.87 3.57e-43
5.04 2.58 0.87 3.57e-43
5.08 2.58 0.87 3.57e-43
5.13 2.58 0.87 3.57e-43
5.18 2.58 0.87 3.57e-43
5.23 2.58 0.87 3.57e-43
5.1 2.58 0.87 3.57e-43
5.15 2.58 0.87 3.57e-43
5.19 2.58 0.87 3.57e-43
5.22 2.58 0.87 3.57e-43
5.26 2.58 0.87 3.57e-43
5.3 2.58 0.87 3.57e-43
5.34 2.58 0.87 3.57e-43
5.39 2.58 0.87 3.57e-43
5.46 2.58 0.87 3.57e-43
5.5 2.58 0.87 3.57e-43
5.54 2.58 1.28 9.1477e-41
5.61 2.58 1.22 9.1477e-41
5.65 2.58 1.21 9.1477e-41
5.71 2.58 1.19 9.1477e-41
5.75 2.58 1.19 3.57e-43
5.88 2.58 1.19 3.57e-43
5.84 2.58 1.19 3.57e-43
5.9 2.58 1.19 3.57e-43
5.96 2.58 1.19 3.57e-43
6.29 2.58 1.19 3.57e-43
6.35 2.58 1.19 3.57e-43
6.18 2.58 1.19 3.57e-43
6.25 2.58 1.19 3.57e-43
6.1 2.58 1.19 3.57e-43
6.16 2.58 1.32 9.1477e-41
4.78 2.6 0.83 3.57e-43
4.86 2.6 0.87 9.1477e-41
4.89 2.6 0.87 3.57e-43
4.92 2.6 0.87 3.57e-43
5.04 2.6 0.87 3.57e-43
5.08 2.6 0.87 3.57e-43
5.13 2.6 0.87 3.57e-43
5.18 2.6 0.87 3.57e-43
5.23 2.6 0.87 3.57e-43
5.1 2.6 0.87 3.57e-43
5.15 2.6 0.87 3.57e-43
5.19 2.6 0.87 3.57e-43
5.22 2.6 0.87 3.57e-43
5.26 2.6 0.87 3.57e-43
5.3 2.6 0.87 3.57e-43
5.34 2.6 0.87 3.57e-43
5.39 2.6 0.87 3.57e-43
5.46 2.6 0.87 3.57e-43
5.5 2.6 0.87 3.57e-43
5.54 2.6 0.87 3.57e-43
5.61 2.6 0.87 3.57e-43
5.65 2.6 0.87 3.57e-43
5.71 2.6 0.87 3.57e-43
5.75 2.6 0.87 3.57e-43
5.88 2.6 0.87 3.57e-43
5.84 2.6 0.87 3.57e-43
5.9 2.6 0.87 3.57e-43
5.96 2.6 0.87 3.57e-43
6.29 2.6 0.87 3.57e-43
6.35 2.6 0.87 3.57e-43
6.18 2.6 0.87 3.57e-43
6.25 2.6 0.87 3.57e-43
6.1 2.6 0.87 3.57e-43
6.16 2.6 1.32 9.1477e-41
4.78 2.62 0.83 3.57e-43
4.86 2.62 0.85 9.1477e-41
4.9 2.62 0.85 3.57e-43
4.92 2.62 0.85 3.57e-43
5.04 2.62 0.85 3.57e-43
5.08 2.62 0.85 3.57e-43
5.13 2.62 0.85 3.57e-43
5.18 2.62 0.85 3.57e-43
5.23 2.62 0.85 3.57e-43
5.1 2.62 0.85 3.57e-43
5.15 2.62 0.85 3.57e-43
5.19 2.62 0.85 3.57e-43
5.22 2.62 0.85 3.57e-43
5.26 2.62 0.85 3.57e-43
5.3 2.62 0.85 3.57e-43
5.34 2.62 0.85 3.57e-43
5.39 2.62 0.85 3.57e-43
5.46 2.62 0.85 3.57e-43
5.5 2.62 0.85 3.57e-43
5.54 2.62 0.85 3.57e-43
5.61 2.62 0.85 3.57e-43
5.65 2.62 0.85 3.57e-43
5.71 2.62 0.85 3.57e-43
5.75 2.62 0.85 3.57e-43
5.88 2.62 0.85 3.57e-43
5.84 2.62 0.85 3.57e-43
5.9 2.62 0.85 3.57e-43
5.96 2.62 0.85 3.57e-43
6.29 2.62 0.85 3.57e-43
6.35 2.62 0.85 3.57e-43
6.18 2.62 0.85 3.57e-43
6.25 2.62 0.85 3.57e-43
6.1 2.62 0.85 3.57e-43
6.16 2.62 1.32 9.1477e-41
4.78 2.64 0.83 3.57e-43
4.87 2.64 0.82 9.1477e-41
4.91 2.64 0.85 9.1477e-41
4.94 2.64 0.85 3.57e-43
5.04 2.64 0.63 9.1477e-41
5.02 2.64 0.63 3.57e-43
5.13 2.64 0.63 3.57e-43
5.18 2.64 0.63 3.57e-43
5.23 2.64 0.63 3.57e-43
5.1 2.64 0.63 3.57e-43
5.15 2.64 0.63 3.57e-43
5.19 2.64 0.63 3.57e-43
5.22 2.64 0.63 3.57e-43
5.26 2.64 0.63 3.57e-43
5.3 2.64 0.63 3.57e-43
5.34 2.64 0.63 3.57e-43
5.39 2.64 0.63 3.57e-43
5.46 2.64 0.63 3.57e-43
5.5 2.64 0.63 3.57e-43
5.54 2.64 0.63 3.57e-43
5.61 2.64 0.63 3.57e-43
5.65 2.64 0.63 3.57e-43
5.71 2.64 0.63 3.57e-43
5.75 2.64 0.63 3.57e-43
5.88 2.64 0.63 3.57e-43
5.84 2.64 0.63 3.57e-43
5.9 2.64 0.63 3.57e-43
5.96 2.64 0.63 3.57e-43
6.29 2.64 0.63 3.57e-43
6.35 2.64 0.63 3.57e-43
6.18 2.64 0.63 3.57e-43
6.25 2.64 0.63 3.57e-43
6.1 2.64 0.63 3.57e-43
6.16 2.64 1.32 9.1477e-41
4.78 2.66 0.83 3.57e-43
4.87 2.66 0.8 9.1477e-41
4.91 2.66 0.82 9.1477e-41
4.94 2.66 0.82 3.57e-43
5.04 2.66 0.82 3.57e-43
5.02 2.66 0.82 3.57e-43
5.13 2.66 0.82 3.57e-43
5.18 2.66 0.82 3.57e-43
5.23 2.66 0.6 9.1477e-41
5.18 2.66 0.6 3.57e-43
5.15 2.66 0.6 3.57e-43
5.19 2.66 0.6 3.57e-43
5.22 2.66 0.6 3.57e-43
5.26 2.66 0.6 3.57e-43
5.3 2.66 0.6 3.57e-43
5.34 2.66 0.6 3.57e-43
5.39 2.66 0.6 3.57e-43
5.46 2.66 0.6 3.57e-43
5.5 2.66 0.6 3.57e-43
5.54 2.66 0.6 3.57e-43
5.61 2.66 0.6 3.57e-43
5.65 2.66 0.6 3.57e-43
5.71 2.66 0.6 3.57e-43
5.75 2.66 0.6 3.57e-43
5.88 2.66 0.6 3.57e-43
5.84 2.66 0.6 3.57e-43
5.9 2.66 0.6 3.57e-43
5.96 2.66 0.6 3.57e-43
6.29 2.66 0.6 3.57e-43
6.35 2.66 0.6 3.57e-43
6.18 2.66 0.6 3.57e-43
6.25 2.66 0.6 3.57e-43
6.1 2.66 0.6 3.57e-43
6.16 2.66 1.32 9.1477e-41
4.78 2.68 0.83 3.57e-43
4.88 2.68 0.74 9.1477e-41
4.92 2.68 0.79 9.1477e-41
4.96 2.68 0.79 9.1477e-41
4.99 2.68 0.79 3.57e-43
5.02 2.68 0.79 3.57e-43
5.13 2.68 0.79 3.57e-43
5.18 2.68 0.63 9.1477e-41
5.15 2.68 0.97 9.1477e-41
5.18 2.68 1 9.1477e-41
5.22 2.68 1.02 9.1477e-41
5.27 2.68 1.02 9.1477e-41
5.31 2.68 1.03 9.1477e-41
5.36 2.68 1.03 3.57e-43
5.3 2.68 1.03 3.57e-43
5.34 2.68 1.03 3.57e-43
5.39 2.68 1.03 3.57e-43
5.46 2.68 1.03 3.57e-43
5.5 2.68 1.03 3.57e-43
5.54 2.68 1.03 3.57e-43
5.61 2.68 1.03 3.57e-43
5.65 2.68 1.03 3.57e-43
5.71 2.68 1.03 3.57e-43
5.75 2.68 1.03 3.57e-43
5.88 2.68 1.03 3.57e-43
5.84 2.68 1.03 3.57e-43
5.9 2.68 1.03 3.57e-43
5.96 2.68 1.03 3.57e-43
6.29 2.68 1.03 3.57e-43
6.35 2.68 1.03 3.57e-43
6.18 2.68 1.03 3.57e-43
6.25 2.68 1.03 3.57e-43
6.1 2.68 1.36 9.1477e-41
4.78 2.7 0.74 3.57e-43
4.93 2.7 0.72 9.1477e-41
4.97 2.7 0.76 9.1477e-41
5 2.7 0.8 9.1477e-41
5.04 2.7 0.8 3.57e-43
5.13 2.7 0.8 3.57e-43
5.18 2.7 0.8 3.57e-43
5.15 2.7 0.8 3.57e-43
5.18 2.7 0.8 3.57e-43
5.22 2.7 1.02 9.1477e-41
5.28 2.7 0.96 9.1477e-41
5.32 2.7 0.99 9.1477e-41
5.35 2.7 1.04 9.1477e-41
5.4 2.7 1.03 9.1477e-41
5.44 2.7 1.02 9.1477e-41
5.49 2.7 1.04 9.1477e-41
5.53 2.7 1.03 9.1477e-41
5.58 2.7 1.02 9.1477e-41
5.63 2.7 1.02 3.57e-43
5.61 2.7 1.02 3.57e-43
5.65 2.7 1.02 3.57e-43
5.71 2.7 1.02 3.57e-43
5.75 2.7 1.02 3.57e-43
5.88 2.7 1.02 3.57e-43
5.84 2.7 1.02 3.57e-43
5.9 2.7 1.02 3.57e-43
5.96 2.7 1.02 3.57e-43
6.29 2.7 1.02 3.57e-43
6.35 2.7 1.02 3.57e-43
6.18 2.7 1.02 3.57e-43
6.25 2.7 0.91 9.1477e-41
6.31 2.7 0.9 9.1477e-41
4.95 2.72 0.5 3.57e-43
4.98 2.72 0.68 9.1477e-41
5.02 2.72 0.72 9.1477e-41
5.06 2.72 0.77 9.1477e-41
5.09 2.72 0.77 3.57e-43
5.18 2.72 0.77 3.57e-43
5.15 2.72 0.77 3.57e-43
5.18 2.72 0.77 3.57e-43
5.22 2.72 0.77 3.57e-43
5.28 2.72 0.77 3.57e-43
5.32 2.72 0.77 3.57e-43
5.35 2.72 0.77 3.57e-43
5.4 2.72 1.03 9.1477e-41
5.46 2.72 1.03 3.57e-43
5.49 2.72 1.04 9.1477e-41
5.54 2.72 1.01 9.1477e-41
5.58 2.72 1.02 9.1477e-41
5.63 2.72 1.02 9.1477e-41
5.68 2.72 1.02 3.57e-43
5.65 2.72 1.02 3.57e-43
5.71 2.72 1.02 3.57e-43
5.75 2.72 1.02 3.57e-43
5.88 2.72 1.02 3.57e-43
5.84 2.72 1.02 3.57e-43
5.9 2.72 1.02 3.57e-43
5.96 2.72 1.02 3.57e-43
6.29 2.72 1.02 3.57e-43
6.35 2.72 1.02 3.57e-43
6.18 2.72 0.96 9.1477e-41
4.92 2.74 0.5 9.1477e-41
4.95 2.74 0.5 3.57e-43
4.98 2.74 0.68 9.1477e-41
5.04 2.74 0.68 3.57e-43
5.06 2.74 0.77 9.1477e-41
5.12 2.74 0.7 9.1477e-41
5.16 2.74 0.72 9.1477e-41
5.2 2.74 0.73 9.1477e-41
5.23 2.74 0.73 3.57e-43
5.22 2.74 0.73 3.57e-43
5.28 2.74 0.73 3.57e-43
5.32 2.74 0.73 3.57e-43
5.35 2.74 0.73 3.57e-43
5.4 2.74 0.73 3.57e-43
5.46 2.74 0.73 3.57e-43
5.49 2.74 0.73 3.57e-43
5.54 2.74 1.01 9.1477e-41
5.61 2.74 0.93 9.1477e-41
5.65 2.74 0.93 3.57e-43
5.68 2.74 0.93 3.57e-43
5.65 2.74 0.93 3.57e-43
5.71 2.74 0.93 3.57e-43
5.75 2.74 0.93 3.57e-43
5.88 2.74 0.93 3.57e-43
5.84 2.74 0.93 3.57e-43
5.9 2.74 1.17 9.1477e-41
6.07 2.74 0.87 9.1477e-41
6.14 2.74 0.82 9.1477e-41
6.2 2.74 0.8 9.1477e-41
6.3 2.74 0.68 9.1477e-41
5.02 2.76 0.49 9.1477e-41
5.06 2.76 0.53 9.1477e-41
5.09 2.76 0.53 3.57e-43
5.12 2.76 0.53 3.57e-43
5.16 2.76 0.72 9.1477e-41
5.23 2.76 0.61 9.1477e-41
5.27 2.76 0.65 9.1477e-41
5.32 2.76 0.64 9.1477e-41
5.35 2.76 0.68 9.1477e-41
5.4 2.76 0.69 9.1477e-41
5.45 2.76 0.67 9.1477e-41
5.49 2.76 0.7 9.1477e-41
5.54 2.76 0.7 9.1477e-41
5.59 2.76 0.68 9.1477e-41
5.64 2.76 0.69 9.1477e-41
5.68 2.76 0.72 9.1477e-41
