# .PCD v.7 - Point Cloud Data file format
VERSION .7
FIELDS x y z rgb
SIZE 4 4 4 4
TYPE F F F F
WIDTH 536
HEIGHT 1
POINTS 536
DATA ascii
3.25 0 0.64 9.1477e-41
3.3 0 0.65 9.1477e-41
3.34 0 0.65 3.57e-43
3.3 0 0.65 3.57e-43
3.35 0 0.65 3.57e-43
3.4 0 0.65 3.57e-43
3.45 0 0.65 3.57e-43
3.5 0 0.65 3.57e-43
3.66 0 0.73 9.1477e-41
3.71 0 0.73 9.1477e-41
3.75 0 0.75 9.1477e-41
3.79 0 0.74 9.1477e-41
3.84 0 0.72 9.1477e-41
3.88 0 0.72 3.57e-43
3.9 0 0.72 3.57e-43
3.95 0 0.72 3.57e-43
3.99 0 0.72 3.57e-43
4.05 0 0.72 3.57e-43
4.18 0 0.61 9.1477e-41
4.23 0 0.61 9.1477e-41
4.27 0 0.61 9.1477e-41
4.32 0 0.54 9.1477e-41
4.37 0 0.42 9.1477e-41
2.98 0.2 0.64 9.1477e-41
3.04 0.2 0.73 9.1477e-41
3.09 0.2 0.72 9.1477e-41
3.13 0.2 0.69 9.1477e-41
3.18 0.2 0.69 3.57e-43
3.1 0.2 0.69 3.57e-43
3.25 0.2 0.69 3.57e-43
3.3 0.2 0.69 3.57e-43
3.34 0.2 0.69 3.57e-43
3.3 0.2 0.69 3.57e-43
3.35 0.2 0.69 3.57e-43
3.4 0.2 0.69 3.57e-43
3.45 0.2 0.69 3.57e-43
3.5 0.2 0.69 3.57e-43
3.55 0.2 0.69 3.57e-43
3.66 0.2 0.69 3.57e-43
3.71 0.2 0.69 3.57e-43
3.75 0.2 0.69 3.57e-43
3.79 0.2 0.69 3.57e-43
3.84 0.2 0.69 3.57e-43
3.88 0.2 0.69 3.57e-43
3.9 0.2 0.69 3.57e-43
3.95 0.2 0.69 3.57e-43
3.99 0.2 0.69 3.57e-43
4.05 0.2 0.69 3.57e-43
4.09 0.2 0.69 3.57e-43
4.14 0.2 0.69 3.57e-43
4.18 0.2 0.69 3.57e-43
4.23 0.2 0.69 3.57e-43
4.27 0.2 0.69 3.57e-43
4.32 0.2 0.54 9.1477e-41
4.36 0.2 0.65 9.1477e-41
4.4 0.2 0.62 9.1477e-41
4.45 0.2 0.63 9.1477e-41
4.49 0.2 0.63 3.57e-43
3.03 0.4 0.87 9.1477e-41
3.07 0.4 0.87 3.57e-43
3.09 0.4 0.87 3.57e-43
3.13 0.4 0.87 3.57e-43
3.18 0.4 0.87 3.57e-43
3.1 0.4 0.87 3.57e-43
3.25 0.4 0.87 3.57e-43
3.3 0.4 0.87 3.57e-43
3.34 0.4 0.87 3.57e-43
3.3 0.4 0.87 3.57e-43
3.35 0.4 0.87 3.57e-43
3.4 0.4 0.87 3.57e-43
3.45 0.4 0.87 3.57e-43
3.64 0.4 0.87 3.57e-43
3.66 0.4 0.73 9.1477e-41
3.72 0.4 0.94 9.1477e-41
3.76 0.4 0.94 9.1477e-41
3.81 0.4 0.93 9.1477e-41
3.85 0.4 0.94 9.1477e-41
3.89 0.4 0.94 9.1477e-41
3.93 0.4 0.92 9.1477e-41
3.97 0.4 0.93 9.1477e-41
4.01 0.4 0.93 3.57e-43
4.05 0.4 0.93 3.57e-43
4.14 0.4 0.93 3.57e-43
4.18 0.4 0.93 3.57e-43
4.23 0.4 0.93 3.57e-43
4.27 0.4 0.93 3.57e-43
4.32 0.4 0.93 3.57e-43
4.36 0.4 0.93 3.57e-43
4.4 0.4 0.93 3.57e-43
4.45 0.4 0.63 9.1477e-41
4.48 0.4 0.8 9.1477e-41
4.52 0.4 0.76 9.1477e-41
4.57 0.4 0.74 9.1477e-41
3.13 0.6 0.85 3.57e-43
3.22 0.6 0.96 9.1477e-41
3.26 0.6 0.95 9.1477e-41
3.3 0.6 0.95 9.1477e-41
3.35 0.6 0.94 9.1477e-41
3.39 0.6 0.95 9.1477e-41
3.43 0.6 0.95 9.1477e-41
3.47 0.6 0.96 9.1477e-41
3.52 0.6 0.96 9.1477e-41
3.56 0.6 0.97 9.1477e-41
3.6 0.6 0.97 9.1477e-41
3.64 0.6 0.97 9.1477e-41
3.68 0.6 0.98 9.1477e-41
3.73 0.6 0.98 9.1477e-41
3.77 0.6 0.98 9.1477e-41
3.81 0.6 0.97 9.1477e-41
3.85 0.6 0.95 9.1477e-41
3.89 0.6 0.97 9.1477e-41
3.93 0.6 0.96 9.1477e-41
3.97 0.6 0.97 9.1477e-41
4.01 0.6 0.96 9.1477e-41
4.05 0.6 0.94 9.1477e-41
4.09 0.6 0.94 9.1477e-41
4.18 0.6 0.92 9.1477e-41
4.22 0.6 0.88 9.1477e-41
4.26 0.6 0.88 3.57e-43
4.32 0.6 0.88 3.57e-43
4.36 0.6 0.88 3.57e-43
4.4 0.6 0.88 3.57e-43
4.45 0.6 0.88 3.57e-43
4.48 0.6 0.88 3.57e-43
4.52 0.6 0.88 3.57e-43
4.57 0.6 0.74 9.1477e-41
3.03 0.8 0.85 3.57e-43
3.14 0.8 0.85 3.57e-43
3.13 0.8 0.85 3.57e-43
3.22 0.8 0.96 9.1477e-41
3.27 0.8 1.02 9.1477e-41
3.31 0.8 1.02 3.57e-43
3.35 0.8 0.94 9.1477e-41
3.4 0.8 1.01 9.1477e-41
3.44 0.8 0.99 9.1477e-41
3.48 0.8 1 9.1477e-41
3.52 0.8 1 9.1477e-41
3.56 0.8 1 9.1477e-41
3.6 0.8 1 9.1477e-41
3.65 0.8 1.02 9.1477e-41
3.68 0.8 0.98 9.1477e-41
3.73 0.8 1 9.1477e-41
3.77 0.8 1.01 9.1477e-41
3.81 0.8 1 9.1477e-41
3.85 0.8 1 9.1477e-41
3.89 0.8 1 9.1477e-41
3.93 0.8 1 9.1477e-41
3.97 0.8 0.99 9.1477e-41
4.01 0.8 0.99 9.1477e-41
4.05 0.8 1 9.1477e-41
4.09 0.8 1 9.1477e-41
4.18 0.8 0.98 9.1477e-41
4.22 0.8 0.98 9.1477e-41
4.26 0.8 0.98 9.1477e-41
4.3 0.8 0.98 3.57e-43
4.36 0.8 0.98 3.57e-43
4.4 0.8 0.98 3.57e-43
4.45 0.8 0.98 3.57e-43
4.48 0.8 0.98 3.57e-43
4.52 0.8 0.98 3.57e-43
4.57 0.8 0.74 9.1477e-41
3.65 1 0.99 3.57e-43
3.69 1 1.02 9.1477e-41
3.73 1 1.03 9.1477e-41
3.77 1 1.03 9.1477e-41
3.81 1 1.03 9.1477e-41
3.85 1 1.02 9.1477e-41
3.89 1 1.02 3.57e-43
3.93 1 1.02 3.57e-43
3.97 1 1.02 3.57e-43
4.01 1 1.02 3.57e-43
4.05 1 1.02 3.57e-43
4.09 1 1.02 3.57e-43
4.14 1 1.02 3.57e-43
4.18 1 1.02 3.57e-43
4.22 1 1.02 3.57e-43
4.26 1 1.02 3.57e-43
4.3 1 1.02 3.57e-43
4.36 1 1.02 3.57e-43
4.4 1 1.02 3.57e-43
4.45 1 1.02 3.57e-43
4.48 1 1.02 3.57e-43
4.52 1 0.76 9.1477e-41
4.56 1 0.89 9.1477e-41
2.94 1.2 1.04 9.1477e-41
2.95 1.2 1.04 3.57e-43
2.99 1.2 1.04 3.57e-43
3.03 1.2 1.04 3.57e-43
3.07 1.2 1.04 3.57e-43
3.14 1.2 1 9.1477e-41
3.08 1.2 0.43 9.1477e-41
3.13 1.2 0.43 3.57e-43
3.27 1.2 0.43 3.57e-43
3.31 1.2 0.43 3.57e-43
3.35 1.2 0.43 3.57e-43
3.4 1.2 0.43 3.57e-43
3.44 1.2 0.99 9.1477e-41
3.48 1.2 0.99 3.57e-43
3.6 1.2 0.99 3.57e-43
3.65 1.2 0.99 3.57e-43
3.69 1.2 0.99 3.57e-43
3.73 1.2 0.99 3.57e-43
3.77 1.2 0.99 3.57e-43
3.81 1.2 0.99 3.57e-43
3.85 1.2 0.99 3.57e-43
3.89 1.2 0.99 3.57e-43
3.93 1.2 0.99 3.57e-43
3.97 1.2 0.99 3.57e-43
4.01 1.2 0.99 3.57e-43
4.05 1.2 0.99 3.57e-43
4.09 1.2 0.99 3.57e-43
4.14 1.2 0.99 3.57e-43
4.18 1.2 0.99 3.57e-43
4.22 1.2 0.98 9.1477e-41
4.27 1.2 0.58 9.1477e-41
4.32 1.2 0.58 3.57e-43
4.36 1.2 0.65 9.1477e-41
4.41 1.2 0.65 3.57e-43
4.45 1.2 0.65 3.57e-43
4.48 1.2 0.65 3.57e-43
4.52 1.2 0.76 9.1477e-41
4.56 1.2 0.88 9.1477e-41
4.59 1.2 0.88 3.57e-43
4.74 1.2 0.88 3.57e-43
3.27 1.4 1.41 3.57e-43
3.29 1.4 1.35 9.1477e-41
3.32 1.4 1.3 9.1477e-41
3.24 1.4 0.57 9.1477e-41
3.29 1.4 0.57 9.1477e-41
3.33 1.4 0.55 9.1477e-41
3.38 1.4 0.55 3.57e-43
3.38 1.4 0.55 3.57e-43
3.43 1.4 0.55 3.57e-43
3.48 1.4 0.55 3.57e-43
3.6 1.4 0.55 3.57e-43
3.65 1.4 0.55 3.57e-43
3.69 1.4 0.55 3.57e-43
3.73 1.4 0.55 3.57e-43
3.77 1.4 0.55 3.57e-43
3.81 1.4 0.55 3.57e-43
3.85 1.4 0.55 3.57e-43
3.89 1.4 0.55 3.57e-43
3.93 1.4 0.55 3.57e-43
3.97 1.4 0.55 3.57e-43
4.01 1.4 0.55 3.57e-43
4.05 1.4 0.55 3.57e-43
4.09 1.4 0.55 3.57e-43
4.14 1.4 0.55 3.57e-43
4.18 1.4 0.55 3.57e-43
4.22 1.4 0.98 9.1477e-41
4.26 1.4 0.99 9.1477e-41
4.3 1.4 0.99 3.57e-43
4.36 1.4 0.99 3.57e-43
4.41 1.4 0.99 3.57e-43
4.45 1.4 0.63 9.1477e-41
4.47 1.4 0.93 9.1477e-41
4.51 1.4 0.88 9.1477e-41
4.56 1.4 0.88 9.1477e-41
3.02 1.6 1 3.57e-43
3.27 1.6 1.41 9.1477e-41
3.31 1.6 1.41 3.57e-43
3.32 1.6 1.41 3.57e-43
3.24 1.6 0.57 9.1477e-41
3.42 1.6 1.43 9.1477e-41
3.46 1.6 1.44 9.1477e-41
3.5 1.6 1.43 9.1477e-41
3.54 1.6 1.42 9.1477e-41
3.57 1.6 1.44 9.1477e-41
3.61 1.6 1.42 9.1477e-41
3.65 1.6 1.44 9.1477e-41
3.69 1.6 1.43 9.1477e-41
3.72 1.6 1.44 9.1477e-41
3.76 1.6 1.43 9.1477e-41
3.8 1.6 1.43 9.1477e-41
3.83 1.6 1.42 9.1477e-41
3.87 1.6 1.42 9.1477e-41
3.91 1.6 1.43 9.1477e-41
3.95 1.6 1.43 9.1477e-41
3.98 1.6 1.43 9.1477e-41
4.02 1.6 1.42 9.1477e-41
4.06 1.6 1.42 9.1477e-41
4.09 1.6 1.42 9.1477e-41
4.17 1.6 1.42 9.1477e-41
4.21 1.6 1.4 9.1477e-41
4.24 1.6 1.39 9.1477e-41
4.28 1.6 1.39 9.1477e-41
4.32 1.6 1.39 3.57e-43
4.41 1.6 0.45 9.1477e-41
4.42 1.6 1.01 9.1477e-41
4.47 1.6 0.95 9.1477e-41
4.51 1.6 0.9 9.1477e-41
4.56 1.6 0.91 9.1477e-41
3.02 1.8 1 3.57e-43
3.27 1.8 1.44 9.1477e-41
3.31 1.8 1.44 9.1477e-41
3.35 1.8 1.44 9.1477e-41
3.39 1.8 1.45 9.1477e-41
3.43 1.8 1.46 9.1477e-41
3.47 1.8 1.46 9.1477e-41
3.5 1.8 1.46 9.1477e-41
3.54 1.8 1.46 9.1477e-41
3.58 1.8 1.47 9.1477e-41
3.61 1.8 1.45 9.1477e-41
3.65 1.8 1.45 9.1477e-41
3.69 1.8 1.45 9.1477e-41
3.73 1.8 1.45 9.1477e-41
3.76 1.8 1.45 9.1477e-41
3.8 1.8 1.46 9.1477e-41
3.84 1.8 1.45 9.1477e-41
3.87 1.8 1.44 9.1477e-41
3.91 1.8 1.45 9.1477e-41
3.95 1.8 1.45 9.1477e-41
3.98 1.8 1.45 9.1477e-41
4.02 1.8 1.44 9.1477e-41
4.06 1.8 1.43 9.1477e-41
4.09 1.8 1.44 9.1477e-41
4.17 1.8 1.43 9.1477e-41
4.21 1.8 1.44 9.1477e-41
4.24 1.8 1.42 9.1477e-41
4.28 1.8 1.4 9.1477e-41
4.32 1.8 1.4 3.57e-43
4.41 1.8 1.4 3.57e-43
4.42 1.8 1.01 9.1477e-41
4.47 1.8 0.91 9.1477e-41
4.51 1.8 0.92 9.1477e-41
4.55 1.8 0.92 3.57e-43
3.02 2 1 3.57e-43
3.27 2 1.44 9.1477e-41
3.31 2 1.45 9.1477e-41
3.35 2 1.46 9.1477e-41
3.39 2 1.44 9.1477e-41
3.43 2 1.46 9.1477e-41
3.47 2 1.46 9.1477e-41
3.5 2 1.46 9.1477e-41
3.54 2 1.46 9.1477e-41
3.58 2 1.47 9.1477e-41
3.62 2 1.46 9.1477e-41
3.65 2 1.46 9.1477e-41
3.69 2 1.46 9.1477e-41
3.73 2 1.46 9.1477e-41
3.76 2 1.47 9.1477e-41
3.8 2 1.47 9.1477e-41
3.84 2 1.45 9.1477e-41
3.87 2 1.46 9.1477e-41
3.91 2 1.46 9.1477e-41
3.95 2 1.46 9.1477e-41
3.98 2 1.44 9.1477e-41
4.02 2 1.45 9.1477e-41
4.06 2 1.45 9.1477e-41
4.09 2 1.45 9.1477e-41
4.17 2 1.44 9.1477e-41
4.21 2 1.44 9.1477e-41
4.24 2 1.43 9.1477e-41
4.28 2 1.4 9.1477e-41
4.32 2 1.4 3.57e-43
4.41 2 1.4 3.57e-43
4.42 2 1.4 3.57e-43
4.47 2 1.4 3.57e-43
4.51 2 0.92 9.1477e-41
4.55 2 0.95 9.1477e-41
3.02 2.2 1 3.57e-43
3.27 2.2 1.44 9.1477e-41
3.31 2.2 1.45 9.1477e-41
3.35 2.2 1.45 9.1477e-41
3.39 2.2 1.46 9.1477e-41
3.43 2.2 1.46 9.1477e-41
3.47 2.2 1.46 9.1477e-41
3.5 2.2 1.46 9.1477e-41
3.54 2.2 1.46 9.1477e-41
3.58 2.2 1.47 9.1477e-41
3.61 2.2 1.45 9.1477e-41
3.65 2.2 1.46 9.1477e-41
3.69 2.2 1.45 9.1477e-41
3.73 2.2 1.46 9.1477e-41
3.76 2.2 1.46 9.1477e-41
3.8 2.2 1.47 9.1477e-41
3.84 2.2 1.45 9.1477e-41
3.87 2.2 1.46 9.1477e-41
3.91 2.2 1.45 9.1477e-41
3.95 2.2 1.44 9.1477e-41
3.98 2.2 1.44 9.1477e-41
4.02 2.2 1.44 9.1477e-41
4.06 2.2 1.44 9.1477e-41
4.09 2.2 1.44 9.1477e-41
4.17 2.2 1.44 9.1477e-41
4.21 2.2 1.42 9.1477e-41
4.24 2.2 1.42 9.1477e-41
4.28 2.2 1.42 3.57e-43
4.32 2.2 1.42 3.57e-43
4.41 2.2 1.42 3.57e-43
4.42 2.2 1.42 3.57e-43
4.47 2.2 1.42 3.57e-43
4.51 2.2 0.92 9.1477e-41
4.55 2.2 0.96 9.1477e-41
3.02 2.4 1.44 3.57e-43
3.31 2.4 1.43 9.1477e-41
3.34 2.4 1.42 9.1477e-41
3.39 2.4 1.43 9.1477e-41
3.43 2.4 1.45 9.1477e-41
3.46 2.4 1.44 9.1477e-41
3.5 2.4 1.44 9.1477e-41
3.54 2.4 1.44 9.1477e-41
3.58 2.4 1.46 9.1477e-41
3.61 2.4 1.44 9.1477e-41
3.65 2.4 1.45 9.1477e-41
3.69 2.4 1.44 9.1477e-41
3.72 2.4 1.44 9.1477e-41
3.76 2.4 1.45 9.1477e-41
3.8 2.4 1.44 9.1477e-41
3.84 2.4 1.43 9.1477e-41
3.87 2.4 1.44 9.1477e-41
3.91 2.4 1.43 9.1477e-41
3.95 2.4 1.43 9.1477e-41
3.98 2.4 1.44 9.1477e-41
4.02 2.4 1.44 9.1477e-41
4.06 2.4 1.42 9.1477e-41
4.09 2.4 1.42 9.1477e-41
4.17 2.4 1.43 9.1477e-41
4.21 2.4 1.41 9.1477e-41
4.24 2.4 1.4 9.1477e-41
4.28 2.4 1.4 3.57e-43
4.32 2.4 1.4 3.57e-43
4.41 2.4 1.4 3.57e-43
4.42 2.4 1.4 3.57e-43
4.47 2.4 0.91 9.1477e-41
4.5 2.4 0.91 3.57e-43
4.55 2.4 0.96 9.1477e-41
3.02 2.6 1.44 3.57e-43
3.3 2.6 1.4 9.1477e-41
3.34 2.6 1.4 3.57e-43
3.39 2.6 1.43 9.1477e-41
3.42 2.6 1.4 9.1477e-41
3.46 2.6 1.4 9.1477e-41
3.5 2.6 1.42 9.1477e-41
3.53 2.6 1.41 9.1477e-41
3.57 2.6 1.42 9.1477e-41
3.61 2.6 1.42 9.1477e-41
3.65 2.6 1.41 9.1477e-41
3.69 2.6 1.42 9.1477e-41
3.72 2.6 1.42 9.1477e-41
3.76 2.6 1.42 9.1477e-41
3.8 2.6 1.42 9.1477e-41
3.83 2.6 1.41 9.1477e-41
3.87 2.6 1.42 9.1477e-41
3.91 2.6 1.42 9.1477e-41
3.95 2.6 1.41 9.1477e-41
3.98 2.6 1.42 9.1477e-41
4.02 2.6 1.41 9.1477e-41
4.06 2.6 1.41 9.1477e-41
4.09 2.6 1.41 9.1477e-41
4.17 2.6 1.4 9.1477e-41
4.21 2.6 1.38 9.1477e-41
4.25 2.6 1.38 9.1477e-41
4.28 2.6 1.38 3.57e-43
4.32 2.6 1.38 3.57e-43
4.41 2.6 1.38 3.57e-43
4.42 2.6 1.38 3.57e-43
4.47 2.6 1.38 3.57e-43
4.5 2.6 1.38 3.57e-43
4.55 2.6 0.96 9.1477e-41
3.14 2.8 1.42 3.57e-43
3.64 2.8 1.39 9.1477e-41
3.68 2.8 1.36 9.1477e-41
3.72 2.8 1.39 9.1477e-41
3.76 2.8 1.38 9.1477e-41
3.79 2.8 1.38 9.1477e-41
3.83 2.8 1.38 9.1477e-41
3.87 2.8 1.39 9.1477e-41
3.91 2.8 1.38 9.1477e-41
3.95 2.8 1.39 9.1477e-41
3.98 2.8 1.38 9.1477e-41
4.02 2.8 1.37 9.1477e-41
4.06 2.8 1.35 9.1477e-41
4.09 2.8 1.35 3.57e-43
4.13 2.8 1.35 3.57e-43
4.17 2.8 1.35 3.57e-43
4.21 2.8 1.35 3.57e-43
4.25 2.8 1.35 3.57e-43
4.28 2.8 1.35 3.57e-43
4.32 2.8 1.35 3.57e-43
4.41 2.8 1.35 3.57e-43
4.42 2.8 1.35 3.57e-43
4.47 2.8 1.35 3.57e-43
4.5 2.8 1.35 3.57e-43
4.55 2.8 0.96 9.1477e-41
3.83 3 0.77 3.57e-43
3.84 3 0.9 9.1477e-41
3.89 3 0.9 3.57e-43
3.95 3 0.9 3.57e-43
3.98 3 0.9 3.57e-43
4.02 3 0.9 3.57e-43
4.06 3 0.9 3.57e-43
4.09 3 0.9 3.57e-43
4.13 3 0.9 3.57e-43
4.17 3 0.9 3.57e-43
4.21 3 0.9 3.57e-43
4.25 3 0.9 3.57e-43
4.28 3 0.9 3.57e-43
4.32 3 0.9 3.57e-43
4.41 3 0.9 3.57e-43
4.42 3 0.9 3.57e-43
4.47 3 0.91 9.1477e-41
4.51 3 0.91 9.1477e-41
4.56 3 0.88 9.1477e-41
3.14 3.2 1.44 3.57e-43
3.18 3.2 0.75 9.1477e-41
3.23 3.2 0.77 9.1477e-41
3.28 3.2 0.77 3.57e-43
3.42 3.2 0.77 3.57e-43
3.46 3.2 0.77 3.57e-43
3.5 3.2 0.77 3.57e-43
3.53 3.2 0.77 3.57e-43
3.57 3.2 0.77 3.57e-43
3.61 3.2 0.77 3.57e-43
3.64 3.2 0.77 3.57e-43
3.68 3.2 0.77 3.57e-43
3.72 3.2 0.77 3.57e-43
3.76 3.2 0.77 3.57e-43
3.79 3.2 0.77 3.57e-43
3.83 3.2 0.77 3.57e-43
3.84 3.2 0.77 3.57e-43
3.89 3.2 0.77 3.57e-43
3.95 3.2 0.77 3.57e-43
3.98 3.2 0.77 3.57e-43
4.02 3.2 0.77 3.57e-43
4.06 3.2 0.77 3.57e-43
4.09 3.2 0.77 3.57e-43
4.13 3.2 0.77 3.57e-43
4.17 3.2 0.77 3.57e-43
4.21 3.2 0.77 3.57e-43
4.25 3.2 0.77 3.57e-43
4.28 3.2 1.37 9.1477e-41
4.35 3.2 0.76 9.1477e-41
4.4 3.2 0.74 9.1477e-41
4.44 3.2 0.74 3.57e-43
4.47 3.2 0.91 9.1477e-41
