# .PCD v.7 - Point Cloud Data file format
VERSION .7
FIELDS x y z rgb
SIZE 4 4 4 4
TYPE F F F F
WIDTH 1881
HEIGHT 1
POINTS 1881
DATA ascii
5.36 0 0.44 9.1477e-41
5.41 0 0.47 9.1477e-41
5.45 0 0.48 9.1477e-41
5.51 0 0.47 9.1477e-41
5.56 0 0.45 9.1477e-41
5.61 0 0.45 9.1477e-41
4.86 0.09 0.6 9.1477e-41
4.89 0.09 0.67 9.1477e-41
4.94 0.09 0.67 9.1477e-41
4.98 0.09 0.69 9.1477e-41
5.02 0.09 0.69 3.57e-43
5.21 0.09 0.69 3.57e-43
5.26 0.09 0.69 3.57e-43
5.31 0.09 0.69 3.57e-43
5.3 0.09 0.69 3.57e-43
5.33 0.09 0.69 3.57e-43
5.36 0.09 0.69 3.57e-43
5.41 0.09 0.69 3.57e-43
5.45 0.09 0.69 3.57e-43
5.51 0.09 0.69 3.57e-43
5.56 0.09 0.69 3.57e-43
5.61 0.09 0.69 3.57e-43
5.8 0.09 0.69 3.57e-43
5.86 0.09 0.69 3.57e-43
5.76 0.09 0.63 9.1477e-41
5.82 0.09 0.59 9.1477e-41
5.87 0.09 0.6 9.1477e-41
5.91 0.09 0.63 9.1477e-41
4.76 0.18 0.62 9.1477e-41
4.8 0.18 0.68 9.1477e-41
4.84 0.18 0.72 9.1477e-41
4.88 0.18 0.75 9.1477e-41
4.92 0.18 0.75 9.1477e-41
4.97 0.18 0.75 9.1477e-41
5.01 0.18 0.75 9.1477e-41
5.05 0.18 0.81 9.1477e-41
5.09 0.18 0.82 9.1477e-41
5.13 0.18 0.82 9.1477e-41
5.18 0.18 0.83 9.1477e-41
5.22 0.18 0.84 9.1477e-41
5.27 0.18 0.84 9.1477e-41
5.31 0.18 0.85 9.1477e-41
5.36 0.18 0.85 9.1477e-41
5.4 0.18 0.86 9.1477e-41
5.45 0.18 0.85 9.1477e-41
5.49 0.18 0.86 9.1477e-41
5.54 0.18 0.85 9.1477e-41
5.59 0.18 0.84 9.1477e-41
5.64 0.18 0.84 9.1477e-41
5.69 0.18 0.83 9.1477e-41
5.74 0.18 0.83 3.57e-43
5.87 0.18 0.83 3.57e-43
5.91 0.18 0.63 9.1477e-41
5.92 0.18 0.74 9.1477e-41
5.97 0.18 0.74 9.1477e-41
6.02 0.18 0.73 9.1477e-41
6.11 0.18 0.64 9.1477e-41
4.68 0.27 0.54 9.1477e-41
4.71 0.27 0.65 9.1477e-41
4.75 0.27 0.73 9.1477e-41
4.79 0.27 0.74 9.1477e-41
4.83 0.27 0.75 9.1477e-41
4.88 0.27 0.77 9.1477e-41
4.92 0.27 0.76 9.1477e-41
4.96 0.27 0.8 9.1477e-41
4.99 0.27 0.87 9.1477e-41
5.03 0.27 0.89 9.1477e-41
5.08 0.27 0.88 9.1477e-41
5.12 0.27 0.9 9.1477e-41
5.16 0.27 0.9 9.1477e-41
5.21 0.27 0.9 9.1477e-41
5.25 0.27 0.92 9.1477e-41
5.29 0.27 0.91 9.1477e-41
5.34 0.27 0.91 9.1477e-41
5.38 0.27 0.91 9.1477e-41
5.43 0.27 0.91 9.1477e-41
5.47 0.27 0.93 9.1477e-41
5.52 0.27 0.91 9.1477e-41
5.57 0.27 0.91 9.1477e-41
5.62 0.27 0.91 9.1477e-41
5.66 0.27 0.9 9.1477e-41
5.72 0.27 0.9 9.1477e-41
5.77 0.27 0.89 9.1477e-41
5.82 0.27 0.88 9.1477e-41
5.87 0.27 0.88 9.1477e-41
5.92 0.27 0.87 9.1477e-41
5.97 0.27 0.86 9.1477e-41
6.07 0.27 0.75 9.1477e-41
6.12 0.27 0.74 9.1477e-41
4.67 0.36 0.67 9.1477e-41
4.7 0.36 0.74 9.1477e-41
4.75 0.36 0.74 9.1477e-41
4.79 0.36 0.73 9.1477e-41
4.83 0.36 0.75 9.1477e-41
4.88 0.36 0.76 9.1477e-41
4.9 0.36 0.87 9.1477e-41
4.94 0.36 0.92 9.1477e-41
4.98 0.36 0.92 9.1477e-41
5.02 0.36 0.93 9.1477e-41
5.07 0.36 0.93 9.1477e-41
5.11 0.36 0.94 9.1477e-41
5.15 0.36 0.94 9.1477e-41
5.2 0.36 0.94 9.1477e-41
5.24 0.36 0.95 9.1477e-41
5.28 0.36 0.96 9.1477e-41
5.33 0.36 0.95 9.1477e-41
5.37 0.36 0.96 9.1477e-41
5.42 0.36 0.96 9.1477e-41
5.46 0.36 0.95 9.1477e-41
5.52 0.36 0.93 9.1477e-41
5.56 0.36 0.94 9.1477e-41
5.6 0.36 0.95 9.1477e-41
5.65 0.36 0.95 9.1477e-41
5.7 0.36 0.95 9.1477e-41
5.75 0.36 0.94 9.1477e-41
5.8 0.36 0.94 9.1477e-41
5.85 0.36 0.91 9.1477e-41
5.9 0.36 0.92 9.1477e-41
5.95 0.36 0.92 9.1477e-41
6.01 0.36 0.9 9.1477e-41
6.08 0.36 0.84 9.1477e-41
6.17 0.36 0.77 9.1477e-41
4.63 0.45 0.58 9.1477e-41
4.66 0.45 0.71 9.1477e-41
4.7 0.45 0.74 9.1477e-41
4.75 0.45 0.76 9.1477e-41
4.78 0.45 0.82 9.1477e-41
4.81 0.45 0.92 9.1477e-41
4.85 0.45 0.93 9.1477e-41
4.89 0.45 0.95 9.1477e-41
4.93 0.45 0.96 9.1477e-41
4.98 0.45 0.96 9.1477e-41
5.02 0.45 0.96 9.1477e-41
5.06 0.45 0.97 9.1477e-41
5.11 0.45 0.96 9.1477e-41
5.14 0.45 0.98 9.1477e-41
5.19 0.45 0.97 9.1477e-41
5.23 0.45 0.98 9.1477e-41
5.28 0.45 0.98 9.1477e-41
5.32 0.45 0.97 9.1477e-41
5.37 0.45 0.99 9.1477e-41
5.41 0.45 0.97 9.1477e-41
5.46 0.45 0.98 9.1477e-41
5.5 0.45 0.98 9.1477e-41
5.55 0.45 0.97 9.1477e-41
5.6 0.45 0.98 9.1477e-41
5.64 0.45 0.97 9.1477e-41
5.69 0.45 0.97 9.1477e-41
5.74 0.45 0.97 9.1477e-41
5.78 0.45 0.98 9.1477e-41
5.84 0.45 0.96 9.1477e-41
5.89 0.45 0.95 9.1477e-41
5.94 0.45 0.96 9.1477e-41
5.99 0.45 0.94 9.1477e-41
6.04 0.45 0.94 9.1477e-41
6.1 0.45 0.9 9.1477e-41
6.21 0.45 0.78 9.1477e-41
4.62 0.54 0.68 9.1477e-41
4.66 0.54 0.77 9.1477e-41
4.69 0.54 0.84 9.1477e-41
4.73 0.54 0.84 9.1477e-41
4.77 0.54 0.88 9.1477e-41
4.8 0.54 0.96 9.1477e-41
4.84 0.54 0.96 9.1477e-41
4.89 0.54 0.98 9.1477e-41
4.93 0.54 0.99 9.1477e-41
4.97 0.54 0.99 9.1477e-41
5.01 0.54 0.98 9.1477e-41
5.06 0.54 0.99 9.1477e-41
5.1 0.54 0.99 9.1477e-41
5.14 0.54 1 9.1477e-41
5.18 0.54 1 9.1477e-41
5.23 0.54 1.01 9.1477e-41
5.27 0.54 1.01 9.1477e-41
5.32 0.54 1 9.1477e-41
5.36 0.54 1.01 9.1477e-41
5.4 0.54 1.01 9.1477e-41
5.45 0.54 1 9.1477e-41
5.49 0.54 1.02 9.1477e-41
5.54 0.54 1 9.1477e-41
5.58 0.54 1.01 9.1477e-41
5.63 0.54 1 9.1477e-41
5.68 0.54 0.99 9.1477e-41
5.73 0.54 0.99 9.1477e-41
5.77 0.54 1 9.1477e-41
5.83 0.54 0.98 9.1477e-41
5.88 0.54 0.98 9.1477e-41
5.93 0.54 0.98 9.1477e-41
5.98 0.54 0.97 9.1477e-41
6.03 0.54 0.97 9.1477e-41
6.08 0.54 0.95 9.1477e-41
6.13 0.54 0.95 3.57e-43
4.59 0.63 0.52 9.1477e-41
4.61 0.63 0.75 9.1477e-41
4.65 0.63 0.82 9.1477e-41
4.68 0.63 0.89 9.1477e-41
4.72 0.63 0.97 9.1477e-41
4.76 0.63 0.98 9.1477e-41
4.8 0.63 1 9.1477e-41
4.84 0.63 1.01 9.1477e-41
4.88 0.63 1.01 9.1477e-41
4.92 0.63 1.02 9.1477e-41
4.97 0.63 1.01 9.1477e-41
5.01 0.63 1.01 9.1477e-41
5.05 0.63 1.03 9.1477e-41
5.1 0.63 1.01 9.1477e-41
5.13 0.63 1.03 9.1477e-41
5.18 0.63 1.03 9.1477e-41
5.22 0.63 1.03 9.1477e-41
5.26 0.63 1.05 9.1477e-41
5.31 0.63 1.04 9.1477e-41
5.35 0.63 1.04 9.1477e-41
5.4 0.63 1.03 9.1477e-41
5.44 0.63 1.02 9.1477e-41
5.48 0.63 1.05 9.1477e-41
5.53 0.63 1.04 9.1477e-41
5.58 0.63 1.03 9.1477e-41
5.62 0.63 1.03 9.1477e-41
5.67 0.63 1.02 9.1477e-41
5.72 0.63 1.03 9.1477e-41
5.77 0.63 1.02 9.1477e-41
5.82 0.63 1.02 9.1477e-41
5.86 0.63 1.01 9.1477e-41
5.92 0.63 1 9.1477e-41
5.97 0.63 1 9.1477e-41
6.02 0.63 0.99 9.1477e-41
6.07 0.63 0.99 9.1477e-41
6.12 0.63 0.99 9.1477e-41
6.17 0.63 1 9.1477e-41
4.59 0.72 0.5 9.1477e-41
4.61 0.72 0.8 9.1477e-41
4.65 0.72 0.86 9.1477e-41
4.68 0.72 0.93 9.1477e-41
4.71 0.72 0.99 9.1477e-41
4.75 0.72 1.02 9.1477e-41
4.79 0.72 1.03 9.1477e-41
4.83 0.72 1.02 9.1477e-41
4.88 0.72 1.04 9.1477e-41
4.92 0.72 1.04 9.1477e-41
4.96 0.72 1.03 9.1477e-41
5 0.72 1.04 9.1477e-41
5.04 0.72 1.04 9.1477e-41
5.09 0.72 1.05 9.1477e-41
5.13 0.72 1.05 9.1477e-41
5.17 0.72 1.06 9.1477e-41
5.21 0.72 1.07 9.1477e-41
5.26 0.72 1.07 9.1477e-41
5.3 0.72 1.07 9.1477e-41
5.35 0.72 1.06 9.1477e-41
5.39 0.72 1.05 9.1477e-41
5.43 0.72 1.05 9.1477e-41
5.48 0.72 1.07 9.1477e-41
5.52 0.72 1.07 9.1477e-41
5.57 0.72 1.06 9.1477e-41
5.62 0.72 1.06 9.1477e-41
5.66 0.72 1.05 9.1477e-41
5.71 0.72 1.05 9.1477e-41
5.76 0.72 1.05 9.1477e-41
5.81 0.72 1.05 9.1477e-41
5.86 0.72 1.03 9.1477e-41
5.9 0.72 1.04 9.1477e-41
5.96 0.72 1.02 9.1477e-41
6.01 0.72 1.03 9.1477e-41
6.06 0.72 1.02 9.1477e-41
6.11 0.72 1.01 9.1477e-41
6.16 0.72 1.02 9.1477e-41
6.23 0.72 0.98 9.1477e-41
4.6 0.81 0.4 9.1477e-41
4.61 0.81 0.82 9.1477e-41
4.64 0.81 0.9 9.1477e-41
4.68 0.81 0.95 9.1477e-41
4.71 0.81 1.02 9.1477e-41
4.75 0.81 1.04 9.1477e-41
4.79 0.81 1.05 9.1477e-41
4.83 0.81 1.05 9.1477e-41
4.87 0.81 1.06 9.1477e-41
4.91 0.81 1.06 9.1477e-41
4.96 0.81 1.06 9.1477e-41
5 0.81 1.07 9.1477e-41
5.04 0.81 1.06 9.1477e-41
5.08 0.81 1.08 9.1477e-41
5.12 0.81 1.08 9.1477e-41
5.17 0.81 1.08 9.1477e-41
5.21 0.81 1.09 9.1477e-41
5.25 0.81 1.09 9.1477e-41
5.3 0.81 1.08 9.1477e-41
5.34 0.81 1.08 9.1477e-41
5.38 0.81 1.08 9.1477e-41
5.43 0.81 1.08 9.1477e-41
5.47 0.81 1.08 9.1477e-41
5.52 0.81 1.09 9.1477e-41
5.56 0.81 1.08 9.1477e-41
5.61 0.81 1.08 9.1477e-41
5.66 0.81 1.07 9.1477e-41
5.7 0.81 1.08 9.1477e-41
5.75 0.81 1.08 9.1477e-41
5.8 0.81 1.07 9.1477e-41
5.85 0.81 1.06 9.1477e-41
5.89 0.81 1.06 9.1477e-41
5.95 0.81 1.06 9.1477e-41
5.99 0.81 1.05 9.1477e-41
6.05 0.81 1.04 9.1477e-41
6.1 0.81 1.04 9.1477e-41
6.15 0.81 1.03 9.1477e-41
6.2 0.81 1.03 9.1477e-41
6.31 0.81 0.91 9.1477e-41
4.59 0.9 0.59 9.1477e-41
4.6 0.9 0.84 9.1477e-41
4.64 0.9 0.93 9.1477e-41
4.67 0.9 0.98 9.1477e-41
4.71 0.9 1.04 9.1477e-41
4.75 0.9 1.06 9.1477e-41
4.79 0.9 1.08 9.1477e-41
4.83 0.9 1.06 9.1477e-41
4.87 0.9 1.09 9.1477e-41
4.91 0.9 1.08 9.1477e-41
4.95 0.9 1.08 9.1477e-41
4.99 0.9 1.08 9.1477e-41
5.03 0.9 1.09 9.1477e-41
5.08 0.9 1.09 9.1477e-41
5.13 0.9 1.07 9.1477e-41
5.17 0.9 1.08 9.1477e-41
5.21 0.9 1.08 9.1477e-41
5.25 0.9 1.08 9.1477e-41
5.3 0.9 1.06 9.1477e-41
5.35 0.9 1.06 9.1477e-41
5.39 0.9 1.05 9.1477e-41
5.44 0.9 1.02 9.1477e-41
5.48 0.9 1.05 9.1477e-41
5.53 0.9 1.05 9.1477e-41
5.57 0.9 1.06 9.1477e-41
5.61 0.9 1.07 9.1477e-41
5.65 0.9 1.08 9.1477e-41
5.7 0.9 1.09 9.1477e-41
5.75 0.9 1.08 9.1477e-41
5.79 0.9 1.08 9.1477e-41
5.84 0.9 1.09 9.1477e-41
5.88 0.9 1.09 9.1477e-41
5.94 0.9 1.07 9.1477e-41
5.99 0.9 1.06 9.1477e-41
6.04 0.9 1.07 9.1477e-41
6.09 0.9 1.06 9.1477e-41
6.14 0.9 1.06 9.1477e-41
6.19 0.9 1.05 9.1477e-41
6.28 0.9 0.97 9.1477e-41
4.58 0.99 0.63 9.1477e-41
4.6 0.99 0.85 9.1477e-41
4.64 0.99 0.93 9.1477e-41
4.67 0.99 1 9.1477e-41
4.7 0.99 1.05 9.1477e-41
4.74 0.99 1.09 9.1477e-41
4.78 0.99 1.1 9.1477e-41
4.83 0.99 1.07 9.1477e-41
4.87 0.99 1.05 9.1477e-41
4.92 0.99 1.02 9.1477e-41
4.96 0.99 1.01 9.1477e-41
5 0.99 1.03 9.1477e-41
5.05 0.99 1.03 9.1477e-41
5.09 0.99 1.03 9.1477e-41
5.13 0.99 1.04 9.1477e-41
5.17 0.99 1.04 9.1477e-41
5.22 0.99 1.04 3.57e-43
5.25 0.99 1.04 3.57e-43
5.3 0.99 1.04 3.57e-43
5.35 0.99 1.04 3.57e-43
5.39 0.99 1.04 3.57e-43
5.44 0.99 1.04 3.57e-43
5.48 0.99 1.04 3.57e-43
5.53 0.99 1.04 3.57e-43
5.57 0.99 1.06 9.1477e-41
5.62 0.99 1.05 9.1477e-41
5.67 0.99 1.03 9.1477e-41
5.71 0.99 1.05 9.1477e-41
5.76 0.99 1.05 9.1477e-41
5.81 0.99 1.04 9.1477e-41
5.86 0.99 1.02 9.1477e-41
5.91 0.99 1.02 9.1477e-41
5.96 0.99 1.03 9.1477e-41
6.02 0.99 1 9.1477e-41
6.07 0.99 0.98 9.1477e-41
6.09 0.99 1.05 9.1477e-41
6.13 0.99 1.07 9.1477e-41
6.18 0.99 1.07 9.1477e-41
6.24 0.99 1.06 9.1477e-41
4.58 1.08 0.65 9.1477e-41
4.61 1.08 0.83 9.1477e-41
4.64 1.08 0.93 9.1477e-41
4.67 1.08 1.01 9.1477e-41
4.7 1.08 1.07 9.1477e-41
4.74 1.08 1.11 9.1477e-41
4.78 1.08 1.11 3.57e-43
4.83 1.08 1.11 3.57e-43
4.87 1.08 1.11 3.57e-43
4.92 1.08 1.11 3.57e-43
4.96 1.08 1.11 3.57e-43
5 1.08 1.11 3.57e-43
5.05 1.08 1.03 9.1477e-41
5.07 1.08 1.03 3.57e-43
5.13 1.08 1.03 3.57e-43
5.17 1.08 1.03 3.57e-43
5.22 1.08 1.03 3.57e-43
5.25 1.08 1.03 3.57e-43
5.3 1.08 1.03 3.57e-43
5.35 1.08 1.03 3.57e-43
5.39 1.08 1.03 3.57e-43
5.44 1.08 1.03 3.57e-43
5.48 1.08 1.03 3.57e-43
5.53 1.08 1.03 3.57e-43
5.57 1.08 1.03 3.57e-43
5.62 1.08 1.03 3.57e-43
5.67 1.08 1.03 3.57e-43
5.71 1.08 1.03 3.57e-43
5.76 1.08 1.03 3.57e-43
5.81 1.08 1.03 3.57e-43
5.86 1.08 1.03 3.57e-43
5.91 1.08 1.03 3.57e-43
5.96 1.08 1.03 3.57e-43
6.02 1.08 1.03 3.57e-43
6.07 1.08 0.98 9.1477e-41
6.11 1.08 1.01 9.1477e-41
6.16 1.08 1.02 9.1477e-41
6.19 1.08 1.06 9.1477e-41
6.23 1.08 1.09 9.1477e-41
4.58 1.17 0.7 9.1477e-41
4.61 1.17 0.82 9.1477e-41
4.64 1.17 0.93 9.1477e-41
4.67 1.17 1.02 9.1477e-41
4.7 1.17 1.11 9.1477e-41
4.74 1.17 1.14 9.1477e-41
4.78 1.17 1.14 3.57e-43
4.83 1.17 1.14 3.57e-43
4.87 1.17 1.14 3.57e-43
4.92 1.17 1.14 3.57e-43
4.96 1.17 1.14 3.57e-43
5 1.17 1.14 3.57e-43
5.05 1.17 1.14 3.57e-43
5.07 1.17 1.14 3.57e-43
5.13 1.17 1.14 3.57e-43
5.17 1.17 1.14 3.57e-43
5.22 1.17 1.14 3.57e-43
5.25 1.17 1.14 3.57e-43
5.3 1.17 1.14 3.57e-43
5.35 1.17 1.14 3.57e-43
5.39 1.17 1.14 3.57e-43
5.44 1.17 1.14 3.57e-43
5.48 1.17 1.14 3.57e-43
5.53 1.17 1.14 3.57e-43
5.57 1.17 1.14 3.57e-43
5.62 1.17 1.14 3.57e-43
5.67 1.17 1.14 3.57e-43
5.71 1.17 1.14 3.57e-43
5.76 1.17 1.14 3.57e-43
5.81 1.17 1.14 3.57e-43
5.86 1.17 1.14 3.57e-43
5.91 1.17 1.14 3.57e-43
5.96 1.17 1.14 3.57e-43
6.02 1.17 1.14 3.57e-43
6.07 1.17 1.14 3.57e-43
6.11 1.17 1.01 9.1477e-41
6.13 1.17 1.08 9.1477e-41
6.18 1.17 1.08 9.1477e-41
6.22 1.17 1.11 9.1477e-41
6.31 1.17 1.02 9.1477e-41
4.58 1.26 0.65 9.1477e-41
4.61 1.26 0.79 9.1477e-41
4.64 1.26 0.95 9.1477e-41
4.67 1.26 0.97 9.1477e-41
4.69 1.26 1.15 9.1477e-41
4.73 1.26 1.19 9.1477e-41
4.77 1.26 1.19 9.1477e-41
4.81 1.26 1.19 3.57e-43
4.87 1.26 1.19 3.57e-43
4.92 1.26 1.19 3.57e-43
4.96 1.26 1.19 3.57e-43
5 1.26 1.19 3.57e-43
5.05 1.26 1.19 3.57e-43
5.07 1.26 1.19 3.57e-43
5.13 1.26 1.19 3.57e-43
5.17 1.26 1.19 3.57e-43
5.22 1.26 1.19 3.57e-43
5.25 1.26 1.19 3.57e-43
5.3 1.26 1.19 3.57e-43
5.35 1.26 1.19 3.57e-43
5.39 1.26 1.19 3.57e-43
5.44 1.26 1.19 3.57e-43
5.48 1.26 1.19 3.57e-43
5.53 1.26 1.19 3.57e-43
5.57 1.26 1.19 3.57e-43
5.62 1.26 1.19 3.57e-43
5.67 1.26 1.19 3.57e-43
5.71 1.26 1.19 3.57e-43
5.76 1.26 1.19 3.57e-43
5.81 1.26 1.19 3.57e-43
5.86 1.26 1.19 3.57e-43
5.91 1.26 1.19 3.57e-43
5.96 1.26 1.19 3.57e-43
6.02 1.26 1.19 3.57e-43
6.07 1.26 1.19 3.57e-43
6.11 1.26 1.19 3.57e-43
6.13 1.26 1.08 9.1477e-41
6.14 1.26 1.16 9.1477e-41
6.19 1.26 1.16 9.1477e-41
6.25 1.26 1.15 9.1477e-41
4.58 1.35 0.62 9.1477e-41
4.61 1.35 0.82 9.1477e-41
4.63 1.35 0.95 9.1477e-41
4.67 1.35 0.98 9.1477e-41
4.69 1.35 1.18 9.1477e-41
4.72 1.35 1.23 9.1477e-41
4.76 1.35 1.27 9.1477e-41
4.79 1.35 1.27 3.57e-43
4.87 1.35 1.27 3.57e-43
4.92 1.35 1.27 3.57e-43
4.96 1.35 1.27 3.57e-43
5 1.35 1.27 3.57e-43
5.05 1.35 1.27 3.57e-43
5.07 1.35 1.27 3.57e-43
5.13 1.35 1.27 3.57e-43
5.17 1.35 1.27 3.57e-43
5.22 1.35 1.27 3.57e-43
5.25 1.35 1.27 3.57e-43
5.3 1.35 1.27 3.57e-43
5.35 1.35 1.06 9.1477e-41
5.35 1.35 1.06 3.57e-43
5.44 1.35 1.06 3.57e-43
5.48 1.35 1.06 3.57e-43
5.53 1.35 1.06 3.57e-43
5.57 1.35 1.06 3.57e-43
5.62 1.35 1.06 3.57e-43
5.67 1.35 1.06 3.57e-43
5.71 1.35 1.06 3.57e-43
5.76 1.35 1.06 3.57e-43
5.81 1.35 1.06 3.57e-43
5.86 1.35 1.06 3.57e-43
5.91 1.35 1.06 3.57e-43
5.96 1.35 1.06 3.57e-43
6.02 1.35 1.06 3.57e-43
6.07 1.35 1.06 3.57e-43
6.11 1.35 1.06 3.57e-43
6.13 1.35 1.06 3.57e-43
6.14 1.35 1.16 9.1477e-41
6.16 1.35 1.22 9.1477e-41
6.21 1.35 1.23 9.1477e-41
6.3 1.35 1.14 9.1477e-41
4.58 1.44 0.61 9.1477e-41
4.61 1.44 0.83 9.1477e-41
4.63 1.44 0.97 9.1477e-41
4.67 1.44 0.97 3.57e-43
4.69 1.44 1.18 9.1477e-41
4.71 1.44 1.29 9.1477e-41
4.75 1.44 1.32 9.1477e-41
4.78 1.44 1.34 9.1477e-41
4.82 1.44 1.34 3.57e-43
4.92 1.44 1.34 3.57e-43
4.96 1.44 1.34 3.57e-43
5 1.44 1.34 3.57e-43
5.05 1.44 1.34 3.57e-43
5.07 1.44 1.34 3.57e-43
5.13 1.44 1.34 3.57e-43
5.17 1.44 1.34 3.57e-43
5.22 1.44 1.34 3.57e-43
5.25 1.44 1.34 3.57e-43
5.3 1.44 1.34 3.57e-43
5.35 1.44 1.34 3.57e-43
5.35 1.44 1.34 3.57e-43
5.44 1.44 1.34 3.57e-43
5.48 1.44 1.34 3.57e-43
5.53 1.44 1.34 3.57e-43
5.57 1.44 1.34 3.57e-43
5.62 1.44 1.34 3.57e-43
5.67 1.44 1.34 3.57e-43
5.71 1.44 1.34 3.57e-43
5.76 1.44 1.34 3.57e-43
5.81 1.44 1.34 3.57e-43
5.86 1.44 1.34 3.57e-43
5.91 1.44 1.34 3.57e-43
5.96 1.44 1.34 3.57e-43
6.02 1.44 1.34 3.57e-43
6.07 1.44 1.34 3.57e-43
6.11 1.44 1.34 3.57e-43
6.13 1.44 1.34 3.57e-43
6.14 1.44 1.34 3.57e-43
6.16 1.44 1.22 9.1477e-41
6.19 1.44 1.28 9.1477e-41
6.23 1.44 1.3 9.1477e-41
4.58 1.53 0.61 9.1477e-41
4.57 1.53 1.21 9.1477e-41
4.62 1.53 1.04 9.1477e-41
4.67 1.53 1.04 9.1477e-41
4.7 1.53 1.04 3.57e-43
4.71 1.53 1.29 9.1477e-41
4.74 1.53 1.36 9.1477e-41
4.78 1.53 1.4 9.1477e-41
4.81 1.53 1.4 3.57e-43
4.92 1.53 1.02 9.1477e-41
4.94 1.53 1.16 9.1477e-41
4.98 1.53 1.14 9.1477e-41
5.02 1.53 1.14 9.1477e-41
5.07 1.53 1.15 9.1477e-41
5.11 1.53 1.16 9.1477e-41
5.15 1.53 1.15 9.1477e-41
5.19 1.53 1.14 9.1477e-41
5.23 1.53 1.15 9.1477e-41
5.28 1.53 1.15 3.57e-43
5.35 1.53 1.15 3.57e-43
5.35 1.53 1.15 3.57e-43
5.44 1.53 1.15 3.57e-43
5.48 1.53 1.15 3.57e-43
5.53 1.53 1.15 3.57e-43
5.57 1.53 1.15 3.57e-43
5.62 1.53 1.15 3.57e-43
5.67 1.53 1.03 9.1477e-41
5.67 1.53 1.16 9.1477e-41
5.72 1.53 1.14 9.1477e-41
5.76 1.53 1.17 9.1477e-41
5.81 1.53 1.16 9.1477e-41
5.85 1.53 1.18 9.1477e-41
5.89 1.53 1.2 9.1477e-41
5.94 1.53 1.18 9.1477e-41
6 1.53 1.15 9.1477e-41
6.06 1.53 1.12 9.1477e-41
6.11 1.53 1.12 9.1477e-41
6.17 1.53 1.12 3.57e-43
6.16 1.53 1.12 3.57e-43
6.19 1.53 1.28 9.1477e-41
6.19 1.53 1.37 9.1477e-41
6.24 1.53 1.37 9.1477e-41
4.58 1.62 0.66 9.1477e-41
4.6 1.62 0.86 9.1477e-41
4.63 1.62 0.99 9.1477e-41
4.67 1.62 0.99 3.57e-43
4.7 1.62 0.99 3.57e-43
4.71 1.62 1.29 9.1477e-41
4.74 1.62 1.4 9.1477e-41
4.77 1.62 1.44 9.1477e-41
4.8 1.62 1.45 9.1477e-41
4.84 1.62 1.45 3.57e-43
4.94 1.62 1.45 3.57e-43
4.98 1.62 1.45 3.57e-43
5.02 1.62 1.45 3.57e-43
5.07 1.62 1.15 9.1477e-41
5.03 1.62 1.15 3.57e-43
5.15 1.62 1.15 3.57e-43
5.19 1.62 1.15 3.57e-43
5.23 1.62 1.15 3.57e-43
5.28 1.62 1.15 3.57e-43
5.35 1.62 1.15 3.57e-43
5.35 1.62 1.15 3.57e-43
5.44 1.62 1.15 3.57e-43
5.48 1.62 1.15 3.57e-43
5.53 1.62 1.05 9.1477e-41
5.64 1.62 0.83 9.1477e-41
5.7 1.62 0.81 9.1477e-41
5.85 1.62 0.81 3.57e-43
5.67 1.62 0.81 3.57e-43
5.72 1.62 0.81 3.57e-43
5.76 1.62 1.17 9.1477e-41
5.78 1.62 1.23 9.1477e-41
5.83 1.62 1.23 3.57e-43
5.89 1.62 1.23 3.57e-43
5.94 1.62 1.23 3.57e-43
6 1.62 1.23 3.57e-43
6.06 1.62 1.23 3.57e-43
6.11 1.62 1.23 3.57e-43
6.17 1.62 1.23 3.57e-43
6.16 1.62 1.23 3.57e-43
6.19 1.62 1.23 3.57e-43
6.19 1.62 1.37 9.1477e-41
6.2 1.62 1.44 9.1477e-41
6.26 1.62 1.42 9.1477e-41
6.41 1.62 1.42 3.57e-43
4.58 1.71 0.65 9.1477e-41
4.6 1.71 0.87 9.1477e-41
4.63 1.71 0.99 9.1477e-41
4.67 1.71 0.99 3.57e-43
4.7 1.71 0.99 3.57e-43
4.71 1.71 0.99 3.57e-43
4.74 1.71 1.4 9.1477e-41
4.76 1.71 1.48 9.1477e-41
4.8 1.71 1.49 9.1477e-41
4.83 1.71 1.49 3.57e-43
4.94 1.71 1.49 3.57e-43
4.98 1.71 1.49 3.57e-43
5.02 1.71 1.49 3.57e-43
5.07 1.71 1.49 3.57e-43
5.03 1.71 1.49 3.57e-43
5.15 1.71 1.49 3.57e-43
5.19 1.71 1.49 3.57e-43
5.23 1.71 1.49 3.57e-43
5.28 1.71 1.49 3.57e-43
5.35 1.71 1.49 3.57e-43
5.35 1.71 1.49 3.57e-43
5.44 1.71 1.49 3.57e-43
5.48 1.71 1.49 3.57e-43
5.53 1.71 1.49 3.57e-43
5.64 1.71 1.49 3.57e-43
5.7 1.71 1.49 3.57e-43
5.85 1.71 1.49 3.57e-43
5.67 1.71 1.49 3.57e-43
5.72 1.71 1.49 3.57e-43
5.76 1.71 1.49 3.57e-43
5.78 1.71 1.49 3.57e-43
5.83 1.71 1.24 9.1477e-41
5.81 1.71 1.39 9.1477e-41
5.84 1.71 1.39 3.57e-43
6 1.71 1.39 3.57e-43
6.06 1.71 1.39 3.57e-43
6.11 1.71 1.12 9.1477e-41
6.04 1.71 1.12 3.57e-43
6.16 1.71 1.12 3.57e-43
6.19 1.71 1.12 3.57e-43
6.19 1.71 1.37 9.1477e-41
6.18 1.71 1.49 9.1477e-41
6.28 1.71 1.39 9.1477e-41
4.58 1.8 0.66 9.1477e-41
4.6 1.8 0.89 9.1477e-41
4.63 1.8 1.01 9.1477e-41
4.67 1.8 1.01 3.57e-43
4.7 1.8 1.01 3.57e-43
4.71 1.8 1.01 3.57e-43
4.74 1.8 1.4 9.1477e-41
4.76 1.8 1.52 9.1477e-41
4.79 1.8 1.53 9.1477e-41
4.82 1.8 1.56 9.1477e-41
4.86 1.8 1.58 9.1477e-41
4.9 1.8 1.58 9.1477e-41
4.93 1.8 1.59 9.1477e-41
4.97 1.8 1.6 9.1477e-41
5.01 1.8 1.59 9.1477e-41
5.04 1.8 1.59 9.1477e-41
5.08 1.8 1.59 9.1477e-41
5.12 1.8 1.6 9.1477e-41
5.15 1.8 1.62 9.1477e-41
5.19 1.8 1.61 9.1477e-41
5.23 1.8 1.62 9.1477e-41
5.27 1.8 1.61 9.1477e-41
5.32 1.8 1.6 9.1477e-41
5.35 1.8 1.62 9.1477e-41
5.39 1.8 1.61 9.1477e-41
5.43 1.8 1.61 9.1477e-41
5.47 1.8 1.62 9.1477e-41
5.51 1.8 1.61 9.1477e-41
5.55 1.8 1.62 9.1477e-41
5.6 1.8 1.61 9.1477e-41
5.64 1.8 1.6 9.1477e-41
5.68 1.8 1.61 9.1477e-41
5.73 1.8 1.59 9.1477e-41
5.77 1.8 1.6 9.1477e-41
5.81 1.8 1.6 9.1477e-41
5.86 1.8 1.59 9.1477e-41
5.9 1.8 1.59 9.1477e-41
5.95 1.8 1.59 9.1477e-41
6 1.8 1.58 9.1477e-41
6.05 1.8 1.57 9.1477e-41
6.1 1.8 1.57 3.57e-43
6.18 1.8 1.49 9.1477e-41
6.2 1.8 1.55 9.1477e-41
4.58 1.89 0.67 9.1477e-41
4.6 1.89 0.89 9.1477e-41
4.63 1.89 1.02 9.1477e-41
4.66 1.89 1.02 3.57e-43
4.7 1.89 1.02 3.57e-43
4.71 1.89 1.02 3.57e-43
4.74 1.89 1.4 9.1477e-41
4.75 1.89 1.55 9.1477e-41
4.78 1.89 1.57 9.1477e-41
4.82 1.89 1.6 9.1477e-41
4.85 1.89 1.61 9.1477e-41
4.89 1.89 1.61 9.1477e-41
4.92 1.89 1.63 9.1477e-41
4.96 1.89 1.63 9.1477e-41
5 1.89 1.62 9.1477e-41
5.04 1.89 1.63 9.1477e-41
5.07 1.89 1.64 9.1477e-41
5.11 1.89 1.65 9.1477e-41
5.15 1.89 1.64 9.1477e-41
5.19 1.89 1.64 9.1477e-41
5.23 1.89 1.65 9.1477e-41
5.26 1.89 1.66 9.1477e-41
5.3 1.89 1.66 9.1477e-41
5.34 1.89 1.65 9.1477e-41
5.38 1.89 1.65 9.1477e-41
5.42 1.89 1.64 9.1477e-41
5.46 1.89 1.64 9.1477e-41
5.5 1.89 1.65 9.1477e-41
5.54 1.89 1.65 9.1477e-41
5.58 1.89 1.65 9.1477e-41
5.63 1.89 1.64 9.1477e-41
5.66 1.89 1.66 9.1477e-41
5.71 1.89 1.64 9.1477e-41
5.75 1.89 1.65 9.1477e-41
5.79 1.89 1.64 9.1477e-41
5.84 1.89 1.64 9.1477e-41
5.88 1.89 1.64 9.1477e-41
5.93 1.89 1.63 9.1477e-41
5.97 1.89 1.63 9.1477e-41
6.02 1.89 1.62 9.1477e-41
6.07 1.89 1.61 9.1477e-41
6.12 1.89 1.6 9.1477e-41
6.17 1.89 1.59 9.1477e-41
4.58 1.98 0.68 9.1477e-41
4.6 1.98 0.9 9.1477e-41
4.63 1.98 1.03 9.1477e-41
4.66 1.98 1.03 3.57e-43
4.7 1.98 1.03 3.57e-43
4.71 1.98 1.29 9.1477e-41
4.75 1.98 1.29 3.57e-43
4.75 1.98 1.55 9.1477e-41
4.78 1.98 1.58 9.1477e-41
4.82 1.98 1.61 9.1477e-41
4.84 1.98 1.65 9.1477e-41
4.88 1.98 1.63 9.1477e-41
4.92 1.98 1.65 9.1477e-41
4.96 1.98 1.66 9.1477e-41
4.99 1.98 1.65 9.1477e-41
5.03 1.98 1.66 9.1477e-41
5.06 1.98 1.68 9.1477e-41
5.1 1.98 1.69 9.1477e-41
5.14 1.98 1.67 9.1477e-41
5.18 1.98 1.67 9.1477e-41
5.21 1.98 1.7 9.1477e-41
5.25 1.98 1.69 9.1477e-41
5.29 1.98 1.68 9.1477e-41
5.33 1.98 1.69 9.1477e-41
5.37 1.98 1.69 9.1477e-41
5.41 1.98 1.68 9.1477e-41
5.45 1.98 1.67 9.1477e-41
5.49 1.98 1.69 9.1477e-41
5.53 1.98 1.69 9.1477e-41
5.57 1.98 1.68 9.1477e-41
5.61 1.98 1.68 9.1477e-41
5.65 1.98 1.67 9.1477e-41
5.69 1.98 1.69 9.1477e-41
5.74 1.98 1.68 9.1477e-41
5.78 1.98 1.67 9.1477e-41
5.83 1.98 1.67 9.1477e-41
5.87 1.98 1.66 9.1477e-41
5.91 1.98 1.67 9.1477e-41
5.96 1.98 1.66 9.1477e-41
6.01 1.98 1.66 9.1477e-41
6.05 1.98 1.66 9.1477e-41
6.1 1.98 1.64 9.1477e-41
6.16 1.98 1.62 9.1477e-41
4.58 2.07 0.68 9.1477e-41
4.6 2.07 0.89 9.1477e-41
4.62 2.07 1.05 9.1477e-41
4.66 2.07 1.08 9.1477e-41
4.7 2.07 1.08 3.57e-43
4.71 2.07 1.08 3.57e-43
4.75 2.07 1.08 3.57e-43
4.75 2.07 1.55 9.1477e-41
4.78 2.07 1.59 9.1477e-41
4.81 2.07 1.64 9.1477e-41
4.84 2.07 1.66 9.1477e-41
4.88 2.07 1.66 9.1477e-41
4.91 2.07 1.68 9.1477e-41
4.95 2.07 1.68 9.1477e-41
4.98 2.07 1.69 9.1477e-41
5.02 2.07 1.69 9.1477e-41
5.06 2.07 1.7 9.1477e-41
5.09 2.07 1.71 9.1477e-41
5.13 2.07 1.71 9.1477e-41
5.17 2.07 1.71 9.1477e-41
5.21 2.07 1.72 9.1477e-41
5.24 2.07 1.72 9.1477e-41
5.29 2.07 1.71 9.1477e-41
5.32 2.07 1.71 9.1477e-41
5.36 2.07 1.71 9.1477e-41
5.4 2.07 1.71 9.1477e-41
5.44 2.07 1.7 9.1477e-41
5.48 2.07 1.72 9.1477e-41
5.52 2.07 1.71 9.1477e-41
5.56 2.07 1.71 9.1477e-41
5.6 2.07 1.71 9.1477e-41
5.64 2.07 1.71 9.1477e-41
5.69 2.07 1.71 9.1477e-41
5.73 2.07 1.7 9.1477e-41
5.77 2.07 1.7 9.1477e-41
5.81 2.07 1.69 9.1477e-41
5.86 2.07 1.69 9.1477e-41
5.9 2.07 1.69 9.1477e-41
5.94 2.07 1.7 9.1477e-41
6 2.07 1.68 9.1477e-41
6.04 2.07 1.68 9.1477e-41
6.09 2.07 1.67 9.1477e-41
6.14 2.07 1.66 9.1477e-41
6.18 2.07 1.68 9.1477e-41
4.58 2.16 0.68 9.1477e-41
4.6 2.16 0.89 9.1477e-41
4.62 2.16 1.05 9.1477e-41
4.66 2.16 1.12 9.1477e-41
4.69 2.16 1.12 3.57e-43
4.71 2.16 1.12 3.57e-43
4.75 2.16 1.12 3.57e-43
4.75 2.16 1.55 9.1477e-41
4.78 2.16 1.6 9.1477e-41
4.81 2.16 1.64 9.1477e-41
4.84 2.16 1.68 9.1477e-41
4.88 2.16 1.68 9.1477e-41
4.91 2.16 1.69 9.1477e-41
4.95 2.16 1.7 9.1477e-41
4.98 2.16 1.7 9.1477e-41
5.02 2.16 1.71 9.1477e-41
5.05 2.16 1.72 9.1477e-41
5.09 2.16 1.72 9.1477e-41
5.13 2.16 1.72 9.1477e-41
5.17 2.16 1.72 9.1477e-41
5.2 2.16 1.72 9.1477e-41
5.24 2.16 1.73 9.1477e-41
5.28 2.16 1.74 9.1477e-41
5.31 2.16 1.74 9.1477e-41
5.35 2.16 1.73 9.1477e-41
5.39 2.16 1.73 9.1477e-41
5.43 2.16 1.72 9.1477e-41
5.47 2.16 1.74 9.1477e-41
5.51 2.16 1.73 9.1477e-41
5.55 2.16 1.73 9.1477e-41
5.6 2.16 1.72 9.1477e-41
5.64 2.16 1.72 9.1477e-41
5.67 2.16 1.72 9.1477e-41
5.72 2.16 1.72 9.1477e-41
5.76 2.16 1.73 9.1477e-41
5.8 2.16 1.72 9.1477e-41
5.85 2.16 1.72 9.1477e-41
5.89 2.16 1.71 9.1477e-41
5.94 2.16 1.71 9.1477e-41
5.98 2.16 1.71 9.1477e-41
6.03 2.16 1.69 9.1477e-41
6.08 2.16 1.69 9.1477e-41
6.13 2.16 1.67 9.1477e-41
6.17 2.16 1.68 9.1477e-41
4.58 2.25 0.69 9.1477e-41
4.59 2.25 0.93 9.1477e-41
4.62 2.25 1.06 9.1477e-41
4.65 2.25 1.17 9.1477e-41
4.68 2.25 1.21 9.1477e-41
4.71 2.25 1.21 3.57e-43
4.75 2.25 1.21 3.57e-43
4.75 2.25 1.55 9.1477e-41
4.78 2.25 1.62 9.1477e-41
4.81 2.25 1.65 9.1477e-41
4.84 2.25 1.68 9.1477e-41
4.87 2.25 1.71 9.1477e-41
4.91 2.25 1.71 9.1477e-41
4.94 2.25 1.71 9.1477e-41
4.98 2.25 1.72 9.1477e-41
5.01 2.25 1.73 9.1477e-41
5.05 2.25 1.74 9.1477e-41
5.09 2.25 1.73 9.1477e-41
5.12 2.25 1.74 9.1477e-41
5.16 2.25 1.73 9.1477e-41
5.2 2.25 1.74 9.1477e-41
5.24 2.25 1.75 9.1477e-41
5.27 2.25 1.75 9.1477e-41
5.31 2.25 1.74 9.1477e-41
5.35 2.25 1.74 9.1477e-41
5.39 2.25 1.75 9.1477e-41
5.42 2.25 1.75 9.1477e-41
5.47 2.25 1.73 9.1477e-41
5.51 2.25 1.75 9.1477e-41
5.55 2.25 1.73 9.1477e-41
5.59 2.25 1.74 9.1477e-41
5.63 2.25 1.75 9.1477e-41
5.67 2.25 1.74 9.1477e-41
5.71 2.25 1.74 9.1477e-41
5.75 2.25 1.74 9.1477e-41
5.79 2.25 1.74 9.1477e-41
5.84 2.25 1.73 9.1477e-41
5.88 2.25 1.73 9.1477e-41
5.93 2.25 1.73 9.1477e-41
5.98 2.25 1.72 9.1477e-41
6.02 2.25 1.72 9.1477e-41
6.07 2.25 1.71 9.1477e-41
6.12 2.25 1.7 9.1477e-41
6.17 2.25 1.7 9.1477e-41
4.58 2.34 0.69 9.1477e-41
4.6 2.34 0.91 9.1477e-41
4.62 2.34 1.06 9.1477e-41
4.65 2.34 1.18 9.1477e-41
4.67 2.34 1.28 9.1477e-41
4.7 2.34 1.39 9.1477e-41
4.73 2.34 1.45 9.1477e-41
4.76 2.34 1.52 9.1477e-41
4.78 2.34 1.61 9.1477e-41
4.81 2.34 1.65 9.1477e-41
4.84 2.34 1.69 9.1477e-41
4.87 2.34 1.71 9.1477e-41
4.91 2.34 1.72 9.1477e-41
4.94 2.34 1.72 9.1477e-41
4.97 2.34 1.74 9.1477e-41
5.01 2.34 1.74 9.1477e-41
5.05 2.34 1.74 9.1477e-41
5.08 2.34 1.75 9.1477e-41
5.12 2.34 1.75 9.1477e-41
5.16 2.34 1.75 9.1477e-41
5.19 2.34 1.75 9.1477e-41
5.23 2.34 1.76 9.1477e-41
5.27 2.34 1.76 9.1477e-41
5.31 2.34 1.76 9.1477e-41
5.34 2.34 1.77 9.1477e-41
5.39 2.34 1.75 9.1477e-41
5.42 2.34 1.75 9.1477e-41
5.46 2.34 1.75 9.1477e-41
5.5 2.34 1.76 9.1477e-41
5.55 2.34 1.75 9.1477e-41
5.58 2.34 1.75 9.1477e-41
5.62 2.34 1.77 9.1477e-41
5.66 2.34 1.75 9.1477e-41
5.71 2.34 1.76 9.1477e-41
5.74 2.34 1.76 9.1477e-41
5.79 2.34 1.75 9.1477e-41
5.83 2.34 1.76 9.1477e-41
5.88 2.34 1.73 9.1477e-41
5.92 2.34 1.75 9.1477e-41
5.96 2.34 1.75 9.1477e-41
6.01 2.34 1.74 9.1477e-41
6.06 2.34 1.73 9.1477e-41
6.11 2.34 1.71 9.1477e-41
6.16 2.34 1.72 9.1477e-41
4.58 2.43 0.7 9.1477e-41
4.6 2.43 0.91 9.1477e-41
4.62 2.43 1.06 9.1477e-41
4.65 2.43 1.18 9.1477e-41
4.68 2.43 1.27 9.1477e-41
4.7 2.43 1.39 9.1477e-41
4.73 2.43 1.44 9.1477e-41
4.75 2.43 1.53 9.1477e-41
4.78 2.43 1.61 9.1477e-41
4.81 2.43 1.66 9.1477e-41
4.84 2.43 1.69 9.1477e-41
4.87 2.43 1.73 9.1477e-41
4.9 2.43 1.73 9.1477e-41
4.94 2.43 1.73 9.1477e-41
4.97 2.43 1.75 9.1477e-41
5.01 2.43 1.74 9.1477e-41
5.05 2.43 1.76 9.1477e-41
5.08 2.43 1.75 9.1477e-41
5.12 2.43 1.76 9.1477e-41
5.16 2.43 1.75 9.1477e-41
5.19 2.43 1.75 9.1477e-41
5.23 2.43 1.76 9.1477e-41
5.27 2.43 1.77 9.1477e-41
5.31 2.43 1.77 9.1477e-41
5.34 2.43 1.77 9.1477e-41
5.38 2.43 1.78 9.1477e-41
5.42 2.43 1.76 9.1477e-41
5.46 2.43 1.76 9.1477e-41
5.5 2.43 1.78 9.1477e-41
5.54 2.43 1.77 9.1477e-41
5.58 2.43 1.76 9.1477e-41
5.62 2.43 1.76 9.1477e-41
5.66 2.43 1.75 9.1477e-41
5.7 2.43 1.77 9.1477e-41
5.74 2.43 1.76 9.1477e-41
5.79 2.43 1.76 9.1477e-41
5.83 2.43 1.76 9.1477e-41
5.87 2.43 1.75 9.1477e-41
5.92 2.43 1.76 9.1477e-41
5.96 2.43 1.75 9.1477e-41
6.01 2.43 1.75 9.1477e-41
6.05 2.43 1.74 9.1477e-41
6.11 2.43 1.72 9.1477e-41
6.15 2.43 1.73 9.1477e-41
4.58 2.52 0.7 9.1477e-41
4.6 2.52 0.92 9.1477e-41
4.62 2.52 1.04 9.1477e-41
4.66 2.52 1.04 3.57e-43
4.68 2.52 1.04 3.57e-43
4.7 2.52 1.04 3.57e-43
4.73 2.52 1.04 3.57e-43
4.75 2.52 1.53 9.1477e-41
4.78 2.52 1.62 9.1477e-41
4.81 2.52 1.67 9.1477e-41
4.83 2.52 1.7 9.1477e-41
4.86 2.52 1.74 9.1477e-41
4.9 2.52 1.74 9.1477e-41
4.94 2.52 1.73 9.1477e-41
4.97 2.52 1.76 9.1477e-41
5.01 2.52 1.75 9.1477e-41
5.04 2.52 1.76 9.1477e-41
5.08 2.52 1.76 9.1477e-41
5.12 2.52 1.76 9.1477e-41
5.15 2.52 1.77 9.1477e-41
5.19 2.52 1.76 9.1477e-41
5.23 2.52 1.77 9.1477e-41
5.27 2.52 1.77 9.1477e-41
5.3 2.52 1.78 9.1477e-41
5.34 2.52 1.79 9.1477e-41
5.38 2.52 1.78 9.1477e-41
5.41 2.52 1.78 9.1477e-41
5.46 2.52 1.78 9.1477e-41
5.49 2.52 1.79 9.1477e-41
5.53 2.52 1.78 9.1477e-41
5.58 2.52 1.77 9.1477e-41
5.61 2.52 1.78 9.1477e-41
5.66 2.52 1.76 9.1477e-41
5.69 2.52 1.79 9.1477e-41
5.74 2.52 1.78 9.1477e-41
5.78 2.52 1.77 9.1477e-41
5.82 2.52 1.77 9.1477e-41
5.87 2.52 1.76 9.1477e-41
5.91 2.52 1.77 9.1477e-41
5.95 2.52 1.77 9.1477e-41
6 2.52 1.76 9.1477e-41
6.05 2.52 1.74 9.1477e-41
6.1 2.52 1.73 9.1477e-41
6.15 2.52 1.74 9.1477e-41
4.57 2.61 0.71 9.1477e-41
4.59 2.61 0.93 9.1477e-41
4.62 2.61 1.06 9.1477e-41
4.66 2.61 1.06 3.57e-43
4.68 2.61 1.06 3.57e-43
4.7 2.61 1.06 3.57e-43
4.73 2.61 1.06 3.57e-43
4.75 2.61 1.53 9.1477e-41
4.77 2.61 1.64 9.1477e-41
4.8 2.61 1.68 9.1477e-41
4.83 2.61 1.7 9.1477e-41
4.86 2.61 1.75 9.1477e-41
4.9 2.61 1.75 9.1477e-41
4.93 2.61 1.75 9.1477e-41
4.97 2.61 1.76 9.1477e-41
5.01 2.61 1.76 9.1477e-41
5.04 2.61 1.77 9.1477e-41
5.07 2.61 1.78 9.1477e-41
5.11 2.61 1.77 9.1477e-41
5.15 2.61 1.77 9.1477e-41
5.19 2.61 1.77 9.1477e-41
5.23 2.61 1.77 9.1477e-41
5.26 2.61 1.78 9.1477e-41
5.3 2.61 1.79 9.1477e-41
5.34 2.61 1.78 9.1477e-41
5.38 2.61 1.78 9.1477e-41
5.41 2.61 1.78 9.1477e-41
5.46 2.61 1.78 9.1477e-41
5.49 2.61 1.79 9.1477e-41
5.53 2.61 1.78 9.1477e-41
5.57 2.61 1.78 9.1477e-41
5.61 2.61 1.78 9.1477e-41
5.65 2.61 1.78 9.1477e-41
5.69 2.61 1.79 9.1477e-41
5.74 2.61 1.78 9.1477e-41
5.78 2.61 1.78 9.1477e-41
5.82 2.61 1.77 9.1477e-41
5.86 2.61 1.77 9.1477e-41
5.91 2.61 1.76 9.1477e-41
5.95 2.61 1.78 9.1477e-41
6 2.61 1.77 9.1477e-41
6.05 2.61 1.76 9.1477e-41
6.09 2.61 1.75 9.1477e-41
6.14 2.61 1.75 9.1477e-41
4.57 2.7 0.71 9.1477e-41
4.6 2.7 0.91 9.1477e-41
4.62 2.7 1.06 9.1477e-41
4.66 2.7 1.06 3.57e-43
4.68 2.7 1.06 3.57e-43
4.7 2.7 1.06 3.57e-43
4.73 2.7 1.06 3.57e-43
4.75 2.7 1.53 9.1477e-41
4.77 2.7 1.65 9.1477e-41
4.8 2.7 1.68 9.1477e-41
4.83 2.7 1.71 9.1477e-41
4.86 2.7 1.74 9.1477e-41
4.9 2.7 1.77 9.1477e-41
4.94 2.7 1.74 9.1477e-41
4.97 2.7 1.76 9.1477e-41
5 2.7 1.77 9.1477e-41
5.04 2.7 1.77 9.1477e-41
5.07 2.7 1.79 9.1477e-41
5.11 2.7 1.77 9.1477e-41
5.15 2.7 1.78 9.1477e-41
5.19 2.7 1.78 9.1477e-41
5.22 2.7 1.79 9.1477e-41
5.26 2.7 1.79 9.1477e-41
5.3 2.7 1.79 9.1477e-41
5.34 2.7 1.79 9.1477e-41
5.37 2.7 1.8 9.1477e-41
5.41 2.7 1.79 9.1477e-41
5.46 2.7 1.77 9.1477e-41
5.49 2.7 1.79 9.1477e-41
5.53 2.7 1.79 9.1477e-41
5.57 2.7 1.79 9.1477e-41
5.61 2.7 1.79 9.1477e-41
5.65 2.7 1.79 9.1477e-41
5.69 2.7 1.8 9.1477e-41
5.73 2.7 1.79 9.1477e-41
5.78 2.7 1.79 9.1477e-41
5.82 2.7 1.77 9.1477e-41
5.86 2.7 1.78 9.1477e-41
5.91 2.7 1.77 9.1477e-41
5.95 2.7 1.78 9.1477e-41
6 2.7 1.77 9.1477e-41
6.04 2.7 1.76 9.1477e-41
6.09 2.7 1.75 9.1477e-41
6.14 2.7 1.76 9.1477e-41
4.57 2.79 0.71 9.1477e-41
4.6 2.79 0.91 9.1477e-41
4.62 2.79 1.05 9.1477e-41
4.66 2.79 1.05 3.57e-43
4.68 2.79 1.05 3.57e-43
4.7 2.79 1.05 3.57e-43
4.73 2.79 1.05 3.57e-43
4.75 2.79 1.53 9.1477e-41
4.77 2.79 1.65 9.1477e-41
4.8 2.79 1.68 9.1477e-41
4.83 2.79 1.7 9.1477e-41
4.86 2.79 1.74 9.1477e-41
4.9 2.79 1.77 9.1477e-41
4.93 2.79 1.76 9.1477e-41
4.97 2.79 1.76 9.1477e-41
5 2.79 1.77 9.1477e-41
5.04 2.79 1.78 9.1477e-41
5.08 2.79 1.78 9.1477e-41
5.11 2.79 1.78 9.1477e-41
5.15 2.79 1.78 9.1477e-41
5.19 2.79 1.78 9.1477e-41
5.23 2.79 1.78 9.1477e-41
5.26 2.79 1.79 9.1477e-41
5.3 2.79 1.79 9.1477e-41
5.33 2.79 1.8 9.1477e-41
5.37 2.79 1.8 9.1477e-41
5.41 2.79 1.8 9.1477e-41
5.45 2.79 1.79 9.1477e-41
5.49 2.79 1.8 9.1477e-41
5.53 2.79 1.8 9.1477e-41
5.57 2.79 1.8 9.1477e-41
5.61 2.79 1.8 9.1477e-41
5.65 2.79 1.79 9.1477e-41
5.69 2.79 1.8 9.1477e-41
5.73 2.79 1.79 9.1477e-41
5.77 2.79 1.8 9.1477e-41
5.82 2.79 1.78 9.1477e-41
5.86 2.79 1.78 9.1477e-41
5.9 2.79 1.78 9.1477e-41
5.95 2.79 1.79 9.1477e-41
5.99 2.79 1.77 9.1477e-41
6.04 2.79 1.77 9.1477e-41
6.09 2.79 1.75 9.1477e-41
6.14 2.79 1.76 9.1477e-41
4.57 2.88 0.72 9.1477e-41
4.6 2.88 0.9 9.1477e-41
4.62 2.88 1.06 9.1477e-41
4.66 2.88 1.06 3.57e-43
4.68 2.88 1.06 3.57e-43
4.7 2.88 1.06 3.57e-43
4.73 2.88 1.06 3.57e-43
4.75 2.88 1.06 3.57e-43
4.77 2.88 1.65 9.1477e-41
4.8 2.88 1.68 9.1477e-41
4.83 2.88 1.71 9.1477e-41
4.86 2.88 1.74 9.1477e-41
4.89 2.88 1.78 9.1477e-41
4.93 2.88 1.76 9.1477e-41
4.97 2.88 1.77 9.1477e-41
5 2.88 1.78 9.1477e-41
5.04 2.88 1.78 9.1477e-41
5.07 2.88 1.8 9.1477e-41
5.11 2.88 1.79 9.1477e-41
5.15 2.88 1.78 9.1477e-41
5.18 2.88 1.79 9.1477e-41
5.22 2.88 1.8 9.1477e-41
5.26 2.88 1.8 9.1477e-41
5.3 2.88 1.79 9.1477e-41
5.33 2.88 1.8 9.1477e-41
5.37 2.88 1.81 9.1477e-41
5.41 2.88 1.8 9.1477e-41
5.45 2.88 1.78 9.1477e-41
5.48 2.88 1.81 9.1477e-41
5.53 2.88 1.8 9.1477e-41
5.57 2.88 1.8 9.1477e-41
5.6 2.88 1.8 9.1477e-41
5.65 2.88 1.8 9.1477e-41
5.68 2.88 1.8 9.1477e-41
5.73 2.88 1.79 9.1477e-41
5.77 2.88 1.8 9.1477e-41
5.81 2.88 1.79 9.1477e-41
5.86 2.88 1.78 9.1477e-41
5.9 2.88 1.79 9.1477e-41
5.95 2.88 1.79 9.1477e-41
5.99 2.88 1.78 9.1477e-41
6.04 2.88 1.77 9.1477e-41
6.09 2.88 1.75 9.1477e-41
6.13 2.88 1.75 9.1477e-41
4.57 2.97 0.71 9.1477e-41
4.6 2.97 0.89 9.1477e-41
4.62 2.97 1.06 9.1477e-41
4.66 2.97 1.06 3.57e-43
4.68 2.97 1.06 3.57e-43
4.7 2.97 1.06 3.57e-43
4.73 2.97 1.06 3.57e-43
4.75 2.97 1.06 3.57e-43
4.77 2.97 1.65 9.1477e-41
4.8 2.97 1.69 9.1477e-41
4.83 2.97 1.71 9.1477e-41
4.86 2.97 1.75 9.1477e-41
4.89 2.97 1.79 9.1477e-41
4.93 2.97 1.76 9.1477e-41
4.97 2.97 1.78 9.1477e-41
5 2.97 1.78 9.1477e-41
5.04 2.97 1.78 9.1477e-41
5.07 2.97 1.8 9.1477e-41
5.11 2.97 1.79 9.1477e-41
5.14 2.97 1.8 9.1477e-41
5.18 2.97 1.8 9.1477e-41
5.22 2.97 1.81 9.1477e-41
5.26 2.97 1.8 9.1477e-41
5.29 2.97 1.81 9.1477e-41
5.33 2.97 1.81 9.1477e-41
5.37 2.97 1.81 9.1477e-41
5.41 2.97 1.81 9.1477e-41
5.45 2.97 1.8 9.1477e-41
5.49 2.97 1.8 9.1477e-41
5.52 2.97 1.82 9.1477e-41
5.57 2.97 1.8 9.1477e-41
5.6 2.97 1.81 9.1477e-41
5.65 2.97 1.8 9.1477e-41
5.69 2.97 1.8 9.1477e-41
5.73 2.97 1.8 9.1477e-41
5.77 2.97 1.8 9.1477e-41
5.81 2.97 1.79 9.1477e-41
5.86 2.97 1.79 9.1477e-41
5.89 2.97 1.8 9.1477e-41
5.94 2.97 1.79 9.1477e-41
5.99 2.97 1.77 9.1477e-41
6.03 2.97 1.78 9.1477e-41
6.09 2.97 1.76 9.1477e-41
6.13 2.97 1.76 9.1477e-41
4.57 3.06 0.73 9.1477e-41
4.6 3.06 0.88 9.1477e-41
4.62 3.06 1.06 9.1477e-41
4.66 3.06 1.06 3.57e-43
4.68 3.06 1.06 3.57e-43
4.7 3.06 1.06 3.57e-43
4.73 3.06 1.06 3.57e-43
4.75 3.06 1.06 3.57e-43
4.77 3.06 1.65 9.1477e-41
4.8 3.06 1.69 9.1477e-41
4.83 3.06 1.71 9.1477e-41
4.86 3.06 1.75 9.1477e-41
4.89 3.06 1.78 9.1477e-41
4.93 3.06 1.76 9.1477e-41
4.97 3.06 1.78 9.1477e-41
5 3.06 1.79 9.1477e-41
5.04 3.06 1.79 9.1477e-41
5.07 3.06 1.8 9.1477e-41
5.11 3.06 1.8 9.1477e-41
5.15 3.06 1.79 9.1477e-41
5.18 3.06 1.79 9.1477e-41
5.22 3.06 1.8 9.1477e-41
5.25 3.06 1.81 9.1477e-41
5.29 3.06 1.8 9.1477e-41
5.33 3.06 1.81 9.1477e-41
5.37 3.06 1.82 9.1477e-41
5.41 3.06 1.81 9.1477e-41
5.45 3.06 1.8 9.1477e-41
5.48 3.06 1.81 9.1477e-41
5.52 3.06 1.82 9.1477e-41
5.57 3.06 1.8 9.1477e-41
5.6 3.06 1.8 9.1477e-41
5.65 3.06 1.8 9.1477e-41
5.68 3.06 1.8 9.1477e-41
5.73 3.06 1.8 9.1477e-41
5.77 3.06 1.8 9.1477e-41
5.81 3.06 1.8 9.1477e-41
5.85 3.06 1.8 9.1477e-41
5.9 3.06 1.79 9.1477e-41
5.94 3.06 1.79 9.1477e-41
5.98 3.06 1.8 9.1477e-41
6.03 3.06 1.78 9.1477e-41
6.08 3.06 1.77 9.1477e-41
6.13 3.06 1.76 9.1477e-41
4.57 3.15 0.71 9.1477e-41
4.6 3.15 0.86 9.1477e-41
4.62 3.15 1.06 9.1477e-41
4.66 3.15 1.06 3.57e-43
4.68 3.15 1.06 3.57e-43
4.7 3.15 1.06 3.57e-43
4.73 3.15 1.06 3.57e-43
4.75 3.15 1.06 3.57e-43
4.77 3.15 1.65 9.1477e-41
4.8 3.15 1.68 9.1477e-41
4.83 3.15 1.71 9.1477e-41
4.86 3.15 1.74 9.1477e-41
4.89 3.15 1.79 9.1477e-41
4.93 3.15 1.77 9.1477e-41
4.97 3.15 1.77 9.1477e-41
5 3.15 1.8 9.1477e-41
5.04 3.15 1.78 9.1477e-41
5.07 3.15 1.8 9.1477e-41
5.11 3.15 1.79 9.1477e-41
5.15 3.15 1.79 9.1477e-41
5.18 3.15 1.8 9.1477e-41
5.22 3.15 1.79 9.1477e-41
5.25 3.15 1.82 9.1477e-41
5.29 3.15 1.81 9.1477e-41
5.33 3.15 1.81 9.1477e-41
5.37 3.15 1.82 9.1477e-41
5.41 3.15 1.81 9.1477e-41
5.44 3.15 1.81 9.1477e-41
5.48 3.15 1.81 9.1477e-41
5.52 3.15 1.81 9.1477e-41
5.56 3.15 1.81 9.1477e-41
5.6 3.15 1.8 9.1477e-41
5.64 3.15 1.81 9.1477e-41
5.68 3.15 1.8 9.1477e-41
5.73 3.15 1.8 9.1477e-41
5.77 3.15 1.81 9.1477e-41
5.81 3.15 1.8 9.1477e-41
5.85 3.15 1.8 9.1477e-41
5.9 3.15 1.79 9.1477e-41
5.94 3.15 1.79 9.1477e-41
5.99 3.15 1.78 9.1477e-41
6.03 3.15 1.78 9.1477e-41
6.08 3.15 1.77 9.1477e-41
6.12 3.15 1.77 9.1477e-41
4.57 3.24 0.75 9.1477e-41
4.6 3.24 0.86 9.1477e-41
4.62 3.24 1.05 9.1477e-41
4.66 3.24 1.05 3.57e-43
4.68 3.24 1.05 3.57e-43
4.7 3.24 1.05 3.57e-43
4.73 3.24 1.05 3.57e-43
4.75 3.24 1.05 3.57e-43
4.77 3.24 1.65 9.1477e-41
4.8 3.24 1.68 9.1477e-41
4.83 3.24 1.71 9.1477e-41
4.86 3.24 1.75 9.1477e-41
4.89 3.24 1.79 9.1477e-41
4.93 3.24 1.77 9.1477e-41
4.97 3.24 1.77 9.1477e-41
5 3.24 1.79 9.1477e-41
5.04 3.24 1.79 9.1477e-41
5.07 3.24 1.8 9.1477e-41
5.11 3.24 1.79 9.1477e-41
5.15 3.24 1.79 9.1477e-41
5.18 3.24 1.79 9.1477e-41
5.22 3.24 1.81 9.1477e-41
5.25 3.24 1.81 9.1477e-41
5.29 3.24 1.81 9.1477e-41
5.33 3.24 1.81 9.1477e-41
5.37 3.24 1.82 9.1477e-41
5.41 3.24 1.81 9.1477e-41
5.44 3.24 1.81 9.1477e-41
5.48 3.24 1.81 9.1477e-41
5.52 3.24 1.83 9.1477e-41
5.56 3.24 1.82 9.1477e-41
5.6 3.24 1.8 9.1477e-41
5.64 3.24 1.81 9.1477e-41
5.68 3.24 1.8 9.1477e-41
5.73 3.24 1.8 9.1477e-41
5.77 3.24 1.81 9.1477e-41
5.81 3.24 1.8 9.1477e-41
5.85 3.24 1.8 9.1477e-41
5.89 3.24 1.8 9.1477e-41
5.94 3.24 1.8 9.1477e-41
5.98 3.24 1.79 9.1477e-41
6.02 3.24 1.8 9.1477e-41
6.08 3.24 1.78 9.1477e-41
6.13 3.24 1.76 9.1477e-41
4.57 3.33 0.77 9.1477e-41
4.6 3.33 0.88 9.1477e-41
4.62 3.33 1.05 9.1477e-41
4.65 3.33 1.05 3.57e-43
4.68 3.33 1.05 3.57e-43
4.7 3.33 1.05 3.57e-43
4.73 3.33 1.05 3.57e-43
4.75 3.33 1.05 3.57e-43
4.77 3.33 1.65 9.1477e-41
4.8 3.33 1.68 9.1477e-41
4.83 3.33 1.71 9.1477e-41
4.86 3.33 1.74 9.1477e-41
4.89 3.33 1.79 9.1477e-41
4.93 3.33 1.77 9.1477e-41
4.97 3.33 1.78 9.1477e-41
5 3.33 1.79 9.1477e-41
5.04 3.33 1.78 9.1477e-41
5.07 3.33 1.8 9.1477e-41
5.11 3.33 1.79 9.1477e-41
5.14 3.33 1.8 9.1477e-41
5.18 3.33 1.79 9.1477e-41
5.22 3.33 1.81 9.1477e-41
5.25 3.33 1.81 9.1477e-41
5.29 3.33 1.81 9.1477e-41
5.33 3.33 1.81 9.1477e-41
5.37 3.33 1.81 9.1477e-41
5.41 3.33 1.81 9.1477e-41
5.45 3.33 1.8 9.1477e-41
5.48 3.33 1.82 9.1477e-41
5.52 3.33 1.81 9.1477e-41
5.56 3.33 1.82 9.1477e-41
5.6 3.33 1.81 9.1477e-41
5.65 3.33 1.8 9.1477e-41
5.68 3.33 1.8 9.1477e-41
5.72 3.33 1.81 9.1477e-41
5.77 3.33 1.81 9.1477e-41
5.81 3.33 1.81 9.1477e-41
5.85 3.33 1.8 9.1477e-41
5.89 3.33 1.8 9.1477e-41
5.94 3.33 1.79 9.1477e-41
5.98 3.33 1.79 9.1477e-41
6.03 3.33 1.78 9.1477e-41
6.08 3.33 1.77 9.1477e-41
6.13 3.33 1.76 9.1477e-41
4.58 3.42 0.7 9.1477e-41
4.6 3.42 0.89 9.1477e-41
4.62 3.42 1.04 9.1477e-41
4.65 3.42 1.15 9.1477e-41
4.68 3.42 1.15 3.57e-43
4.7 3.42 1.15 3.57e-43
4.73 3.42 1.15 3.57e-43
4.75 3.42 1.15 3.57e-43
4.77 3.42 1.65 9.1477e-41
4.8 3.42 1.68 9.1477e-41
4.83 3.42 1.71 9.1477e-41
4.86 3.42 1.75 9.1477e-41
4.89 3.42 1.78 9.1477e-41
4.93 3.42 1.77 9.1477e-41
4.97 3.42 1.77 9.1477e-41
5 3.42 1.79 9.1477e-41
5.04 3.42 1.78 9.1477e-41
5.07 3.42 1.8 9.1477e-41
5.11 3.42 1.79 9.1477e-41
5.14 3.42 1.8 9.1477e-41
5.18 3.42 1.81 9.1477e-41
5.22 3.42 1.8 9.1477e-41
5.25 3.42 1.81 9.1477e-41
5.29 3.42 1.8 9.1477e-41
5.33 3.42 1.81 9.1477e-41
5.37 3.42 1.82 9.1477e-41
5.41 3.42 1.81 9.1477e-41
5.44 3.42 1.81 9.1477e-41
5.48 3.42 1.81 9.1477e-41
5.52 3.42 1.82 9.1477e-41
5.56 3.42 1.81 9.1477e-41
5.6 3.42 1.8 9.1477e-41
5.65 3.42 1.8 9.1477e-41
5.68 3.42 1.81 9.1477e-41
5.73 3.42 1.79 9.1477e-41
5.77 3.42 1.81 9.1477e-41
5.81 3.42 1.79 9.1477e-41
5.85 3.42 1.81 9.1477e-41
5.89 3.42 1.8 9.1477e-41
5.94 3.42 1.79 9.1477e-41
5.98 3.42 1.8 9.1477e-41
6.03 3.42 1.78 9.1477e-41
6.08 3.42 1.77 9.1477e-41
6.12 3.42 1.77 9.1477e-41
4.57 3.51 0.77 9.1477e-41
4.6 3.51 0.9 9.1477e-41
4.63 3.51 1.03 9.1477e-41
4.65 3.51 1.14 9.1477e-41
4.68 3.51 1.14 3.57e-43
4.7 3.51 1.14 3.57e-43
4.73 3.51 1.14 3.57e-43
4.75 3.51 1.14 3.57e-43
4.77 3.51 1.65 9.1477e-41
4.8 3.51 1.68 9.1477e-41
4.83 3.51 1.7 9.1477e-41
4.87 3.51 1.73 9.1477e-41
4.89 3.51 1.79 9.1477e-41
4.93 3.51 1.76 9.1477e-41
4.97 3.51 1.76 9.1477e-41
5 3.51 1.79 9.1477e-41
5.04 3.51 1.79 9.1477e-41
5.07 3.51 1.8 9.1477e-41
5.11 3.51 1.8 9.1477e-41
5.14 3.51 1.8 9.1477e-41
5.18 3.51 1.8 9.1477e-41
5.22 3.51 1.8 9.1477e-41
5.25 3.51 1.81 9.1477e-41
5.29 3.51 1.8 9.1477e-41
5.33 3.51 1.81 9.1477e-41
5.37 3.51 1.82 9.1477e-41
5.41 3.51 1.81 9.1477e-41
5.45 3.51 1.8 9.1477e-41
5.48 3.51 1.81 9.1477e-41
5.52 3.51 1.82 9.1477e-41
5.56 3.51 1.81 9.1477e-41
5.61 3.51 1.8 9.1477e-41
5.64 3.51 1.81 9.1477e-41
5.68 3.51 1.8 9.1477e-41
5.72 3.51 1.81 9.1477e-41
5.77 3.51 1.81 9.1477e-41
5.81 3.51 1.8 9.1477e-41
5.86 3.51 1.79 9.1477e-41
5.9 3.51 1.79 9.1477e-41
5.94 3.51 1.79 9.1477e-41
5.98 3.51 1.79 9.1477e-41
6.03 3.51 1.78 9.1477e-41
6.08 3.51 1.77 9.1477e-41
6.13 3.51 1.76 9.1477e-41
4.58 3.6 0.67 9.1477e-41
4.6 3.6 0.89 9.1477e-41
4.63 3.6 1.01 9.1477e-41
4.65 3.6 1.13 9.1477e-41
4.68 3.6 1.13 3.57e-43
4.7 3.6 1.13 3.57e-43
4.73 3.6 1.13 3.57e-43
4.75 3.6 1.13 3.57e-43
4.77 3.6 1.65 9.1477e-41
4.81 3.6 1.67 9.1477e-41
4.84 3.6 1.69 9.1477e-41
4.86 3.6 1.74 9.1477e-41
4.89 3.6 1.78 9.1477e-41
4.93 3.6 1.77 9.1477e-41
4.97 3.6 1.77 9.1477e-41
5 3.6 1.78 9.1477e-41
5.04 3.6 1.79 9.1477e-41
5.07 3.6 1.8 9.1477e-41
5.11 3.6 1.79 9.1477e-41
5.14 3.6 1.8 9.1477e-41
5.18 3.6 1.8 9.1477e-41
5.22 3.6 1.81 9.1477e-41
5.26 3.6 1.8 9.1477e-41
5.29 3.6 1.8 9.1477e-41
5.33 3.6 1.81 9.1477e-41
5.37 3.6 1.82 9.1477e-41
5.41 3.6 1.81 9.1477e-41
5.45 3.6 1.8 9.1477e-41
5.48 3.6 1.81 9.1477e-41
5.52 3.6 1.81 9.1477e-41
5.57 3.6 1.8 9.1477e-41
5.6 3.6 1.8 9.1477e-41
5.64 3.6 1.81 9.1477e-41
5.68 3.6 1.8 9.1477e-41
5.73 3.6 1.79 9.1477e-41
5.77 3.6 1.81 9.1477e-41
5.81 3.6 1.79 9.1477e-41
5.85 3.6 1.8 9.1477e-41
5.89 3.6 1.8 9.1477e-41
5.94 3.6 1.79 9.1477e-41
5.98 3.6 1.79 9.1477e-41
6.03 3.6 1.78 9.1477e-41
6.08 3.6 1.77 9.1477e-41
6.13 3.6 1.76 9.1477e-41
4.58 3.69 0.7 9.1477e-41
4.6 3.69 0.87 9.1477e-41
4.63 3.69 1 9.1477e-41
4.66 3.69 1.12 9.1477e-41
4.68 3.69 1.12 3.57e-43
4.7 3.69 1.12 3.57e-43
4.73 3.69 1.12 3.57e-43
4.75 3.69 1.53 9.1477e-41
4.78 3.69 1.61 9.1477e-41
4.81 3.69 1.65 9.1477e-41
4.83 3.69 1.7 9.1477e-41
4.87 3.69 1.72 9.1477e-41
4.9 3.69 1.77 9.1477e-41
4.93 3.69 1.77 9.1477e-41
4.97 3.69 1.77 9.1477e-41
5 3.69 1.78 9.1477e-41
5.04 3.69 1.78 9.1477e-41
5.07 3.69 1.8 9.1477e-41
5.11 3.69 1.79 9.1477e-41
5.15 3.69 1.79 9.1477e-41
5.19 3.69 1.78 9.1477e-41
5.22 3.69 1.8 9.1477e-41
5.26 3.69 1.8 9.1477e-41
5.29 3.69 1.8 9.1477e-41
5.33 3.69 1.81 9.1477e-41
5.37 3.69 1.82 9.1477e-41
5.41 3.69 1.8 9.1477e-41
5.45 3.69 1.8 9.1477e-41
5.49 3.69 1.8 9.1477e-41
5.52 3.69 1.81 9.1477e-41
5.56 3.69 1.81 9.1477e-41
5.6 3.69 1.8 9.1477e-41
5.65 3.69 1.8 9.1477e-41
5.69 3.69 1.8 9.1477e-41
5.73 3.69 1.8 9.1477e-41
5.77 3.69 1.8 9.1477e-41
5.81 3.69 1.79 9.1477e-41
5.85 3.69 1.8 9.1477e-41
5.9 3.69 1.78 9.1477e-41
5.94 3.69 1.79 9.1477e-41
5.99 3.69 1.78 9.1477e-41
6.03 3.69 1.78 9.1477e-41
6.09 3.69 1.75 9.1477e-41
6.13 3.69 1.76 9.1477e-41
4.58 3.78 0.68 9.1477e-41
4.61 3.78 0.83 9.1477e-41
4.63 3.78 1 9.1477e-41
4.66 3.78 1.11 9.1477e-41
4.68 3.78 1.11 3.57e-43
4.7 3.78 1.11 3.57e-43
4.73 3.78 1.11 3.57e-43
4.75 3.78 1.53 9.1477e-41
4.78 3.78 1.6 9.1477e-41
4.81 3.78 1.65 9.1477e-41
4.83 3.78 1.7 9.1477e-41
4.87 3.78 1.72 9.1477e-41
4.9 3.78 1.77 9.1477e-41
4.93 3.78 1.75 9.1477e-41
4.97 3.78 1.76 9.1477e-41
5 3.78 1.78 9.1477e-41
5.04 3.78 1.78 9.1477e-41
5.07 3.78 1.79 9.1477e-41
5.11 3.78 1.79 9.1477e-41
5.15 3.78 1.79 9.1477e-41
5.19 3.78 1.78 9.1477e-41
5.22 3.78 1.79 9.1477e-41
5.25 3.78 1.81 9.1477e-41
5.3 3.78 1.79 9.1477e-41
5.33 3.78 1.81 9.1477e-41
5.37 3.78 1.8 9.1477e-41
5.41 3.78 1.8 9.1477e-41
5.45 3.78 1.8 9.1477e-41
5.48 3.78 1.81 9.1477e-41
5.52 3.78 1.81 9.1477e-41
5.57 3.78 1.8 9.1477e-41
5.61 3.78 1.8 9.1477e-41
5.65 3.78 1.8 9.1477e-41
5.69 3.78 1.8 9.1477e-41
5.73 3.78 1.8 9.1477e-41
5.77 3.78 1.8 9.1477e-41
5.81 3.78 1.79 9.1477e-41
5.86 3.78 1.79 9.1477e-41
5.9 3.78 1.78 9.1477e-41
5.95 3.78 1.79 9.1477e-41
5.99 3.78 1.77 9.1477e-41
6.04 3.78 1.77 9.1477e-41
6.09 3.78 1.75 9.1477e-41
6.13 3.78 1.75 9.1477e-41
4.59 3.87 0.57 9.1477e-41
4.61 3.87 0.78 9.1477e-41
4.63 3.87 0.97 9.1477e-41
4.66 3.87 1.11 9.1477e-41
4.68 3.87 1.22 9.1477e-41
4.7 3.87 1.36 9.1477e-41
4.73 3.87 1.43 9.1477e-41
4.76 3.87 1.51 9.1477e-41
4.78 3.87 1.59 9.1477e-41
4.81 3.87 1.64 9.1477e-41
4.84 3.87 1.68 9.1477e-41
4.87 3.87 1.72 9.1477e-41
4.9 3.87 1.75 9.1477e-41
4.93 3.87 1.75 9.1477e-41
4.97 3.87 1.75 9.1477e-41
5.01 3.87 1.76 9.1477e-41
5.04 3.87 1.77 9.1477e-41
5.08 3.87 1.77 9.1477e-41
5.11 3.87 1.78 9.1477e-41
5.15 3.87 1.78 9.1477e-41
5.19 3.87 1.77 9.1477e-41
5.22 3.87 1.79 9.1477e-41
5.26 3.87 1.79 9.1477e-41
5.3 3.87 1.79 9.1477e-41
5.33 3.87 1.8 9.1477e-41
5.37 3.87 1.81 9.1477e-41
5.41 3.87 1.8 9.1477e-41
5.45 3.87 1.79 9.1477e-41
5.48 3.87 1.81 9.1477e-41
5.53 3.87 1.8 9.1477e-41
5.57 3.87 1.79 9.1477e-41
5.61 3.87 1.8 9.1477e-41
5.65 3.87 1.78 9.1477e-41
5.69 3.87 1.8 9.1477e-41
5.73 3.87 1.8 9.1477e-41
5.78 3.87 1.79 9.1477e-41
5.81 3.87 1.79 9.1477e-41
5.86 3.87 1.78 9.1477e-41
5.91 3.87 1.77 9.1477e-41
5.95 3.87 1.79 9.1477e-41
5.99 3.87 1.77 9.1477e-41
6.04 3.87 1.77 9.1477e-41
6.09 3.87 1.75 9.1477e-41
6.13 3.87 1.75 9.1477e-41
4.62 3.96 0.7 9.1477e-41
4.64 3.96 0.93 9.1477e-41
4.66 3.96 1.1 9.1477e-41
4.68 3.96 1.21 9.1477e-41
4.71 3.96 1.32 9.1477e-41
4.74 3.96 1.41 9.1477e-41
4.76 3.96 1.48 9.1477e-41
4.79 3.96 1.54 9.1477e-41
4.82 3.96 1.59 9.1477e-41
4.85 3.96 1.62 9.1477e-41
4.88 3.96 1.67 9.1477e-41
4.91 3.96 1.69 9.1477e-41
4.94 3.96 1.71 9.1477e-41
4.98 3.96 1.72 9.1477e-41
5.02 3.96 1.72 9.1477e-41
5.05 3.96 1.76 9.1477e-41
5.08 3.96 1.75 9.1477e-41
5.12 3.96 1.76 9.1477e-41
5.16 3.96 1.75 9.1477e-41
5.19 3.96 1.76 9.1477e-41
5.23 3.96 1.77 9.1477e-41
5.27 3.96 1.77 9.1477e-41
5.3 3.96 1.79 9.1477e-41
5.34 3.96 1.78 9.1477e-41
5.38 3.96 1.78 9.1477e-41
5.42 3.96 1.77 9.1477e-41
5.46 3.96 1.77 9.1477e-41
5.5 3.96 1.78 9.1477e-41
5.53 3.96 1.78 9.1477e-41
5.57 3.96 1.78 9.1477e-41
5.61 3.96 1.79 9.1477e-41
5.66 3.96 1.77 9.1477e-41
5.69 3.96 1.79 9.1477e-41
5.74 3.96 1.78 9.1477e-41
5.78 3.96 1.77 9.1477e-41
5.82 3.96 1.78 9.1477e-41
5.86 3.96 1.77 9.1477e-41
5.91 3.96 1.77 9.1477e-41
5.95 3.96 1.78 9.1477e-41
6 3.96 1.77 9.1477e-41
6.05 3.96 1.76 9.1477e-41
6.09 3.96 1.75 9.1477e-41
4.63 4.05 0.59 9.1477e-41
4.67 4.05 0.62 9.1477e-41
4.71 4.05 0.71 9.1477e-41
4.72 4.05 0.94 9.1477e-41
4.75 4.05 1.01 9.1477e-41
4.78 4.05 1.14 9.1477e-41
4.81 4.05 1.2 9.1477e-41
4.85 4.05 1.22 9.1477e-41
4.89 4.05 1.19 9.1477e-41
4.94 4.05 1.15 9.1477e-41
4.97 4.05 1.22 9.1477e-41
5 4.05 1.24 9.1477e-41
5.04 4.05 1.27 9.1477e-41
5.07 4.05 1.32 9.1477e-41
5.11 4.05 1.32 9.1477e-41
5.14 4.05 1.35 9.1477e-41
5.18 4.05 1.36 9.1477e-41
5.22 4.05 1.39 9.1477e-41
5.26 4.05 1.39 9.1477e-41
5.29 4.05 1.41 9.1477e-41
5.33 4.05 1.42 9.1477e-41
5.37 4.05 1.44 9.1477e-41
5.4 4.05 1.44 9.1477e-41
5.45 4.05 1.44 9.1477e-41
5.47 4.05 1.5 9.1477e-41
5.51 4.05 1.51 9.1477e-41
5.57 4.05 1.46 9.1477e-41
5.61 4.05 1.46 9.1477e-41
5.65 4.05 1.45 9.1477e-41
5.7 4.05 1.46 9.1477e-41
5.74 4.05 1.45 9.1477e-41
5.78 4.05 1.47 9.1477e-41
5.83 4.05 1.44 9.1477e-41
5.88 4.05 1.44 9.1477e-41
5.92 4.05 1.45 9.1477e-41
5.98 4.05 1.43 9.1477e-41
6.03 4.05 1.41 9.1477e-41
6.1 4.05 1.35 9.1477e-41
6.14 4.05 1.38 9.1477e-41
6.17 4.05 1.42 9.1477e-41
4.67 4.14 0.62 9.1477e-41
4.74 4.14 0.43 9.1477e-41
4.78 4.14 0.48 9.1477e-41
4.83 4.14 0.48 9.1477e-41
4.88 4.14 0.47 9.1477e-41
4.92 4.14 0.48 9.1477e-41
4.97 4.14 0.48 9.1477e-41
5.02 4.14 0.47 9.1477e-41
5.07 4.14 0.47 9.1477e-41
5.11 4.14 0.48 9.1477e-41
5.16 4.14 0.48 9.1477e-41
5.21 4.14 0.49 9.1477e-41
5.24 4.14 0.57 9.1477e-41
5.23 4.14 0.82 9.1477e-41
5.25 4.14 0.9 9.1477e-41
5.28 4.14 0.97 9.1477e-41
5.32 4.14 0.99 9.1477e-41
5.36 4.14 1 9.1477e-41
5.4 4.14 1.01 9.1477e-41
5.44 4.14 1.03 9.1477e-41
5.49 4.14 1.04 9.1477e-41
5.55 4.14 0.99 9.1477e-41
5.58 4.14 1.01 9.1477e-41
5.58 4.14 1.15 9.1477e-41
5.65 4.14 1.08 9.1477e-41
5.71 4.14 1.05 9.1477e-41
5.76 4.14 1.04 9.1477e-41
5.81 4.14 1.04 9.1477e-41
5.86 4.14 1.01 9.1477e-41
5.93 4.14 0.97 9.1477e-41
5.99 4.14 0.97 3.57e-43
5.83 4.14 1.44 9.1477e-41
