# .PCD v.7 - Point Cloud Data file format
VERSION .7
FIELDS x y z rgb
SIZE 4 4 4 4
TYPE F F F F
WIDTH 1513
HEIGHT 1
POINTS 1513
DATA ascii
6.26 0 0.53 9.1477e-41
6.31 0 0.54 9.1477e-41
6.36 0 0.54 3.57e-43
6.53 0 0.54 3.57e-43
6.57 0 0.54 3.57e-43
6.62 0 0.54 3.57e-43
6.68 0 0.54 3.57e-43
6.93 0 0.54 3.57e-43
6.71 0 0.66 9.1477e-41
6.76 0 0.67 9.1477e-41
6.82 0 0.67 9.1477e-41
6.88 0 0.67 3.57e-43
7.31 0 0.67 3.57e-43
7.38 0 0.67 3.57e-43
7.46 0 0.67 3.57e-43
6.28 0.07 0.63 3.57e-43
6.33 0.07 0.62 9.1477e-41
6.39 0.07 0.62 3.57e-43
6.57 0.07 0.62 3.57e-43
6.62 0.07 0.62 3.57e-43
6.68 0.07 0.62 3.57e-43
6.93 0.07 0.62 3.57e-43
6.99 0.07 0.62 3.57e-43
6.71 0.07 0.66 9.1477e-41
6.74 0.07 0.7 9.1477e-41
6.79 0.07 0.73 9.1477e-41
6.84 0.07 0.72 9.1477e-41
6.92 0.07 0.72 3.57e-43
7.38 0.07 0.72 3.57e-43
7.46 0.07 0.72 3.57e-43
7.53 0.07 0.72 3.57e-43
7.59 0.07 0.72 3.57e-43
6.22 0.14 0.63 9.1477e-41
6.28 0.14 0.63 9.1477e-41
6.33 0.14 0.63 3.57e-43
6.39 0.14 0.63 3.57e-43
6.57 0.14 0.63 3.57e-43
6.62 0.14 0.63 3.57e-43
6.68 0.14 0.63 3.57e-43
6.93 0.14 0.63 3.57e-43
6.99 0.14 0.63 3.57e-43
6.71 0.14 0.63 3.57e-43
6.74 0.14 0.63 3.57e-43
6.79 0.14 0.63 3.57e-43
6.84 0.14 0.63 3.57e-43
6.92 0.14 0.63 3.57e-43
7.38 0.14 0.63 3.57e-43
7.46 0.14 0.63 3.57e-43
7.53 0.14 0.63 3.57e-43
7.25 0.14 0.66 9.1477e-41
7.32 0.14 0.65 9.1477e-41
6.13 0.21 0.6 9.1477e-41
6.18 0.21 0.6 9.1477e-41
6.2 0.21 0.67 9.1477e-41
6.27 0.21 0.65 9.1477e-41
6.32 0.21 0.65 3.57e-43
6.39 0.21 0.65 3.57e-43
6.57 0.21 0.65 3.57e-43
6.62 0.21 0.65 3.57e-43
6.68 0.21 0.65 3.57e-43
6.93 0.21 0.65 3.57e-43
6.99 0.21 0.65 3.57e-43
6.71 0.21 0.65 3.57e-43
6.74 0.21 0.65 3.57e-43
6.79 0.21 0.65 3.57e-43
6.84 0.21 0.65 3.57e-43
6.92 0.21 0.65 3.57e-43
7.38 0.21 0.65 3.57e-43
7.46 0.21 0.65 3.57e-43
7.53 0.21 0.65 3.57e-43
7.59 0.21 0.65 3.57e-43
7.25 0.21 0.66 9.1477e-41
7.33 0.21 0.62 9.1477e-41
7.39 0.21 0.65 9.1477e-41
6.05 0.28 0.66 9.1477e-41
6.11 0.28 0.64 9.1477e-41
6.16 0.28 0.66 9.1477e-41
6.2 0.28 0.67 9.1477e-41
6.23 0.28 0.67 3.57e-43
6.32 0.28 0.67 3.57e-43
6.39 0.28 0.67 3.57e-43
6.57 0.28 0.67 3.57e-43
6.62 0.28 0.67 3.57e-43
6.68 0.28 0.67 3.57e-43
6.93 0.28 0.67 3.57e-43
6.99 0.28 0.67 3.57e-43
6.71 0.28 0.67 3.57e-43
6.74 0.28 0.67 3.57e-43
6.79 0.28 0.67 3.57e-43
6.84 0.28 0.67 3.57e-43
6.92 0.28 0.67 3.57e-43
7.38 0.28 0.67 3.57e-43
7.46 0.28 0.67 3.57e-43
7.53 0.28 0.67 3.57e-43
7.59 0.28 0.67 3.57e-43
7.25 0.28 0.67 3.57e-43
7.33 0.28 0.62 9.1477e-41
7.33 0.28 0.72 9.1477e-41
7.43 0.28 0.66 9.1477e-41
7.51 0.28 0.65 9.1477e-41
6.04 0.35 0.69 9.1477e-41
6.06 0.35 0.76 9.1477e-41
6.11 0.35 0.78 9.1477e-41
6.15 0.35 0.79 9.1477e-41
6.21 0.35 0.79 3.57e-43
6.32 0.35 0.79 3.57e-43
6.39 0.35 0.79 3.57e-43
6.57 0.35 0.79 3.57e-43
6.62 0.35 0.79 3.57e-43
6.68 0.35 0.79 3.57e-43
6.93 0.35 0.79 3.57e-43
6.99 0.35 0.79 3.57e-43
6.71 0.35 0.79 3.57e-43
6.74 0.35 0.79 3.57e-43
6.79 0.35 0.79 3.57e-43
6.84 0.35 0.79 3.57e-43
6.92 0.35 0.79 3.57e-43
7.38 0.35 0.79 3.57e-43
7.46 0.35 0.79 3.57e-43
7.53 0.35 0.79 3.57e-43
7.59 0.35 0.79 3.57e-43
7.25 0.35 0.79 3.57e-43
7.33 0.35 0.79 3.57e-43
7.33 0.35 0.72 9.1477e-41
7.44 0.35 0.66 9.1477e-41
7.51 0.35 0.65 9.1477e-41
7.57 0.35 0.66 9.1477e-41
6.03 0.42 0.71 9.1477e-41
6.06 0.42 0.77 9.1477e-41
6.1 0.42 0.79 9.1477e-41
6.15 0.42 0.79 3.57e-43
6.21 0.42 0.79 3.57e-43
6.32 0.42 0.79 3.57e-43
6.39 0.42 0.79 3.57e-43
6.57 0.42 0.79 3.57e-43
6.62 0.42 0.79 3.57e-43
6.68 0.42 0.79 3.57e-43
6.93 0.42 0.79 3.57e-43
6.99 0.42 0.79 3.57e-43
6.71 0.42 0.79 3.57e-43
6.74 0.42 0.79 3.57e-43
6.79 0.42 0.79 3.57e-43
6.84 0.42 0.79 3.57e-43
6.92 0.42 0.79 3.57e-43
7.38 0.42 0.79 3.57e-43
7.46 0.42 0.79 3.57e-43
7.53 0.42 0.79 3.57e-43
7.59 0.42 0.79 3.57e-43
7.25 0.42 0.79 3.57e-43
7.33 0.42 0.79 3.57e-43
7.33 0.42 0.79 3.57e-43
7.44 0.42 0.66 9.1477e-41
7.43 0.42 0.78 9.1477e-41
7.48 0.42 0.79 9.1477e-41
6.02 0.49 0.75 3.57e-43
6.06 0.49 0.77 9.1477e-41
6.1 0.49 0.79 9.1477e-41
6.15 0.49 0.79 3.57e-43
6.21 0.49 0.79 3.57e-43
6.32 0.49 0.79 3.57e-43
6.39 0.49 0.79 3.57e-43
6.57 0.49 0.79 3.57e-43
6.62 0.49 0.79 3.57e-43
6.68 0.49 0.79 3.57e-43
6.93 0.49 0.79 3.57e-43
6.99 0.49 0.79 3.57e-43
6.71 0.49 0.79 3.57e-43
6.74 0.49 0.79 3.57e-43
6.79 0.49 0.79 3.57e-43
6.84 0.49 0.79 3.57e-43
6.92 0.49 0.79 3.57e-43
7.38 0.49 0.79 3.57e-43
7.46 0.49 0.79 3.57e-43
7.53 0.49 0.79 3.57e-43
7.59 0.49 0.79 3.57e-43
7.25 0.49 0.79 3.57e-43
7.33 0.49 0.79 3.57e-43
7.33 0.49 0.79 3.57e-43
7.44 0.49 0.79 3.57e-43
7.43 0.49 0.78 9.1477e-41
7.49 0.49 0.78 9.1477e-41
7.61 0.49 0.71 9.1477e-41
5.97 0.56 0.47 9.1477e-41
6 0.56 0.47 3.57e-43
6.25 0.56 0.47 3.57e-43
6.02 0.56 0.75 9.1477e-41
6.04 0.56 0.82 9.1477e-41
6.08 0.56 0.82 3.57e-43
6.15 0.56 0.82 3.57e-43
6.21 0.56 0.82 3.57e-43
6.32 0.56 0.82 3.57e-43
6.39 0.56 0.82 3.57e-43
6.57 0.56 0.82 3.57e-43
6.62 0.56 0.82 3.57e-43
6.68 0.56 0.82 3.57e-43
6.93 0.56 0.82 3.57e-43
6.99 0.56 0.82 3.57e-43
6.71 0.56 0.82 3.57e-43
6.74 0.56 0.82 3.57e-43
6.79 0.56 0.82 3.57e-43
6.84 0.56 0.82 3.57e-43
6.92 0.56 0.82 3.57e-43
7.38 0.56 0.82 3.57e-43
7.46 0.56 0.82 3.57e-43
7.53 0.56 0.82 3.57e-43
7.59 0.56 0.82 3.57e-43
7.25 0.56 0.82 3.57e-43
7.33 0.56 0.82 3.57e-43
7.33 0.56 0.82 3.57e-43
7.44 0.56 0.82 3.57e-43
7.43 0.56 0.82 3.57e-43
7.49 0.56 0.78 9.1477e-41
7.56 0.56 0.78 9.1477e-41
5.96 0.63 0.48 9.1477e-41
5.98 0.63 0.48 3.57e-43
6.25 0.63 0.48 3.57e-43
6.02 0.63 0.75 9.1477e-41
6.03 0.63 0.83 9.1477e-41
6.08 0.63 0.83 3.57e-43
6.15 0.63 0.83 3.57e-43
6.21 0.63 0.83 3.57e-43
6.32 0.63 0.83 3.57e-43
6.39 0.63 0.83 3.57e-43
6.57 0.63 0.83 3.57e-43
6.62 0.63 0.83 3.57e-43
6.68 0.63 0.83 3.57e-43
6.93 0.63 0.83 3.57e-43
6.99 0.63 0.83 3.57e-43
6.71 0.63 0.83 3.57e-43
6.74 0.63 0.83 3.57e-43
6.79 0.63 0.83 3.57e-43
6.84 0.63 0.83 3.57e-43
6.92 0.63 0.83 3.57e-43
7.38 0.63 0.83 3.57e-43
7.46 0.63 0.83 3.57e-43
7.53 0.63 0.83 3.57e-43
7.59 0.63 0.83 3.57e-43
7.25 0.63 0.83 3.57e-43
7.33 0.63 0.83 3.57e-43
7.33 0.63 0.83 3.57e-43
7.44 0.63 0.83 3.57e-43
7.43 0.63 0.83 3.57e-43
7.49 0.63 0.78 9.1477e-41
7.53 0.63 0.82 9.1477e-41
5.96 0.7 0.48 9.1477e-41
5.99 0.7 0.48 3.57e-43
6.25 0.7 0.48 3.57e-43
6.02 0.7 0.48 3.57e-43
6.03 0.7 0.83 9.1477e-41
6.07 0.7 0.83 3.57e-43
6.15 0.7 0.83 3.57e-43
6.21 0.7 0.83 3.57e-43
6.32 0.7 0.83 3.57e-43
6.39 0.7 0.83 3.57e-43
6.57 0.7 0.83 3.57e-43
6.62 0.7 0.83 3.57e-43
6.68 0.7 0.83 3.57e-43
6.93 0.7 0.83 3.57e-43
6.99 0.7 0.83 3.57e-43
6.71 0.7 0.83 3.57e-43
6.74 0.7 0.7 9.1477e-41
6.67 0.7 0.7 3.57e-43
6.84 0.7 0.7 3.57e-43
6.92 0.7 0.7 9.1477e-41
6.85 0.7 0.7 3.57e-43
7.46 0.7 0.7 3.57e-43
7.53 0.7 0.7 3.57e-43
7.59 0.7 0.7 3.57e-43
7.25 0.7 0.7 3.57e-43
7.33 0.7 0.7 3.57e-43
7.33 0.7 0.7 3.57e-43
7.44 0.7 0.7 3.57e-43
7.43 0.7 0.7 3.57e-43
7.49 0.7 0.7 3.57e-43
7.53 0.7 0.82 9.1477e-41
5.96 0.77 0.49 9.1477e-41
5.98 0.77 0.49 3.57e-43
6.25 0.77 0.49 3.57e-43
6.02 0.77 0.49 3.57e-43
6.03 0.77 0.83 9.1477e-41
6.06 0.77 0.83 3.57e-43
6.15 0.77 0.83 3.57e-43
6.21 0.77 0.83 3.57e-43
6.32 0.77 0.83 3.57e-43
6.39 0.77 0.62 9.1477e-41
6.31 0.77 0.91 9.1477e-41
6.35 0.77 0.93 9.1477e-41
6.41 0.77 0.93 9.1477e-41
6.46 0.77 0.93 9.1477e-41
6.51 0.77 0.93 9.1477e-41
6.56 0.77 0.95 9.1477e-41
6.61 0.77 0.95 9.1477e-41
6.66 0.77 0.95 9.1477e-41
6.72 0.77 0.95 9.1477e-41
6.77 0.77 0.96 9.1477e-41
6.83 0.77 0.96 9.1477e-41
6.89 0.77 0.96 9.1477e-41
6.94 0.77 0.97 9.1477e-41
7 0.77 0.96 9.1477e-41
7.07 0.77 0.93 9.1477e-41
7.14 0.77 0.92 9.1477e-41
7.2 0.77 0.92 3.57e-43
7.44 0.77 0.92 3.57e-43
7.43 0.77 0.92 3.57e-43
7.49 0.77 0.92 3.57e-43
7.53 0.77 0.82 9.1477e-41
5.96 0.84 0.48 9.1477e-41
5.97 0.84 0.48 3.57e-43
6.25 0.84 0.48 3.57e-43
6.02 0.84 0.48 3.57e-43
6.03 0.84 0.83 9.1477e-41
6.06 0.84 0.83 3.57e-43
6.15 0.84 0.83 3.57e-43
6.21 0.84 0.78 9.1477e-41
6.2 0.84 0.92 9.1477e-41
6.25 0.84 0.92 9.1477e-41
6.3 0.84 0.92 9.1477e-41
6.35 0.84 0.92 3.57e-43
6.41 0.84 0.93 9.1477e-41
6.43 0.84 0.93 3.57e-43
6.51 0.84 0.93 3.57e-43
6.56 0.84 0.93 3.57e-43
6.61 0.84 0.93 3.57e-43
6.66 0.84 0.93 3.57e-43
6.72 0.84 0.93 3.57e-43
6.77 0.84 0.93 3.57e-43
6.83 0.84 0.93 3.57e-43
6.89 0.84 0.93 3.57e-43
6.94 0.84 0.93 3.57e-43
7 0.84 0.93 3.57e-43
7.07 0.84 0.93 3.57e-43
7.14 0.84 0.92 9.1477e-41
7.18 0.84 0.95 9.1477e-41
7.25 0.84 0.93 9.1477e-41
7.35 0.84 0.89 9.1477e-41
7.41 0.84 0.89 3.57e-43
7.53 0.84 0.82 9.1477e-41
5.96 0.91 0.83 3.57e-43
6.05 0.91 0.83 3.57e-43
6.15 0.91 0.8 9.1477e-41
6.14 0.91 0.93 9.1477e-41
6.2 0.91 0.93 3.57e-43
6.25 0.91 0.93 3.57e-43
6.3 0.91 0.92 9.1477e-41
6.32 0.91 0.92 3.57e-43
6.41 0.91 0.92 3.57e-43
6.43 0.91 0.92 3.57e-43
6.51 0.91 0.92 3.57e-43
6.56 0.91 0.92 3.57e-43
6.61 0.91 0.92 3.57e-43
6.66 0.91 0.92 3.57e-43
6.72 0.91 0.92 3.57e-43
6.77 0.91 0.92 3.57e-43
6.83 0.91 0.92 3.57e-43
6.89 0.91 0.92 3.57e-43
6.94 0.91 0.92 3.57e-43
7 0.91 0.92 3.57e-43
7.07 0.91 0.92 3.57e-43
7.14 0.91 0.92 3.57e-43
7.18 0.91 0.92 3.57e-43
7.25 0.91 0.92 3.57e-43
7.35 0.91 0.89 9.1477e-41
7.39 0.91 0.92 9.1477e-41
7.47 0.91 0.92 3.57e-43
5.97 0.98 0.92 3.57e-43
6.22 0.98 0.99 9.1477e-41
6.28 0.98 0.98 9.1477e-41
6.32 0.98 0.98 3.57e-43
6.41 0.98 0.98 3.57e-43
6.43 0.98 0.98 3.57e-43
6.51 0.98 0.98 3.57e-43
6.56 0.98 0.98 3.57e-43
6.61 0.98 0.98 3.57e-43
6.66 0.98 0.98 3.57e-43
6.72 0.98 0.98 3.57e-43
6.77 0.98 0.98 3.57e-43
6.83 0.98 0.98 3.57e-43
6.89 0.98 0.98 3.57e-43
6.94 0.98 0.98 3.57e-43
7 0.98 0.98 3.57e-43
7.07 0.98 0.98 3.57e-43
7.14 0.98 0.98 3.57e-43
7.18 0.98 0.98 3.57e-43
7.25 0.98 0.98 3.57e-43
7.35 0.98 0.98 3.57e-43
7.39 0.98 0.92 9.1477e-41
7.46 0.98 0.92 9.1477e-41
7.52 0.98 0.92 9.1477e-41
6.43 1.05 0.96 3.57e-43
7.04 1.05 0.99 9.1477e-41
7.07 1.05 1.04 9.1477e-41
7.13 1.05 1.03 9.1477e-41
7.18 1.05 1.03 3.57e-43
7.35 1.05 1.03 3.57e-43
7.39 1.05 1.03 3.57e-43
7.46 1.05 0.92 9.1477e-41
7.54 1.05 0.9 9.1477e-41
7.07 1.12 0.87 3.57e-43
7.13 1.12 1.04 9.1477e-41
7.19 1.12 1.04 3.57e-43
7.35 1.12 1.04 3.57e-43
7.39 1.12 1.04 3.57e-43
7.46 1.12 0.92 9.1477e-41
7.48 1.12 0.98 9.1477e-41
6.02 1.19 0.75 3.57e-43
6.02 1.19 0.87 9.1477e-41
6.05 1.19 0.87 3.57e-43
6.15 1.19 0.87 3.57e-43
6.14 1.19 0.87 3.57e-43
6.2 1.19 0.87 3.57e-43
6.22 1.19 0.87 3.57e-43
6.28 1.19 0.87 3.57e-43
6.32 1.19 0.87 3.57e-43
6.41 1.19 0.87 3.57e-43
6.43 1.19 0.87 3.57e-43
6.51 1.19 0.87 3.57e-43
6.56 1.19 0.87 3.57e-43
6.61 1.19 0.87 3.57e-43
6.66 1.19 0.87 3.57e-43
6.72 1.19 0.87 3.57e-43
6.77 1.19 0.87 3.57e-43
6.83 1.19 0.87 3.57e-43
6.89 1.19 0.87 3.57e-43
6.94 1.19 0.87 3.57e-43
7 1.19 0.87 3.57e-43
7.04 1.19 0.87 3.57e-43
7.07 1.19 0.87 3.57e-43
7.13 1.19 0.87 3.57e-43
7.19 1.19 0.87 3.57e-43
7.35 1.19 0.87 3.57e-43
7.39 1.19 0.87 3.57e-43
7.46 1.19 0.92 9.1477e-41
7.46 1.19 1.01 9.1477e-41
6.02 1.26 0.75 3.57e-43
6.02 1.26 0.75 3.57e-43
6.05 1.26 0.75 3.57e-43
6.15 1.26 0.75 3.57e-43
6.14 1.26 0.75 3.57e-43
6.2 1.26 0.75 3.57e-43
6.22 1.26 0.75 3.57e-43
6.28 1.26 0.75 3.57e-43
6.32 1.26 0.75 3.57e-43
6.41 1.26 0.75 3.57e-43
6.43 1.26 0.75 3.57e-43
6.51 1.26 0.75 3.57e-43
6.56 1.26 0.75 3.57e-43
6.61 1.26 0.75 3.57e-43
6.66 1.26 0.95 9.1477e-41
6.7 1.26 0.95 3.57e-43
6.77 1.26 0.95 3.57e-43
6.83 1.26 0.95 3.57e-43
6.89 1.26 0.95 3.57e-43
6.94 1.26 0.95 3.57e-43
7 1.26 0.95 3.57e-43
7.04 1.26 0.95 3.57e-43
7.07 1.26 0.95 3.57e-43
7.13 1.26 0.95 3.57e-43
7.19 1.26 0.95 3.57e-43
7.35 1.26 0.95 3.57e-43
7.39 1.26 0.95 3.57e-43
7.46 1.26 0.92 9.1477e-41
7.45 1.26 0.92 3.57e-43
5.94 1.33 0.6 3.57e-43
5.94 1.33 0.6 3.57e-43
6.02 1.33 0.75 9.1477e-41
6.02 1.33 0.75 3.57e-43
6.05 1.33 0.75 3.57e-43
6.15 1.33 0.75 3.57e-43
6.14 1.33 0.75 3.57e-43
6.2 1.33 0.75 3.57e-43
6.22 1.33 0.75 3.57e-43
6.28 1.33 0.75 3.57e-43
6.32 1.33 0.75 3.57e-43
6.41 1.33 0.75 3.57e-43
6.43 1.33 0.75 3.57e-43
6.51 1.33 0.75 3.57e-43
6.56 1.33 0.75 3.57e-43
6.61 1.33 0.75 3.57e-43
6.66 1.33 0.95 9.1477e-41
6.72 1.33 0.95 9.1477e-41
6.8 1.33 0.91 9.1477e-41
6.85 1.33 0.93 9.1477e-41
6.9 1.33 0.93 3.57e-43
6.94 1.33 0.93 3.57e-43
7 1.33 0.93 3.57e-43
7.04 1.33 0.93 3.57e-43
7.07 1.33 0.93 3.57e-43
7.13 1.33 0.93 3.57e-43
7.19 1.33 0.93 3.57e-43
7.35 1.33 0.93 3.57e-43
7.39 1.33 0.93 3.57e-43
7.46 1.33 0.93 3.57e-43
7.45 1.33 0.93 3.57e-43
6.66 1.4 1 3.57e-43
6.71 1.4 0.97 9.1477e-41
6.78 1.4 0.95 9.1477e-41
6.83 1.4 0.96 9.1477e-41
6.89 1.4 0.96 3.57e-43
6.94 1.4 0.96 3.57e-43
7 1.4 0.96 3.57e-43
7.04 1.4 0.96 3.57e-43
7.07 1.4 0.96 3.57e-43
7.13 1.4 0.96 3.57e-43
7.19 1.4 0.96 3.57e-43
7.35 1.4 0.96 3.57e-43
7.39 1.4 0.96 3.57e-43
7.46 1.4 0.96 3.57e-43
7.45 1.4 1.02 9.1477e-41
7.43 1.4 1.13 9.1477e-41
5.94 1.47 0.6 3.57e-43
5.87 1.47 1 9.1477e-41
5.91 1.47 1.01 9.1477e-41
5.98 1.47 0.97 9.1477e-41
6.05 1.47 0.92 9.1477e-41
6.07 1.47 1 9.1477e-41
6.1 1.47 1 3.57e-43
6.2 1.47 1 3.57e-43
6.22 1.47 1 3.57e-43
6.28 1.47 1 3.57e-43
6.32 1.47 1 3.57e-43
6.41 1.47 1 3.57e-43
6.43 1.47 1 3.57e-43
6.51 1.47 1 3.57e-43
6.56 1.47 1 3.57e-43
6.61 1.47 1 3.57e-43
6.66 1.47 1 3.57e-43
6.71 1.47 1 3.57e-43
6.78 1.47 0.95 9.1477e-41
6.87 1.47 0.95 3.57e-43
6.89 1.47 0.95 3.57e-43
6.94 1.47 0.95 3.57e-43
7 1.47 0.95 3.57e-43
7.04 1.47 0.95 3.57e-43
7.07 1.47 0.95 3.57e-43
7.13 1.47 0.95 3.57e-43
7.19 1.47 0.95 3.57e-43
7.35 1.47 0.95 3.57e-43
7.39 1.47 0.95 3.57e-43
7.46 1.47 0.95 3.57e-43
7.45 1.47 1.02 9.1477e-41
7.42 1.47 1.02 3.57e-43
8.59 1.47 1.02 3.57e-43
5.93 1.54 1.01 3.57e-43
6 1.54 0.91 3.57e-43
6.05 1.54 0.91 3.57e-43
6.07 1.54 1 3.57e-43
6.31 1.54 0.55 3.57e-43
6.2 1.54 0.93 3.57e-43
6.41 1.54 0.93 3.57e-43
6.28 1.54 0.93 3.57e-43
6.32 1.54 0.93 3.57e-43
6.41 1.54 0.93 3.57e-43
6.43 1.54 0.98 3.57e-43
6.51 1.54 0.93 9.1477e-41
6.81 1.54 0.47 9.1477e-41
6.85 1.54 0.47 3.57e-43
6.66 1.54 0.47 3.57e-43
6.71 1.54 0.97 9.1477e-41
6.92 1.54 0.69 9.1477e-41
6.96 1.54 0.69 3.57e-43
6.89 1.54 0.69 3.57e-43
6.94 1.54 0.69 3.57e-43
7 1.54 0.69 3.57e-43
7.04 1.54 0.69 3.57e-43
7.07 1.54 0.69 3.57e-43
7.13 1.54 0.69 3.57e-43
7.19 1.54 0.69 3.57e-43
7.35 1.54 0.69 3.57e-43
7.39 1.54 0.69 3.57e-43
7.46 1.54 0.69 3.57e-43
7.45 1.54 1.02 9.1477e-41
7.41 1.54 1.02 3.57e-43
7.67 1.54 1.18 9.1477e-41
5.93 1.61 1.01 3.57e-43
6 1.61 0.91 3.57e-43
6.05 1.61 0.91 3.57e-43
6.07 1.61 1 3.57e-43
6.31 1.61 0.55 3.57e-43
6.2 1.61 0.93 3.57e-43
6.41 1.61 0.93 3.57e-43
6.28 1.61 0.93 3.57e-43
6.32 1.61 0.93 3.57e-43
6.41 1.61 0.93 3.57e-43
6.43 1.61 0.98 3.57e-43
6.33 1.61 1.29 3.57e-43
6.36 1.61 1.29 3.57e-43
6.85 1.61 1.29 3.57e-43
6.66 1.61 0.96 3.57e-43
6.71 1.61 0.97 9.1477e-41
6.92 1.61 0.97 3.57e-43
6.96 1.61 0.73 9.1477e-41
6.69 1.61 0.73 3.57e-43
6.94 1.61 0.73 3.57e-43
7 1.61 0.73 3.57e-43
7.04 1.61 0.73 3.57e-43
7.07 1.61 0.73 3.57e-43
7.13 1.61 0.73 3.57e-43
7.19 1.61 0.73 3.57e-43
7.35 1.61 0.73 3.57e-43
7.39 1.61 0.73 3.57e-43
7.46 1.61 0.73 3.57e-43
7.45 1.61 0.73 3.57e-43
7.41 1.61 0.73 3.57e-43
5.93 1.68 1.01 3.57e-43
6 1.68 0.91 3.57e-43
6.05 1.68 0.91 3.57e-43
6.07 1.68 1 3.57e-43
6.31 1.68 0.55 3.57e-43
6.2 1.68 0.93 3.57e-43
6.41 1.68 0.93 3.57e-43
6.28 1.68 0.93 3.57e-43
6.32 1.68 0.93 3.57e-43
6.41 1.68 0.93 3.57e-43
6.43 1.68 0.98 9.1477e-41
6.33 1.68 1.29 9.1477e-41
6.36 1.68 1.29 3.57e-43
6.85 1.68 1.29 3.57e-43
6.66 1.68 0.96 9.1477e-41
6.9 1.68 0.62 9.1477e-41
6.93 1.68 0.62 3.57e-43
6.96 1.68 0.62 3.57e-43
6.69 1.68 0.62 3.57e-43
6.94 1.68 0.62 3.57e-43
7 1.68 0.62 3.57e-43
7.04 1.68 0.62 3.57e-43
7.07 1.68 0.62 3.57e-43
7.13 1.68 0.62 3.57e-43
7.19 1.68 0.62 3.57e-43
7.35 1.68 0.62 3.57e-43
7.39 1.68 0.62 3.57e-43
7.46 1.68 0.62 3.57e-43
7.45 1.68 0.62 3.57e-43
7.41 1.68 0.62 3.57e-43
5.93 1.75 1.01 3.57e-43
6 1.75 0.91 3.57e-43
6.05 1.75 0.91 3.57e-43
6.07 1.75 1 3.57e-43
6.31 1.75 0.55 3.57e-43
6.2 1.75 0.93 9.1477e-41
6.41 1.75 0.93 3.57e-43
6.28 1.75 0.93 3.57e-43
6.32 1.75 0.93 3.57e-43
6.41 1.75 0.93 9.1477e-41
6.26 1.75 0.93 3.57e-43
6.33 1.75 0.93 3.57e-43
6.36 1.75 0.93 3.57e-43
6.85 1.75 0.93 3.57e-43
6.66 1.75 0.93 3.57e-43
6.9 1.75 0.93 3.57e-43
6.93 1.75 0.93 3.57e-43
6.96 1.75 0.93 3.57e-43
6.69 1.75 0.93 3.57e-43
6.94 1.75 0.93 3.57e-43
7 1.75 0.93 3.57e-43
7.04 1.75 0.93 3.57e-43
7.07 1.75 0.93 3.57e-43
7.13 1.75 0.93 3.57e-43
7.19 1.75 0.93 3.57e-43
7.35 1.75 0.93 3.57e-43
7.39 1.75 0.93 3.57e-43
7.46 1.75 0.93 3.57e-43
7.45 1.75 0.93 3.57e-43
7.41 1.75 0.93 3.57e-43
5.93 1.82 1.01 3.57e-43
6 1.82 0.91 9.1477e-41
6.05 1.82 0.91 3.57e-43
6.07 1.82 1 9.1477e-41
6.31 1.82 0.55 9.1477e-41
6.38 1.82 0.53 9.1477e-41
6.43 1.82 0.52 9.1477e-41
6.49 1.82 0.52 3.57e-43
6.32 1.82 0.52 3.57e-43
6.41 1.82 0.92 9.1477e-41
6.25 1.82 1.35 9.1477e-41
6.29 1.82 1.35 3.57e-43
6.36 1.82 1.35 3.57e-43
6.85 1.82 1.35 3.57e-43
6.66 1.82 1.35 3.57e-43
6.9 1.82 1.35 3.57e-43
6.93 1.82 1.35 3.57e-43
6.96 1.82 1.35 3.57e-43
6.69 1.82 1.35 3.57e-43
6.94 1.82 1.35 3.57e-43
7 1.82 1.35 3.57e-43
7.04 1.82 1.35 3.57e-43
7.07 1.82 1.35 3.57e-43
7.13 1.82 1.35 3.57e-43
7.19 1.82 1.35 3.57e-43
7.35 1.82 1.35 3.57e-43
7.39 1.82 1.35 3.57e-43
7.46 1.82 1.35 3.57e-43
7.45 1.82 1.35 3.57e-43
7.41 1.82 1.17 9.1477e-41
7.34 1.82 1.34 9.1477e-41
5.93 1.89 1.01 3.57e-43
6.01 1.89 0.9 9.1477e-41
6.05 1.89 0.9 3.57e-43
6.07 1.89 1 9.1477e-41
6.32 1.89 0.52 9.1477e-41
6.38 1.89 0.52 9.1477e-41
6.44 1.89 0.5 9.1477e-41
6.5 1.89 0.51 9.1477e-41
6.55 1.89 0.51 3.57e-43
6.41 1.89 0.93 9.1477e-41
6.25 1.89 1.35 9.1477e-41
6.29 1.89 1.37 9.1477e-41
6.33 1.89 1.37 3.57e-43
6.85 1.89 1.37 3.57e-43
6.66 1.89 1.37 3.57e-43
6.9 1.89 1.37 3.57e-43
6.93 1.89 1.37 3.57e-43
6.96 1.89 1.37 3.57e-43
6.69 1.89 1.37 3.57e-43
6.94 1.89 1.37 3.57e-43
7 1.89 1.37 3.57e-43
7.04 1.89 1.37 3.57e-43
7.07 1.89 1.37 3.57e-43
7.13 1.89 1.37 3.57e-43
7.19 1.89 1.37 3.57e-43
7.35 1.89 1.37 3.57e-43
7.39 1.89 1.37 3.57e-43
7.46 1.89 1.37 3.57e-43
7.45 1.89 1.37 3.57e-43
7.41 1.89 1.37 3.57e-43
7.34 1.89 1.34 9.1477e-41
5.93 1.96 1.01 3.57e-43
6.01 1.96 0.9 9.1477e-41
6.05 1.96 0.9 3.57e-43
6.07 1.96 1 9.1477e-41
6.33 1.96 0.5 9.1477e-41
6.39 1.96 0.5 9.1477e-41
6.45 1.96 0.49 9.1477e-41
6.5 1.96 0.49 9.1477e-41
6.56 1.96 0.49 3.57e-43
6.41 1.96 0.93 9.1477e-41
6.24 1.96 1.36 9.1477e-41
6.28 1.96 1.39 9.1477e-41
6.33 1.96 1.39 3.57e-43
6.85 1.96 1.39 3.57e-43
6.66 1.96 1.39 3.57e-43
6.9 1.96 1.39 3.57e-43
6.93 1.96 1.39 3.57e-43
6.96 1.96 1.39 3.57e-43
6.69 1.96 1.39 3.57e-43
6.94 1.96 1.39 3.57e-43
7 1.96 1.39 3.57e-43
7.04 1.96 1.39 3.57e-43
7.07 1.96 1.39 3.57e-43
7.13 1.96 1.39 3.57e-43
7.19 1.96 1.39 3.57e-43
7.35 1.96 1.39 3.57e-43
7.39 1.96 1.39 3.57e-43
7.46 1.96 1.39 3.57e-43
7.45 1.96 1.39 3.57e-43
7.41 1.96 1.39 3.57e-43
7.34 1.96 1.34 9.1477e-41
5.93 2.03 1.01 3.57e-43
6.01 2.03 0.9 9.1477e-41
6.04 2.03 0.9 3.57e-43
6.07 2.03 0.9 3.57e-43
6.33 2.03 0.9 3.57e-43
6.39 2.03 0.9 3.57e-43
6.45 2.03 0.9 3.57e-43
6.5 2.03 0.9 3.57e-43
6.56 2.03 0.9 3.57e-43
6.41 2.03 0.9 3.57e-43
6.24 2.03 1.36 9.1477e-41
6.28 2.03 1.39 9.1477e-41
6.32 2.03 1.39 3.57e-43
6.85 2.03 1.39 3.57e-43
6.66 2.03 1.39 3.57e-43
6.9 2.03 1.39 3.57e-43
6.93 2.03 1.39 3.57e-43
6.96 2.03 1.39 3.57e-43
6.69 2.03 1.39 3.57e-43
6.94 2.03 1.39 3.57e-43
7 2.03 1.39 3.57e-43
7.04 2.03 1.39 3.57e-43
7.07 2.03 1.39 3.57e-43
7.13 2.03 1.39 3.57e-43
7.19 2.03 1.39 3.57e-43
7.35 2.03 1.39 3.57e-43
7.39 2.03 1.39 3.57e-43
7.46 2.03 1.39 3.57e-43
7.45 2.03 1.39 3.57e-43
7.41 2.03 1.39 3.57e-43
7.34 2.03 1.34 9.1477e-41
5.93 2.1 0.9 3.57e-43
6.04 2.1 0.9 3.57e-43
6.07 2.1 0.9 3.57e-43
6.33 2.1 0.9 3.57e-43
6.39 2.1 0.9 3.57e-43
6.45 2.1 0.9 3.57e-43
6.5 2.1 0.9 3.57e-43
6.56 2.1 0.9 3.57e-43
5.87 2.1 0.93 3.57e-43
6.24 2.1 1.36 9.1477e-41
6.28 2.1 1.39 9.1477e-41
6.32 2.1 1.4 9.1477e-41
6.36 2.1 1.4 3.57e-43
6.66 2.1 1.4 3.57e-43
6.9 2.1 1.4 3.57e-43
6.93 2.1 1.4 3.57e-43
6.96 2.1 1.4 3.57e-43
6.69 2.1 1.4 3.57e-43
6.94 2.1 1.4 3.57e-43
7 2.1 1.4 3.57e-43
7.04 2.1 1.4 3.57e-43
7.07 2.1 1.4 3.57e-43
7.13 2.1 1.4 3.57e-43
7.19 2.1 1.4 3.57e-43
7.35 2.1 1.4 3.57e-43
7.39 2.1 1.4 3.57e-43
7.46 2.1 1.4 3.57e-43
7.45 2.1 1.4 3.57e-43
7.41 2.1 1.17 9.1477e-41
7.3 2.1 1.4 9.1477e-41
5.87 2.17 0.93 3.57e-43
6.25 2.17 1.35 9.1477e-41
6.28 2.17 1.39 9.1477e-41
6.32 2.17 1.4 9.1477e-41
6.36 2.17 1.4 3.57e-43
6.66 2.17 1.4 3.57e-43
6.9 2.17 1.4 3.57e-43
6.93 2.17 1.4 3.57e-43
6.96 2.17 1.4 3.57e-43
6.69 2.17 1.4 3.57e-43
6.94 2.17 1.4 3.57e-43
7 2.17 1.4 3.57e-43
7.04 2.17 1.4 3.57e-43
7.07 2.17 1.4 3.57e-43
7.13 2.17 1.4 3.57e-43
7.19 2.17 1.4 3.57e-43
7.35 2.17 1.4 3.57e-43
7.39 2.17 1.4 3.57e-43
7.46 2.17 1.4 3.57e-43
7.45 2.17 1.4 3.57e-43
7.41 2.17 1.4 3.57e-43
7.3 2.17 1.4 9.1477e-41
6.24 2.24 1.36 3.57e-43
6.27 2.24 1.41 9.1477e-41
6.31 2.24 1.42 9.1477e-41
6.36 2.24 1.42 3.57e-43
6.66 2.24 1.42 3.57e-43
6.9 2.24 1.42 3.57e-43
6.93 2.24 1.42 3.57e-43
6.96 2.24 1.42 3.57e-43
6.69 2.24 1.42 3.57e-43
6.94 2.24 1.42 3.57e-43
7 2.24 1.42 3.57e-43
7.04 2.24 1.42 3.57e-43
7.07 2.24 1.42 3.57e-43
7.13 2.24 1.42 3.57e-43
7.19 2.24 1.42 3.57e-43
7.35 2.24 1.42 3.57e-43
7.39 2.24 1.42 3.57e-43
7.46 2.24 1.42 3.57e-43
7.45 2.24 1.42 3.57e-43
7.41 2.24 1.42 3.57e-43
7.3 2.24 1.4 9.1477e-41
5.94 2.31 0.9 3.57e-43
6.03 2.31 0.96 3.57e-43
6.07 2.31 1 3.57e-43
6.33 2.31 0.5 3.57e-43
6.33 2.31 0.63 3.57e-43
6.37 2.31 0.66 3.57e-43
6.4 2.31 0.71 3.57e-43
6.48 2.31 0.66 3.57e-43
6.41 2.31 0.93 9.1477e-41
6.24 2.31 1.36 9.1477e-41
6.28 2.31 1.39 9.1477e-41
6.31 2.31 1.42 9.1477e-41
6.36 2.31 1.42 3.57e-43
6.66 2.31 1.42 3.57e-43
6.9 2.31 1.42 3.57e-43
6.93 2.31 1.42 3.57e-43
6.96 2.31 1.42 3.57e-43
6.69 2.31 1.42 3.57e-43
6.94 2.31 1.42 3.57e-43
7 2.31 1.42 3.57e-43
7.04 2.31 1.42 3.57e-43
7.07 2.31 1.42 3.57e-43
7.13 2.31 1.42 3.57e-43
7.19 2.31 1.42 3.57e-43
7.35 2.31 1.42 3.57e-43
7.39 2.31 1.42 3.57e-43
7.46 2.31 1.42 3.57e-43
7.45 2.31 1.42 3.57e-43
7.41 2.31 1.42 3.57e-43
7.3 2.31 1.4 9.1477e-41
5.94 2.38 0.9 3.57e-43
6.03 2.38 0.96 3.57e-43
6.07 2.38 1 3.57e-43
6.33 2.38 0.5 9.1477e-41
6.33 2.38 0.63 9.1477e-41
6.37 2.38 0.66 9.1477e-41
6.4 2.38 0.71 9.1477e-41
6.48 2.38 0.66 9.1477e-41
6.51 2.38 0.71 9.1477e-41
6.59 2.38 0.65 9.1477e-41
6.27 2.38 1.41 9.1477e-41
6.32 2.38 1.41 9.1477e-41
6.36 2.38 1.41 3.57e-43
6.66 2.38 1.41 3.57e-43
6.9 2.38 1.41 3.57e-43
6.93 2.38 1.41 3.57e-43
6.96 2.38 1.41 3.57e-43
6.69 2.38 1.41 3.57e-43
6.94 2.38 1.41 3.57e-43
7 2.38 1.41 3.57e-43
7.04 2.38 1.41 3.57e-43
7.07 2.38 1.41 3.57e-43
7.13 2.38 1.41 3.57e-43
7.19 2.38 1.41 3.57e-43
7.35 2.38 1.41 3.57e-43
7.39 2.38 1.41 3.57e-43
7.46 2.38 1.41 3.57e-43
7.45 2.38 1.41 3.57e-43
7.41 2.38 1.41 3.57e-43
7.3 2.38 1.4 9.1477e-41
5.94 2.45 0.9 3.57e-43
6.03 2.45 0.96 3.57e-43
6.07 2.45 1 3.57e-43
6.33 2.45 0.5 9.1477e-41
6.3 2.45 0.69 9.1477e-41
6.35 2.45 0.69 9.1477e-41
6.39 2.45 0.74 9.1477e-41
6.44 2.45 0.74 9.1477e-41
6.52 2.45 0.69 9.1477e-41
6.59 2.45 0.65 9.1477e-41
6.27 2.45 1.41 9.1477e-41
6.32 2.45 1.41 9.1477e-41
6.36 2.45 1.41 3.57e-43
6.66 2.45 1.41 3.57e-43
6.9 2.45 1.41 3.57e-43
6.93 2.45 1.41 3.57e-43
6.96 2.45 1.41 3.57e-43
6.69 2.45 1.41 3.57e-43
6.94 2.45 1.41 3.57e-43
7 2.45 1.41 3.57e-43
7.04 2.45 1.41 3.57e-43
7.07 2.45 1.41 3.57e-43
7.13 2.45 1.41 3.57e-43
7.19 2.45 1.41 3.57e-43
7.35 2.45 1.41 3.57e-43
7.39 2.45 1.41 3.57e-43
7.46 2.45 1.41 3.57e-43
7.45 2.45 1.41 3.57e-43
7.41 2.45 1.17 9.1477e-41
7.29 2.45 1.4 9.1477e-41
5.94 2.52 0.9 3.57e-43
6.03 2.52 0.96 3.57e-43
6.07 2.52 1 9.1477e-41
6.23 2.52 0.72 9.1477e-41
6.28 2.52 0.75 9.1477e-41
6.33 2.52 0.75 9.1477e-41
6.38 2.52 0.76 9.1477e-41
6.42 2.52 0.76 3.57e-43
6.52 2.52 0.76 3.57e-43
6.59 2.52 0.65 9.1477e-41
6.28 2.52 1.4 9.1477e-41
6.32 2.52 1.4 9.1477e-41
6.35 2.52 1.4 3.57e-43
6.66 2.52 1.4 3.57e-43
6.9 2.52 1.4 3.57e-43
6.93 2.52 1.4 3.57e-43
6.96 2.52 1.4 3.57e-43
6.69 2.52 1.4 3.57e-43
6.94 2.52 1.4 3.57e-43
7 2.52 1.4 3.57e-43
7.04 2.52 1.4 3.57e-43
7.07 2.52 1.4 3.57e-43
7.13 2.52 1.4 3.57e-43
7.19 2.52 1.4 3.57e-43
7.35 2.52 1.4 3.57e-43
7.39 2.52 1.4 3.57e-43
7.46 2.52 1.4 3.57e-43
7.45 2.52 1.4 3.57e-43
7.41 2.52 1.17 9.1477e-41
7.29 2.52 1.4 9.1477e-41
5.94 2.59 0.9 3.57e-43
6.03 2.59 0.96 3.57e-43
6.07 2.59 1 9.1477e-41
6.23 2.59 0.72 9.1477e-41
6.3 2.59 0.69 9.1477e-41
6.34 2.59 0.71 9.1477e-41
6.38 2.59 0.77 9.1477e-41
6.42 2.59 0.77 3.57e-43
6.52 2.59 0.69 9.1477e-41
6.25 2.59 1.35 9.1477e-41
6.28 2.59 1.38 9.1477e-41
6.32 2.59 1.41 9.1477e-41
6.36 2.59 1.41 3.57e-43
6.66 2.59 1.41 3.57e-43
6.9 2.59 1.41 3.57e-43
6.93 2.59 1.41 3.57e-43
6.96 2.59 1.41 3.57e-43
6.69 2.59 1.41 3.57e-43
6.94 2.59 1.41 3.57e-43
7 2.59 1.41 3.57e-43
7.04 2.59 1.41 3.57e-43
7.07 2.59 1.41 3.57e-43
7.13 2.59 1.41 3.57e-43
7.19 2.59 1.41 3.57e-43
7.35 2.59 1.41 3.57e-43
7.39 2.59 1.41 3.57e-43
7.46 2.59 1.41 3.57e-43
7.45 2.59 1.41 3.57e-43
7.41 2.59 1.17 9.1477e-41
7.29 2.59 1.41 9.1477e-41
5.94 2.66 0.9 3.57e-43
6.03 2.66 0.96 9.1477e-41
6.12 2.66 0.86 9.1477e-41
6.26 2.66 0.67 9.1477e-41
6.31 2.66 0.67 9.1477e-41
6.35 2.66 0.69 9.1477e-41
6.39 2.66 0.73 9.1477e-41
6.42 2.66 0.73 3.57e-43
6.52 2.66 0.69 9.1477e-41
6.27 2.66 1.31 9.1477e-41
6.28 2.66 1.39 9.1477e-41
6.32 2.66 1.4 9.1477e-41
6.36 2.66 1.4 3.57e-43
6.66 2.66 1.4 3.57e-43
6.9 2.66 1.4 3.57e-43
6.93 2.66 1.4 3.57e-43
6.96 2.66 1.4 3.57e-43
6.69 2.66 1.4 3.57e-43
6.94 2.66 1.4 3.57e-43
7 2.66 1.4 3.57e-43
7.04 2.66 1.4 3.57e-43
7.07 2.66 1.4 3.57e-43
7.13 2.66 1.4 3.57e-43
7.19 2.66 1.4 3.57e-43
7.35 2.66 1.4 3.57e-43
7.39 2.66 1.4 3.57e-43
7.46 2.66 1.4 3.57e-43
7.45 2.66 1.4 3.57e-43
7.41 2.66 1.17 9.1477e-41
7.3 2.66 1.4 9.1477e-41
5.94 2.73 0.9 3.57e-43
6.03 2.73 0.97 9.1477e-41
6.07 2.73 0.99 9.1477e-41
6.27 2.73 0.64 9.1477e-41
6.32 2.73 0.65 9.1477e-41
6.37 2.73 0.67 9.1477e-41
6.39 2.73 0.73 9.1477e-41
6.45 2.73 0.73 3.57e-43
6.52 2.73 0.69 9.1477e-41
6.25 2.73 1.34 9.1477e-41
6.28 2.73 1.38 9.1477e-41
6.32 2.73 1.39 9.1477e-41
6.36 2.73 1.39 3.57e-43
6.66 2.73 1.39 3.57e-43
6.9 2.73 1.39 3.57e-43
6.93 2.73 1.39 3.57e-43
6.96 2.73 1.39 3.57e-43
6.69 2.73 1.39 3.57e-43
6.94 2.73 1.39 3.57e-43
7 2.73 1.39 3.57e-43
7.04 2.73 1.39 3.57e-43
7.07 2.73 1.39 3.57e-43
7.13 2.73 1.39 3.57e-43
7.19 2.73 1.39 3.57e-43
7.35 2.73 1.39 3.57e-43
7.39 2.73 1.39 3.57e-43
7.46 2.73 1.39 3.57e-43
7.45 2.73 1.39 3.57e-43
7.41 2.73 1.17 9.1477e-41
7.3 2.73 1.4 9.1477e-41
6.03 2.8 0.6 3.57e-43
6.06 2.8 1.01 3.57e-43
6.27 2.8 0.64 9.1477e-41
6.33 2.8 0.62 9.1477e-41
6.36 2.8 0.67 9.1477e-41
6.4 2.8 0.71 9.1477e-41
6.53 2.8 0.55 9.1477e-41
6.58 2.8 0.57 9.1477e-41
6.29 2.8 1.28 9.1477e-41
6.28 2.8 1.38 9.1477e-41
6.32 2.8 1.4 9.1477e-41
6.37 2.8 1.4 3.57e-43
6.66 2.8 1.4 3.57e-43
6.9 2.8 1.4 3.57e-43
6.93 2.8 1.4 3.57e-43
6.96 2.8 1.4 3.57e-43
6.69 2.8 1.4 3.57e-43
6.94 2.8 1.4 3.57e-43
7 2.8 1.4 3.57e-43
7.04 2.8 1.4 3.57e-43
7.07 2.8 1.4 3.57e-43
7.13 2.8 1.4 3.57e-43
7.19 2.8 1.4 3.57e-43
7.35 2.8 1.4 3.57e-43
7.39 2.8 1.4 3.57e-43
7.46 2.8 1.4 3.57e-43
7.45 2.8 1.4 3.57e-43
7.41 2.8 1.17 9.1477e-41
7.3 2.8 1.39 9.1477e-41
6.03 2.87 0.6 3.57e-43
6.06 2.87 1.01 3.57e-43
6.27 2.87 0.64 9.1477e-41
6.33 2.87 0.62 9.1477e-41
6.38 2.87 0.63 9.1477e-41
6.43 2.87 0.63 3.57e-43
6.53 2.87 0.63 3.57e-43
6.58 2.87 0.63 3.57e-43
6.29 2.87 1.28 9.1477e-41
6.28 2.87 1.38 9.1477e-41
6.33 2.87 1.38 9.1477e-41
6.37 2.87 1.38 3.57e-43
6.66 2.87 1.38 3.57e-43
6.9 2.87 1.38 3.57e-43
6.93 2.87 1.38 3.57e-43
6.96 2.87 1.38 3.57e-43
6.69 2.87 1.38 3.57e-43
6.94 2.87 1.38 3.57e-43
7 2.87 1.38 3.57e-43
7.04 2.87 1.38 3.57e-43
7.07 2.87 1.38 3.57e-43
7.13 2.87 1.38 3.57e-43
7.19 2.87 1.38 3.57e-43
7.35 2.87 1.38 3.57e-43
7.39 2.87 1.38 3.57e-43
7.46 2.87 1.38 3.57e-43
7.45 2.87 1.38 3.57e-43
7.41 2.87 1.17 9.1477e-41
7.35 2.87 1.17 3.57e-43
5.93 2.94 0.6 3.57e-43
5.94 2.94 0.6 3.57e-43
5.91 2.94 0.6 3.57e-43
6.01 2.94 0.6 3.57e-43
6.03 2.94 0.6 3.57e-43
6.06 2.94 1.01 9.1477e-41
6.1 2.94 1.04 9.1477e-41
6.33 2.94 0.62 9.1477e-41
6.38 2.94 0.65 9.1477e-41
6.43 2.94 0.65 3.57e-43
6.53 2.94 0.65 3.57e-43
6.58 2.94 0.65 3.57e-43
6.29 2.94 1.28 9.1477e-41
6.29 2.94 1.35 9.1477e-41
6.33 2.94 1.37 9.1477e-41
6.37 2.94 1.37 3.57e-43
6.66 2.94 1.37 3.57e-43
6.9 2.94 1.37 3.57e-43
6.93 2.94 1.37 3.57e-43
6.96 2.94 1.37 3.57e-43
6.69 2.94 1.37 3.57e-43
6.94 2.94 1.37 3.57e-43
7 2.94 1.37 3.57e-43
7.04 2.94 1.37 3.57e-43
7.07 2.94 1.37 3.57e-43
7.13 2.94 1.37 3.57e-43
7.19 2.94 1.37 3.57e-43
7.35 2.94 1.37 3.57e-43
7.39 2.94 1.37 3.57e-43
7.46 2.94 1.37 3.57e-43
7.45 2.94 1.37 3.57e-43
7.41 2.94 1.17 9.1477e-41
7.35 2.94 1.32 9.1477e-41
5.94 3.01 0.57 3.57e-43
6.26 3.01 1.34 9.1477e-41
6.29 3.01 1.36 9.1477e-41
6.34 3.01 1.36 9.1477e-41
6.38 3.01 1.36 3.57e-43
6.66 3.01 1.36 3.57e-43
6.9 3.01 1.36 3.57e-43
6.93 3.01 1.36 3.57e-43
6.96 3.01 1.36 3.57e-43
6.69 3.01 1.36 3.57e-43
6.94 3.01 1.36 3.57e-43
7 3.01 1.36 3.57e-43
7.04 3.01 0.99 9.1477e-41
6.81 3.01 0.99 3.57e-43
7.13 3.01 0.99 3.57e-43
7.19 3.01 0.99 3.57e-43
7.35 3.01 0.99 3.57e-43
7.39 3.01 0.99 3.57e-43
7.46 3.01 0.99 3.57e-43
7.45 3.01 0.99 3.57e-43
7.41 3.01 0.99 3.57e-43
7.35 3.01 1.32 9.1477e-41
6.26 3.08 1.33 3.57e-43
6.29 3.08 1.35 9.1477e-41
6.34 3.08 1.36 9.1477e-41
6.38 3.08 1.36 3.57e-43
6.66 3.08 1.36 3.57e-43
6.9 3.08 1.36 3.57e-43
6.93 3.08 1.36 3.57e-43
6.96 3.08 1.36 3.57e-43
6.69 3.08 1.36 3.57e-43
6.94 3.08 1.36 3.57e-43
7 3.08 1.36 3.57e-43
7.04 3.08 1.36 3.57e-43
6.81 3.08 1.36 3.57e-43
7.13 3.08 1.36 3.57e-43
7.19 3.08 1.36 3.57e-43
7.35 3.08 1.36 3.57e-43
7.39 3.08 1.36 3.57e-43
7.46 3.08 1.36 3.57e-43
7.45 3.08 1.02 9.1477e-41
7.27 3.08 1.36 9.1477e-41
5.96 3.15 0.48 9.1477e-41
5.98 3.15 0.48 3.57e-43
5.94 3.15 0.48 3.57e-43
5.91 3.15 0.48 3.57e-43
6.01 3.15 0.48 3.57e-43
6.03 3.15 0.48 3.57e-43
6.06 3.15 0.48 3.57e-43
6.1 3.15 0.48 3.57e-43
6.33 3.15 0.48 3.57e-43
6.38 3.15 0.48 3.57e-43
6.43 3.15 0.48 3.57e-43
6.53 3.15 0.48 3.57e-43
6.58 3.15 0.57 9.1477e-41
6.26 3.15 1.33 9.1477e-41
6.31 3.15 1.33 9.1477e-41
6.35 3.15 1.34 9.1477e-41
6.4 3.15 1.34 9.1477e-41
6.45 3.15 1.34 3.57e-43
6.9 3.15 1.34 3.57e-43
6.93 3.15 1.34 3.57e-43
6.96 3.15 1.34 3.57e-43
6.69 3.15 1.34 3.57e-43
6.94 3.15 1.34 3.57e-43
7 3.15 1.34 3.57e-43
7.04 3.15 1.34 3.57e-43
6.81 3.15 1.34 3.57e-43
7.13 3.15 1.34 3.57e-43
7.19 3.15 1.34 3.57e-43
7.35 3.15 1.34 3.57e-43
7.39 3.15 1.34 3.57e-43
7.46 3.15 1.34 3.57e-43
7.45 3.15 1.02 9.1477e-41
7.27 3.15 1.35 9.1477e-41
5.96 3.22 0.5 9.1477e-41
5.98 3.22 0.5 3.57e-43
5.94 3.22 0.5 3.57e-43
5.91 3.22 0.5 3.57e-43
6.01 3.22 0.5 3.57e-43
6.03 3.22 0.5 3.57e-43
6.06 3.22 0.5 3.57e-43
6.1 3.22 0.5 3.57e-43
6.33 3.22 0.5 3.57e-43
6.38 3.22 0.5 3.57e-43
6.43 3.22 0.5 3.57e-43
6.53 3.22 0.5 3.57e-43
6.58 3.22 0.5 3.57e-43
6.26 3.22 1.33 9.1477e-41
6.32 3.22 1.33 3.57e-43
6.35 3.22 1.33 3.57e-43
6.4 3.22 1.33 3.57e-43
6.45 3.22 1.33 3.57e-43
6.9 3.22 1.33 3.57e-43
6.93 3.22 1.33 3.57e-43
6.96 3.22 1.33 3.57e-43
6.69 3.22 1.33 3.57e-43
6.94 3.22 1.33 3.57e-43
7 3.22 1.33 3.57e-43
7.04 3.22 1.33 3.57e-43
6.81 3.22 1.33 3.57e-43
7.13 3.22 1.33 3.57e-43
7.19 3.22 1.33 3.57e-43
7.35 3.22 1.33 3.57e-43
7.39 3.22 1.33 3.57e-43
7.46 3.22 1.33 3.57e-43
7.45 3.22 1.33 3.57e-43
7.27 3.22 1.35 9.1477e-41
5.96 3.29 0.5 9.1477e-41
5.98 3.29 0.5 3.57e-43
5.94 3.29 0.5 3.57e-43
5.91 3.29 0.5 3.57e-43
6.01 3.29 0.5 3.57e-43
6.03 3.29 0.97 9.1477e-41
6.07 3.29 0.97 3.57e-43
6.1 3.29 0.97 3.57e-43
6.33 3.29 0.97 3.57e-43
6.38 3.29 0.97 3.57e-43
6.43 3.29 0.97 3.57e-43
6.53 3.29 0.97 3.57e-43
6.58 3.29 0.97 3.57e-43
6.26 3.29 0.97 3.57e-43
6.32 3.29 0.97 3.57e-43
6.35 3.29 0.97 3.57e-43
6.4 3.29 0.97 3.57e-43
6.45 3.29 1.34 9.1477e-41
6.53 3.29 1.34 3.57e-43
6.93 3.29 1.34 3.57e-43
6.96 3.29 1.34 3.57e-43
6.69 3.29 1.34 3.57e-43
6.94 3.29 1.34 3.57e-43
7 3.29 1.34 3.57e-43
7.04 3.29 1.34 3.57e-43
6.81 3.29 1.34 3.57e-43
7.13 3.29 1.34 3.57e-43
7.19 3.29 1.34 3.57e-43
7.35 3.29 1.34 3.57e-43
7.39 3.29 1.34 3.57e-43
7.46 3.29 1.34 3.57e-43
7.45 3.29 1.34 3.57e-43
7.27 3.29 1.35 9.1477e-41
5.96 3.36 0.49 9.1477e-41
5.98 3.36 0.49 3.57e-43
5.94 3.36 0.49 3.57e-43
5.91 3.36 0.49 3.57e-43
6.01 3.36 0.49 3.57e-43
6.03 3.36 0.97 9.1477e-41
6.07 3.36 0.97 3.57e-43
6.1 3.36 0.97 3.57e-43
6.33 3.36 0.97 3.57e-43
6.38 3.36 0.97 3.57e-43
6.43 3.36 0.97 3.57e-43
6.53 3.36 0.97 3.57e-43
6.58 3.36 0.97 3.57e-43
6.26 3.36 0.97 3.57e-43
6.32 3.36 0.97 3.57e-43
6.35 3.36 0.97 3.57e-43
6.4 3.36 0.97 3.57e-43
6.45 3.36 0.97 3.57e-43
6.53 3.36 0.97 3.57e-43
6.93 3.36 0.97 3.57e-43
6.96 3.36 0.97 3.57e-43
6.69 3.36 1.3 9.1477e-41
6.78 3.36 1.22 9.1477e-41
6.82 3.36 1.22 3.57e-43
7.04 3.36 1.22 3.57e-43
6.81 3.36 1.22 3.57e-43
7.13 3.36 1.22 3.57e-43
7.19 3.36 1.22 3.57e-43
7.35 3.36 1.22 3.57e-43
7.39 3.36 1.22 3.57e-43
7.46 3.36 1.22 3.57e-43
7.45 3.36 1.02 9.1477e-41
5.97 3.43 0.83 3.57e-43
5.99 3.43 0.81 9.1477e-41
6.02 3.43 0.86 9.1477e-41
6.05 3.43 0.92 9.1477e-41
6.08 3.43 0.92 3.57e-43
6.1 3.43 0.92 3.57e-43
6.33 3.43 0.92 3.57e-43
6.38 3.43 0.92 3.57e-43
6.43 3.43 0.92 3.57e-43
6.53 3.43 0.92 3.57e-43
6.58 3.43 0.92 3.57e-43
6.26 3.43 0.92 3.57e-43
6.32 3.43 0.92 3.57e-43
6.35 3.43 0.92 3.57e-43
6.4 3.43 0.92 3.57e-43
6.45 3.43 0.92 3.57e-43
6.53 3.43 0.92 3.57e-43
6.93 3.43 0.92 3.57e-43
6.96 3.43 0.92 3.57e-43
6.69 3.43 0.92 3.57e-43
6.78 3.43 0.92 3.57e-43
6.82 3.43 0.92 3.57e-43
7.04 3.43 0.92 3.57e-43
6.81 3.43 0.92 3.57e-43
7.13 3.43 0.92 3.57e-43
7.19 3.43 0.92 3.57e-43
7.35 3.43 0.92 3.57e-43
7.39 3.43 0.92 3.57e-43
7.46 3.43 0.92 3.57e-43
7.45 3.43 1.02 9.1477e-41
5.97 3.5 0.83 3.57e-43
6 3.5 0.79 9.1477e-41
6.03 3.5 0.83 9.1477e-41
6.07 3.5 0.87 9.1477e-41
6.08 3.5 0.95 9.1477e-41
6.13 3.5 0.95 3.57e-43
6.33 3.5 0.95 3.57e-43
6.38 3.5 0.95 3.57e-43
6.43 3.5 0.95 3.57e-43
6.53 3.5 0.95 3.57e-43
6.58 3.5 0.95 3.57e-43
6.26 3.5 0.95 3.57e-43
6.32 3.5 0.95 3.57e-43
6.35 3.5 0.95 3.57e-43
6.4 3.5 0.95 3.57e-43
6.45 3.5 0.95 3.57e-43
6.53 3.5 0.95 3.57e-43
6.93 3.5 0.95 3.57e-43
6.96 3.5 0.95 3.57e-43
6.69 3.5 0.95 3.57e-43
6.78 3.5 0.95 3.57e-43
6.82 3.5 0.95 3.57e-43
7.04 3.5 0.95 3.57e-43
6.81 3.5 0.95 3.57e-43
7.13 3.5 0.95 3.57e-43
7.19 3.5 0.95 3.57e-43
7.35 3.5 0.95 3.57e-43
7.39 3.5 0.95 3.57e-43
7.46 3.5 0.95 3.57e-43
7.45 3.5 1.02 9.1477e-41
5.97 3.57 0.83 3.57e-43
6.02 3.57 0.75 9.1477e-41
6.04 3.57 0.81 9.1477e-41
6.09 3.57 0.82 9.1477e-41
6.11 3.57 0.82 3.57e-43
6.13 3.57 0.82 3.57e-43
6.33 3.57 0.82 3.57e-43
6.38 3.57 0.82 3.57e-43
6.43 3.57 0.65 9.1477e-41
6.31 3.57 0.65 3.57e-43
6.58 3.57 0.65 3.57e-43
6.26 3.57 0.65 3.57e-43
6.32 3.57 0.65 3.57e-43
6.35 3.57 0.65 3.57e-43
6.4 3.57 0.65 3.57e-43
6.45 3.57 0.65 3.57e-43
6.53 3.57 0.65 3.57e-43
6.93 3.57 0.65 3.57e-43
6.96 3.57 0.65 3.57e-43
6.69 3.57 0.65 3.57e-43
6.78 3.57 0.65 3.57e-43
6.82 3.57 0.65 3.57e-43
7.04 3.57 0.65 3.57e-43
6.81 3.57 0.65 3.57e-43
7.13 3.57 0.65 3.57e-43
7.19 3.57 0.65 3.57e-43
7.35 3.57 0.65 3.57e-43
7.39 3.57 0.65 3.57e-43
7.46 3.57 0.65 3.57e-43
7.45 3.57 1.02 9.1477e-41
5.97 3.64 0.75 3.57e-43
6.08 3.64 0.72 9.1477e-41
6.11 3.64 0.77 9.1477e-41
6.17 3.64 0.77 9.1477e-41
6.18 3.64 0.77 3.57e-43
6.33 3.64 0.77 3.57e-43
6.38 3.64 0.77 3.57e-43
6.43 3.64 0.77 3.57e-43
6.31 3.64 1.01 9.1477e-41
6.39 3.64 0.95 9.1477e-41
6.43 3.64 0.98 9.1477e-41
6.47 3.64 1.01 9.1477e-41
6.51 3.64 1.03 9.1477e-41
6.57 3.64 1.03 9.1477e-41
6.63 3.64 1.03 9.1477e-41
6.68 3.64 1.03 3.57e-43
6.93 3.64 1.03 3.57e-43
6.96 3.64 1.03 3.57e-43
6.69 3.64 1.03 3.57e-43
6.78 3.64 1.03 3.57e-43
6.82 3.64 1.03 3.57e-43
7.04 3.64 1.03 3.57e-43
6.81 3.64 1.03 3.57e-43
7.13 3.64 1.03 3.57e-43
7.19 3.64 1.03 3.57e-43
7.35 3.64 1.03 3.57e-43
7.39 3.64 1.03 3.57e-43
7.46 3.64 0.92 9.1477e-41
6.22 3.71 0.52 3.57e-43
6.2 3.71 0.69 9.1477e-41
6.24 3.71 0.71 9.1477e-41
6.26 3.71 0.71 3.57e-43
6.38 3.71 0.71 3.57e-43
6.43 3.71 0.71 3.57e-43
6.31 3.71 0.71 3.57e-43
6.39 3.71 0.71 3.57e-43
6.43 3.71 0.71 3.57e-43
6.47 3.71 0.71 3.57e-43
6.51 3.71 0.71 3.57e-43
6.57 3.71 0.71 3.57e-43
6.63 3.71 0.71 3.57e-43
6.68 3.71 0.71 3.57e-43
6.93 3.71 0.71 3.57e-43
6.96 3.71 0.71 3.57e-43
6.69 3.71 0.71 3.57e-43
6.78 3.71 0.71 3.57e-43
6.82 3.71 0.71 3.57e-43
7.04 3.71 0.71 3.57e-43
6.81 3.71 0.71 3.57e-43
7.13 3.71 0.71 3.57e-43
7.19 3.71 1.02 9.1477e-41
6.14 3.78 0.43 9.1477e-41
6.18 3.78 0.47 9.1477e-41
6.22 3.78 0.52 9.1477e-41
6.24 3.78 0.52 3.57e-43
6.24 3.78 0.52 3.57e-43
6.26 3.78 0.79 9.1477e-41
6.4 3.78 0.59 9.1477e-41
6.42 3.78 0.67 9.1477e-41
6.48 3.78 0.66 9.1477e-41
6.53 3.78 0.68 9.1477e-41
6.57 3.78 0.7 9.1477e-41
6.63 3.78 0.69 9.1477e-41
6.68 3.78 0.71 9.1477e-41
6.75 3.78 0.69 9.1477e-41
6.81 3.78 0.69 9.1477e-41
6.87 3.78 0.69 9.1477e-41
6.84 3.78 0.69 3.57e-43
6.96 3.78 0.69 3.57e-43
6.69 3.78 0.69 3.57e-43
6.78 3.78 1.22 9.1477e-41
7.13 3.78 0.75 9.1477e-41
7.18 3.78 0.76 9.1477e-41
7.27 3.78 0.72 9.1477e-41
6.24 3.85 0.71 9.1477e-41
6.48 3.85 0.41 9.1477e-41
6.51 3.85 0.47 9.1477e-41
6.56 3.85 0.49 9.1477e-41
6.6 3.85 0.51 9.1477e-41
6.66 3.85 0.53 9.1477e-41
6.71 3.85 0.55 9.1477e-41
6.76 3.85 0.55 9.1477e-41
6.81 3.85 0.57 9.1477e-41
6.87 3.85 0.57 9.1477e-41
6.92 3.85 0.58 9.1477e-41
7 3.85 0.55 9.1477e-41
7.08 3.85 0.51 9.1477e-41
7.16 3.85 0.49 9.1477e-41
7.27 3.85 0.41 9.1477e-41
