# .PCD v.7 - Point Cloud Data file format
VERSION .7
FIELDS x y z rgb
SIZE 4 4 4 4
TYPE F F F F
WIDTH 212
HEIGHT 1
POINTS 212
DATA ascii
0.44 0 0.73 9.1477e-41
0.48 0 0.73 3.57e-43
0.09 0 0.73 3.57e-43
0.16 0 0.73 3.57e-43
0.24 0 0.73 3.57e-43
0.31 0 0.73 3.57e-43
0.38 0 0.73 3.57e-43
0.45 0 0.73 3.57e-43
0.52 0 0.73 3.57e-43
0.59 0 0.73 3.57e-43
0.74 0 0.73 3.57e-43
0.83 0 0.73 3.57e-43
0.89 0 0.73 3.57e-43
0.86 0 0.73 3.57e-43
0.94 0 0.73 3.57e-43
1.01 0 0.73 3.57e-43
1.44 0 0.69 9.1477e-41
1.47 0 0.64 9.1477e-41
1.53 0 0.64 3.57e-43
1.29 0 0.64 3.57e-43
1.35 0 0.64 3.57e-43
1.41 0 0.64 3.57e-43
1.47 0 0.64 3.57e-43
1.75 0.27 0.97 3.57e-43
1.75 0.27 0.88 9.1477e-41
1.79 0.27 0.88 3.57e-43
1.78 0.27 0.88 3.57e-43
1.83 0.27 0.59 9.1477e-41
1.83 0.27 0.47 9.1477e-41
0.37 0.54 0.86 3.57e-43
0.55 0.54 0.86 3.57e-43
1.55 0.54 0.99 9.1477e-41
1.59 0.54 0.97 9.1477e-41
1.64 0.54 0.97 3.57e-43
1.63 0.54 0.83 9.1477e-41
1.75 0.54 0.97 9.1477e-41
1.78 0.54 0.97 3.57e-43
1.79 0.54 0.97 3.57e-43
1.78 0.54 0.97 3.57e-43
1.83 0.54 0.59 9.1477e-41
1.83 0.54 0.47 9.1477e-41
0.38 0.81 1.01 3.57e-43
1.01 0.81 1.01 9.1477e-41
1.06 0.81 1.01 3.57e-43
0.52 0.81 1.01 3.57e-43
0.59 0.81 1.01 3.57e-43
0.74 0.81 1.01 3.57e-43
0.83 0.81 1.01 3.57e-43
0.89 0.81 1.01 3.57e-43
0.86 0.81 1.01 3.57e-43
0.94 0.81 1.01 3.57e-43
1.66 0.81 1.01 3.57e-43
1.59 0.81 1.01 3.57e-43
1.64 0.81 1.01 3.57e-43
1.63 0.81 1.01 3.57e-43
1.75 0.81 0.97 9.1477e-41
1.78 0.81 0.92 9.1477e-41
1.82 0.81 0.91 9.1477e-41
1.86 0.81 0.91 3.57e-43
1.53 0.81 0.91 3.57e-43
1.83 0.81 0.59 9.1477e-41
1.85 0.81 0.52 9.1477e-41
0.45 1.08 0.86 3.57e-43
0.8 1.08 0.86 3.57e-43
1.42 1.08 0.75 3.57e-43
1.49 1.08 0.77 9.1477e-41
1.54 1.08 0.76 9.1477e-41
1.58 1.08 0.75 9.1477e-41
1.68 1.08 0.83 9.1477e-41
1.78 1.08 0.83 3.57e-43
1.82 1.08 0.83 3.57e-43
1.86 1.08 0.83 3.57e-43
1.53 1.08 0.83 3.57e-43
1.83 1.08 0.59 9.1477e-41
1.85 1.08 0.51 9.1477e-41
1.56 1.35 1.45 3.57e-43
1.58 1.35 1.4 9.1477e-41
1.61 1.35 1.36 9.1477e-41
1.28 1.35 0.71 9.1477e-41
1.36 1.35 0.73 9.1477e-41
1.42 1.35 0.75 9.1477e-41
1.6 1.35 0.99 9.1477e-41
1.65 1.35 0.98 9.1477e-41
1.61 1.35 0.8 9.1477e-41
1.7 1.35 0.88 9.1477e-41
1.79 1.35 0.88 3.57e-43
1.82 1.35 0.88 3.57e-43
1.86 1.35 0.88 3.57e-43
1.53 1.35 0.88 3.57e-43
1.83 1.35 0.59 9.1477e-41
1.85 1.35 0.51 9.1477e-41
0.44 1.62 1.43 3.57e-43
1.5 1.62 1.45 9.1477e-41
1.56 1.62 1.45 9.1477e-41
1.59 1.62 1.43 9.1477e-41
1.48 1.62 1.15 9.1477e-41
1.5 1.62 1.1 9.1477e-41
1.54 1.62 1.07 9.1477e-41
1.59 1.62 1.05 9.1477e-41
1.6 1.62 0.98 9.1477e-41
1.53 1.62 0.75 9.1477e-41
1.58 1.62 0.73 9.1477e-41
1.75 1.62 0.98 9.1477e-41
1.79 1.62 0.98 3.57e-43
1.82 1.62 0.98 3.57e-43
1.86 1.62 0.87 9.1477e-41
1.88 1.62 0.87 3.57e-43
1.83 1.62 0.87 3.57e-43
1.85 1.62 0.51 9.1477e-41
0.44 1.89 1.43 3.57e-43
1.52 1.89 1.47 9.1477e-41
1.56 1.89 1.47 3.57e-43
1.59 1.89 1.47 3.57e-43
1.48 1.89 1.15 9.1477e-41
1.64 1.89 1.15 3.57e-43
1.54 1.89 1.15 3.57e-43
1.59 1.89 1.15 3.57e-43
1.6 1.89 1.15 3.57e-43
1.53 1.89 1.15 3.57e-43
1.58 1.89 0.73 9.1477e-41
1.76 1.89 0.99 9.1477e-41
1.79 1.89 0.99 3.57e-43
1.82 1.89 0.99 3.57e-43
1.86 1.89 0.99 3.57e-43
1.88 1.89 0.81 9.1477e-41
1.85 1.89 0.81 3.57e-43
1.85 1.89 0.51 9.1477e-41
0.44 2.16 1.43 3.57e-43
1.51 2.16 1.45 9.1477e-41
1.56 2.16 1.45 9.1477e-41
1.21 2.16 0.77 9.1477e-41
1.32 2.16 0.86 9.1477e-41
1.33 2.16 0.78 9.1477e-41
1.39 2.16 0.8 9.1477e-41
1.45 2.16 0.8 9.1477e-41
1.48 2.16 0.8 3.57e-43
1.53 2.16 0.8 3.57e-43
1.58 2.16 0.73 9.1477e-41
1.77 2.16 0.73 3.57e-43
1.79 2.16 0.73 3.57e-43
1.82 2.16 0.73 3.57e-43
1.86 2.16 0.73 3.57e-43
1.88 2.16 0.81 9.1477e-41
1.85 2.16 0.81 3.57e-43
1.85 2.16 0.51 9.1477e-41
0.44 2.43 1.43 3.57e-43
1.5 2.43 1.44 9.1477e-41
1.55 2.43 1.43 9.1477e-41
1.58 2.43 1.43 3.57e-43
1.32 2.43 1.43 3.57e-43
1.33 2.43 1.43 3.57e-43
1.39 2.43 1.43 3.57e-43
1.45 2.43 0.8 9.1477e-41
1.44 2.43 0.69 9.1477e-41
1.48 2.43 0.65 9.1477e-41
1.74 2.43 0.65 3.57e-43
1.77 2.43 0.65 3.57e-43
1.79 2.43 0.65 3.57e-43
1.82 2.43 0.65 3.57e-43
1.86 2.43 0.65 3.57e-43
1.88 2.43 0.81 9.1477e-41
1.85 2.43 0.81 3.57e-43
1.85 2.43 0.51 9.1477e-41
0.44 2.7 1.43 3.57e-43
1.49 2.7 1.42 9.1477e-41
1.52 2.7 1.42 3.57e-43
1.58 2.7 1.42 3.57e-43
1.32 2.7 1.42 3.57e-43
1.33 2.7 1.42 3.57e-43
1.39 2.7 1.42 3.57e-43
1.45 2.7 1.42 3.57e-43
1.44 2.7 1.42 3.57e-43
1.48 2.7 1.42 3.57e-43
1.74 2.7 1.42 3.57e-43
1.77 2.7 1.42 3.57e-43
1.79 2.7 1.42 3.57e-43
1.82 2.7 1.42 3.57e-43
1.86 2.7 1.42 3.57e-43
1.88 2.7 0.81 9.1477e-41
1.81 2.7 0.54 9.1477e-41
1.81 2.7 0.43 9.1477e-41
0.37 2.97 0.99 9.1477e-41
0.51 2.97 1.08 9.1477e-41
0.58 2.97 1.08 3.57e-43
1.06 2.97 1.08 3.57e-43
1.67 2.97 1.02 9.1477e-41
1.71 2.97 0.99 9.1477e-41
1.73 2.97 0.92 9.1477e-41
1.75 2.97 0.88 9.1477e-41
1.79 2.97 0.88 3.57e-43
1.86 2.97 0.88 3.57e-43
1.81 2.97 0.67 9.1477e-41
1.79 2.97 0.5 9.1477e-41
0.78 3.24 0.76 9.1477e-41
0.83 3.24 0.75 9.1477e-41
0.89 3.24 0.74 9.1477e-41
0.95 3.24 0.73 9.1477e-41
1.01 3.24 0.73 9.1477e-41
1.07 3.24 0.75 9.1477e-41
1.13 3.24 0.74 9.1477e-41
1.19 3.24 0.75 9.1477e-41
1.24 3.24 0.72 9.1477e-41
1.28 3.24 0.7 9.1477e-41
1.34 3.24 0.71 9.1477e-41
1.38 3.24 0.71 3.57e-43
1.44 3.24 0.71 3.57e-43
1.67 3.24 0.71 3.57e-43
1.71 3.24 0.71 3.57e-43
1.73 3.24 0.92 9.1477e-41
1.61 3.24 0.57 9.1477e-41
1.65 3.24 0.54 9.1477e-41
1.65 3.24 0.44 9.1477e-41
