# .PCD v.7 - Point Cloud Data file format
VERSION .7
FIELDS x y z rgb
SIZE 4 4 4 4
TYPE F F F F
WIDTH 1914
HEIGHT 1
POINTS 1914
DATA ascii
6.26 0.3 0.79 9.1477e-41
6.31 0.3 0.8 9.1477e-41
6.36 0.3 0.8 9.1477e-41
6.42 0.3 0.8 9.1477e-41
6.47 0.3 0.8 9.1477e-41
6.52 0.3 0.8 9.1477e-41
6.58 0.3 0.8 9.1477e-41
6.63 0.3 0.8 9.1477e-41
6.69 0.3 0.8 9.1477e-41
6.75 0.3 0.8 9.1477e-41
6.81 0.3 0.79 9.1477e-41
6.87 0.3 0.78 9.1477e-41
6.94 0.3 0.77 9.1477e-41
7.01 0.3 0.75 9.1477e-41
7.07 0.3 0.74 9.1477e-41
7.15 0.3 0.7 9.1477e-41
5.7 0.36 0.49 9.1477e-41
5.72 0.36 0.59 9.1477e-41
5.76 0.36 0.59 3.57e-43
5.83 0.36 0.57 9.1477e-41
5.83 0.36 0.71 9.1477e-41
5.87 0.36 0.74 9.1477e-41
5.9 0.36 0.78 9.1477e-41
5.95 0.36 0.77 9.1477e-41
6.01 0.36 0.78 9.1477e-41
6.05 0.36 0.79 9.1477e-41
6.1 0.36 0.79 9.1477e-41
6.15 0.36 0.8 9.1477e-41
6.2 0.36 0.81 9.1477e-41
6.25 0.36 0.81 9.1477e-41
6.3 0.36 0.81 9.1477e-41
6.35 0.36 0.81 9.1477e-41
6.41 0.36 0.82 9.1477e-41
6.46 0.36 0.82 9.1477e-41
6.51 0.36 0.83 9.1477e-41
6.57 0.36 0.82 9.1477e-41
6.62 0.36 0.83 9.1477e-41
6.68 0.36 0.82 9.1477e-41
6.73 0.36 0.82 9.1477e-41
6.8 0.36 0.8 9.1477e-41
6.86 0.36 0.81 9.1477e-41
6.93 0.36 0.79 9.1477e-41
6.99 0.36 0.78 9.1477e-41
7.06 0.36 0.75 9.1477e-41
7.12 0.36 0.76 9.1477e-41
7.22 0.36 0.7 9.1477e-41
5.67 0.42 0.41 9.1477e-41
5.69 0.42 0.53 9.1477e-41
5.72 0.42 0.59 9.1477e-41
5.74 0.42 0.68 9.1477e-41
5.77 0.42 0.73 9.1477e-41
5.81 0.42 0.77 9.1477e-41
5.85 0.42 0.8 9.1477e-41
5.9 0.42 0.79 9.1477e-41
5.95 0.42 0.8 9.1477e-41
6 0.42 0.8 9.1477e-41
6.05 0.42 0.8 9.1477e-41
6.09 0.42 0.82 9.1477e-41
6.14 0.42 0.82 9.1477e-41
6.19 0.42 0.82 9.1477e-41
6.24 0.42 0.82 9.1477e-41
6.29 0.42 0.83 9.1477e-41
6.34 0.42 0.83 9.1477e-41
6.39 0.42 0.84 9.1477e-41
6.45 0.42 0.84 9.1477e-41
6.51 0.42 0.83 9.1477e-41
6.56 0.42 0.83 9.1477e-41
6.61 0.42 0.83 9.1477e-41
6.67 0.42 0.83 9.1477e-41
6.73 0.42 0.83 9.1477e-41
6.79 0.42 0.82 9.1477e-41
6.85 0.42 0.83 9.1477e-41
6.91 0.42 0.82 9.1477e-41
6.98 0.42 0.8 9.1477e-41
7.05 0.42 0.78 9.1477e-41
7.11 0.42 0.78 9.1477e-41
7.17 0.42 0.77 9.1477e-41
5.68 0.48 0.55 9.1477e-41
5.7 0.48 0.63 9.1477e-41
5.74 0.48 0.69 9.1477e-41
5.77 0.48 0.75 9.1477e-41
5.8 0.48 0.79 9.1477e-41
5.84 0.48 0.81 9.1477e-41
5.89 0.48 0.81 9.1477e-41
5.94 0.48 0.82 9.1477e-41
5.99 0.48 0.82 9.1477e-41
6.04 0.48 0.82 9.1477e-41
6.08 0.48 0.83 9.1477e-41
6.13 0.48 0.83 9.1477e-41
6.19 0.48 0.84 9.1477e-41
6.23 0.48 0.85 9.1477e-41
6.28 0.48 0.85 9.1477e-41
6.33 0.48 0.85 9.1477e-41
6.39 0.48 0.86 9.1477e-41
6.44 0.48 0.86 9.1477e-41
6.5 0.48 0.85 9.1477e-41
6.55 0.48 0.85 9.1477e-41
6.61 0.48 0.84 9.1477e-41
6.66 0.48 0.86 9.1477e-41
6.72 0.48 0.85 9.1477e-41
6.78 0.48 0.84 9.1477e-41
6.84 0.48 0.84 9.1477e-41
6.9 0.48 0.83 9.1477e-41
6.97 0.48 0.82 9.1477e-41
7.03 0.48 0.81 9.1477e-41
7.1 0.48 0.8 9.1477e-41
7.16 0.48 0.8 9.1477e-41
7.24 0.48 0.76 9.1477e-41
5.66 0.54 0.46 9.1477e-41
5.67 0.54 0.59 9.1477e-41
5.69 0.54 0.67 9.1477e-41
5.73 0.54 0.71 9.1477e-41
5.77 0.54 0.75 9.1477e-41
5.79 0.54 0.81 9.1477e-41
5.84 0.54 0.81 9.1477e-41
5.88 0.54 0.83 9.1477e-41
5.93 0.54 0.84 9.1477e-41
5.98 0.54 0.84 9.1477e-41
6.03 0.54 0.84 9.1477e-41
6.08 0.54 0.85 9.1477e-41
6.13 0.54 0.85 9.1477e-41
6.18 0.54 0.86 9.1477e-41
6.23 0.54 0.86 9.1477e-41
6.28 0.54 0.86 9.1477e-41
6.33 0.54 0.86 9.1477e-41
6.39 0.54 0.86 9.1477e-41
6.43 0.54 0.87 9.1477e-41
6.49 0.54 0.87 9.1477e-41
6.54 0.54 0.86 9.1477e-41
6.6 0.54 0.87 9.1477e-41
6.65 0.54 0.87 9.1477e-41
6.71 0.54 0.87 9.1477e-41
6.77 0.54 0.86 9.1477e-41
6.83 0.54 0.86 9.1477e-41
6.89 0.54 0.85 9.1477e-41
6.96 0.54 0.84 9.1477e-41
7.02 0.54 0.83 9.1477e-41
7.09 0.54 0.81 9.1477e-41
7.15 0.54 0.81 9.1477e-41
7.22 0.54 0.79 9.1477e-41
5.66 0.6 0.46 9.1477e-41
5.66 0.6 0.63 9.1477e-41
5.69 0.6 0.69 9.1477e-41
5.72 0.6 0.73 9.1477e-41
5.76 0.6 0.77 9.1477e-41
5.79 0.6 0.82 9.1477e-41
5.83 0.6 0.85 9.1477e-41
5.88 0.6 0.84 9.1477e-41
5.93 0.6 0.85 9.1477e-41
5.98 0.6 0.84 9.1477e-41
6.03 0.6 0.85 9.1477e-41
6.07 0.6 0.86 9.1477e-41
6.12 0.6 0.87 9.1477e-41
6.17 0.6 0.87 9.1477e-41
6.22 0.6 0.87 9.1477e-41
6.27 0.6 0.88 9.1477e-41
6.32 0.6 0.88 9.1477e-41
6.38 0.6 0.88 9.1477e-41
6.43 0.6 0.87 9.1477e-41
6.48 0.6 0.88 9.1477e-41
6.54 0.6 0.87 9.1477e-41
6.59 0.6 0.87 9.1477e-41
6.64 0.6 0.89 9.1477e-41
6.71 0.6 0.87 9.1477e-41
6.76 0.6 0.87 9.1477e-41
6.82 0.6 0.87 9.1477e-41
6.88 0.6 0.87 9.1477e-41
6.95 0.6 0.86 9.1477e-41
7.01 0.6 0.84 9.1477e-41
7.08 0.6 0.83 9.1477e-41
7.14 0.6 0.82 9.1477e-41
7.2 0.6 0.83 9.1477e-41
5.66 0.66 0.44 9.1477e-41
5.65 0.66 0.65 9.1477e-41
5.68 0.66 0.7 9.1477e-41
5.72 0.66 0.73 9.1477e-41
5.76 0.66 0.78 9.1477e-41
5.79 0.66 0.83 9.1477e-41
5.83 0.66 0.85 9.1477e-41
5.87 0.66 0.86 9.1477e-41
5.92 0.66 0.87 9.1477e-41
5.98 0.66 0.85 9.1477e-41
6.02 0.66 0.87 9.1477e-41
6.07 0.66 0.87 9.1477e-41
6.12 0.66 0.88 9.1477e-41
6.17 0.66 0.89 9.1477e-41
6.22 0.66 0.89 9.1477e-41
6.27 0.66 0.89 9.1477e-41
6.32 0.66 0.89 9.1477e-41
6.37 0.66 0.9 9.1477e-41
6.42 0.66 0.9 9.1477e-41
6.48 0.66 0.89 9.1477e-41
6.53 0.66 0.89 9.1477e-41
6.59 0.66 0.88 9.1477e-41
6.64 0.66 0.9 9.1477e-41
6.7 0.66 0.89 9.1477e-41
6.76 0.66 0.88 9.1477e-41
6.81 0.66 0.89 9.1477e-41
6.87 0.66 0.89 9.1477e-41
6.94 0.66 0.88 9.1477e-41
7 0.66 0.87 9.1477e-41
7.07 0.66 0.84 9.1477e-41
7.13 0.66 0.84 9.1477e-41
7.2 0.66 0.83 9.1477e-41
5.67 0.72 0.4 9.1477e-41
5.65 0.72 0.66 9.1477e-41
5.68 0.72 0.72 9.1477e-41
5.71 0.72 0.75 9.1477e-41
5.75 0.72 0.8 9.1477e-41
5.78 0.72 0.85 9.1477e-41
5.82 0.72 0.86 9.1477e-41
5.87 0.72 0.87 9.1477e-41
5.92 0.72 0.87 9.1477e-41
5.97 0.72 0.88 9.1477e-41
6.02 0.72 0.88 9.1477e-41
6.06 0.72 0.89 9.1477e-41
6.11 0.72 0.89 9.1477e-41
6.16 0.72 0.9 9.1477e-41
6.21 0.72 0.9 9.1477e-41
6.26 0.72 0.9 9.1477e-41
6.31 0.72 0.91 9.1477e-41
6.36 0.72 0.9 9.1477e-41
6.42 0.72 0.89 9.1477e-41
6.47 0.72 0.9 9.1477e-41
6.52 0.72 0.91 9.1477e-41
6.58 0.72 0.89 9.1477e-41
6.63 0.72 0.91 9.1477e-41
6.7 0.72 0.89 9.1477e-41
6.75 0.72 0.9 9.1477e-41
6.81 0.72 0.9 9.1477e-41
6.87 0.72 0.89 9.1477e-41
6.93 0.72 0.88 9.1477e-41
6.99 0.72 0.88 9.1477e-41
7.05 0.72 0.88 9.1477e-41
7.13 0.72 0.84 9.1477e-41
7.18 0.72 0.85 9.1477e-41
7.25 0.72 0.84 9.1477e-41
5.64 0.78 0.68 9.1477e-41
5.67 0.78 0.73 9.1477e-41
5.71 0.78 0.78 9.1477e-41
5.75 0.78 0.8 9.1477e-41
5.78 0.78 0.86 9.1477e-41
5.82 0.78 0.88 9.1477e-41
5.86 0.78 0.89 9.1477e-41
5.91 0.78 0.88 9.1477e-41
5.96 0.78 0.89 9.1477e-41
6.01 0.78 0.9 9.1477e-41
6.05 0.78 0.91 9.1477e-41
6.1 0.78 0.9 9.1477e-41
6.15 0.78 0.91 9.1477e-41
6.2 0.78 0.91 9.1477e-41
6.25 0.78 0.91 9.1477e-41
6.31 0.78 0.91 9.1477e-41
6.36 0.78 0.92 9.1477e-41
6.42 0.78 0.9 9.1477e-41
6.47 0.78 0.91 9.1477e-41
6.52 0.78 0.92 9.1477e-41
6.57 0.78 0.91 9.1477e-41
6.63 0.78 0.92 9.1477e-41
6.69 0.78 0.91 9.1477e-41
6.74 0.78 0.92 9.1477e-41
6.8 0.78 0.9 9.1477e-41
6.86 0.78 0.9 9.1477e-41
6.92 0.78 0.9 9.1477e-41
6.99 0.78 0.88 9.1477e-41
7.04 0.78 0.89 9.1477e-41
7.12 0.78 0.86 9.1477e-41
7.17 0.78 0.87 9.1477e-41
7.24 0.78 0.86 9.1477e-41
5.65 0.84 0.66 9.1477e-41
5.68 0.84 0.72 9.1477e-41
5.71 0.84 0.77 9.1477e-41
5.74 0.84 0.81 9.1477e-41
5.77 0.84 0.87 9.1477e-41
5.81 0.84 0.89 9.1477e-41
5.86 0.84 0.9 9.1477e-41
5.91 0.84 0.89 9.1477e-41
5.95 0.84 0.91 9.1477e-41
6 0.84 0.91 9.1477e-41
6.05 0.84 0.91 9.1477e-41
6.1 0.84 0.91 9.1477e-41
6.15 0.84 0.91 9.1477e-41
6.2 0.84 0.92 9.1477e-41
6.25 0.84 0.92 9.1477e-41
6.3 0.84 0.92 9.1477e-41
6.36 0.84 0.92 9.1477e-41
6.41 0.84 0.92 9.1477e-41
6.46 0.84 0.92 9.1477e-41
6.51 0.84 0.92 9.1477e-41
6.57 0.84 0.92 9.1477e-41
6.63 0.84 0.92 9.1477e-41
6.68 0.84 0.92 9.1477e-41
6.74 0.84 0.91 9.1477e-41
6.8 0.84 0.91 9.1477e-41
6.85 0.84 0.92 9.1477e-41
6.92 0.84 0.91 9.1477e-41
6.97 0.84 0.91 9.1477e-41
7.04 0.84 0.9 9.1477e-41
7.1 0.84 0.89 9.1477e-41
7.17 0.84 0.88 9.1477e-41
7.23 0.84 0.87 9.1477e-41
5.66 0.9 0.45 9.1477e-41
5.64 0.9 0.67 9.1477e-41
5.68 0.9 0.72 9.1477e-41
5.71 0.9 0.76 9.1477e-41
5.74 0.9 0.83 9.1477e-41
5.77 0.9 0.89 9.1477e-41
5.81 0.9 0.91 9.1477e-41
5.86 0.9 0.91 9.1477e-41
5.9 0.9 0.91 9.1477e-41
5.95 0.9 0.92 9.1477e-41
6 0.9 0.93 9.1477e-41
6.04 0.9 0.93 9.1477e-41
6.1 0.9 0.91 9.1477e-41
6.15 0.9 0.93 9.1477e-41
6.2 0.9 0.93 9.1477e-41
6.25 0.9 0.93 9.1477e-41
6.3 0.9 0.92 9.1477e-41
6.35 0.9 0.93 9.1477e-41
6.4 0.9 0.94 9.1477e-41
6.46 0.9 0.92 9.1477e-41
6.51 0.9 0.93 9.1477e-41
6.56 0.9 0.93 9.1477e-41
6.62 0.9 0.93 9.1477e-41
6.68 0.9 0.93 9.1477e-41
6.73 0.9 0.93 9.1477e-41
6.79 0.9 0.92 9.1477e-41
6.85 0.9 0.93 9.1477e-41
6.91 0.9 0.93 9.1477e-41
6.96 0.9 0.93 9.1477e-41
7.03 0.9 0.91 9.1477e-41
7.09 0.9 0.91 9.1477e-41
7.15 0.9 0.9 9.1477e-41
7.23 0.9 0.88 9.1477e-41
5.66 0.96 0.45 9.1477e-41
5.65 0.96 0.66 9.1477e-41
5.68 0.96 0.72 9.1477e-41
5.71 0.96 0.77 9.1477e-41
5.74 0.96 0.83 9.1477e-41
5.77 0.96 0.89 9.1477e-41
5.81 0.96 0.91 9.1477e-41
5.85 0.96 0.91 9.1477e-41
5.9 0.96 0.91 9.1477e-41
5.94 0.96 0.94 9.1477e-41
6 0.96 0.93 9.1477e-41
6.04 0.96 0.93 9.1477e-41
6.1 0.96 0.92 9.1477e-41
6.15 0.96 0.92 9.1477e-41
6.2 0.96 0.91 9.1477e-41
6.27 0.96 0.89 9.1477e-41
6.31 0.96 0.91 9.1477e-41
6.36 0.96 0.91 3.57e-43
6.4 0.96 0.91 3.57e-43
6.46 0.96 0.91 3.57e-43
6.51 0.96 0.93 9.1477e-41
6.58 0.96 0.93 3.57e-43
6.62 0.96 0.93 9.1477e-41
6.7 0.96 0.88 9.1477e-41
6.77 0.96 0.86 9.1477e-41
6.81 0.96 0.9 9.1477e-41
6.85 0.96 0.93 9.1477e-41
6.91 0.96 0.93 9.1477e-41
6.96 0.96 0.93 9.1477e-41
7.02 0.96 0.93 9.1477e-41
7.08 0.96 0.92 9.1477e-41
7.15 0.96 0.91 9.1477e-41
7.22 0.96 0.89 9.1477e-41
5.65 1.02 0.47 9.1477e-41
5.65 1.02 0.65 9.1477e-41
5.68 1.02 0.72 9.1477e-41
5.7 1.02 0.79 9.1477e-41
5.74 1.02 0.84 9.1477e-41
5.76 1.02 0.9 9.1477e-41
5.8 1.02 0.93 9.1477e-41
5.85 1.02 0.93 9.1477e-41
5.89 1.02 0.94 9.1477e-41
5.94 1.02 0.94 9.1477e-41
6 1.02 0.94 3.57e-43
6.04 1.02 0.94 3.57e-43
6.1 1.02 0.94 3.57e-43
6.15 1.02 0.94 3.57e-43
6.2 1.02 0.94 3.57e-43
6.27 1.02 0.94 3.57e-43
6.31 1.02 0.94 3.57e-43
6.36 1.02 0.94 3.57e-43
6.4 1.02 0.94 3.57e-43
6.46 1.02 0.94 3.57e-43
6.51 1.02 0.94 3.57e-43
6.58 1.02 0.94 3.57e-43
6.62 1.02 0.94 3.57e-43
6.7 1.02 0.94 3.57e-43
6.77 1.02 0.94 3.57e-43
6.81 1.02 0.94 3.57e-43
6.85 1.02 0.94 3.57e-43
6.91 1.02 0.94 3.57e-43
6.96 1.02 0.93 9.1477e-41
7.03 1.02 0.91 9.1477e-41
7.08 1.02 0.93 9.1477e-41
7.14 1.02 0.93 9.1477e-41
7.21 1.02 0.9 9.1477e-41
7.29 1.02 0.89 9.1477e-41
5.66 1.08 0.46 9.1477e-41
5.65 1.08 0.65 9.1477e-41
5.68 1.08 0.72 9.1477e-41
5.7 1.08 0.8 9.1477e-41
5.74 1.08 0.84 9.1477e-41
5.76 1.08 0.9 9.1477e-41
5.8 1.08 0.94 9.1477e-41
5.84 1.08 0.95 9.1477e-41
5.9 1.08 0.95 3.57e-43
5.94 1.08 0.95 3.57e-43
6 1.08 0.95 3.57e-43
6.04 1.08 0.95 3.57e-43
6.1 1.08 0.95 3.57e-43
6.15 1.08 0.95 3.57e-43
6.2 1.08 0.95 3.57e-43
6.27 1.08 0.95 3.57e-43
6.31 1.08 0.95 3.57e-43
6.36 1.08 0.95 3.57e-43
6.4 1.08 0.95 3.57e-43
6.46 1.08 0.95 3.57e-43
6.51 1.08 0.95 3.57e-43
6.58 1.08 0.95 3.57e-43
6.62 1.08 0.95 3.57e-43
6.7 1.08 0.95 3.57e-43
6.77 1.08 0.95 3.57e-43
6.81 1.08 0.95 3.57e-43
6.85 1.08 0.95 3.57e-43
6.91 1.08 0.95 3.57e-43
6.96 1.08 0.95 3.57e-43
7.03 1.08 0.95 3.57e-43
7.08 1.08 0.93 9.1477e-41
7.16 1.08 0.89 9.1477e-41
7.2 1.08 0.93 9.1477e-41
7.28 1.08 0.91 9.1477e-41
5.65 1.14 0.47 9.1477e-41
5.65 1.14 0.64 9.1477e-41
5.68 1.14 0.72 9.1477e-41
5.7 1.14 0.79 9.1477e-41
5.74 1.14 0.84 9.1477e-41
5.76 1.14 0.91 9.1477e-41
5.79 1.14 0.96 9.1477e-41
5.84 1.14 0.96 3.57e-43
5.9 1.14 0.96 3.57e-43
5.94 1.14 0.96 3.57e-43
6 1.14 0.96 3.57e-43
6.04 1.14 0.96 3.57e-43
6.1 1.14 0.96 3.57e-43
6.15 1.14 0.96 3.57e-43
6.2 1.14 0.96 3.57e-43
6.27 1.14 0.96 3.57e-43
6.31 1.14 0.96 3.57e-43
6.36 1.14 0.96 3.57e-43
6.4 1.14 0.96 3.57e-43
6.46 1.14 0.96 3.57e-43
6.51 1.14 0.96 3.57e-43
6.58 1.14 0.96 3.57e-43
6.62 1.14 0.96 3.57e-43
6.7 1.14 0.96 3.57e-43
6.77 1.14 0.96 3.57e-43
6.81 1.14 0.96 3.57e-43
6.85 1.14 0.96 3.57e-43
6.91 1.14 0.96 3.57e-43
6.96 1.14 0.96 3.57e-43
7.03 1.14 0.96 3.57e-43
7.08 1.14 0.96 3.57e-43
7.16 1.14 0.89 9.1477e-41
7.21 1.14 0.9 9.1477e-41
7.25 1.14 0.94 9.1477e-41
5.65 1.2 0.49 9.1477e-41
5.66 1.2 0.62 9.1477e-41
5.67 1.2 0.73 9.1477e-41
5.7 1.2 0.81 9.1477e-41
5.73 1.2 0.85 9.1477e-41
5.76 1.2 0.92 9.1477e-41
5.78 1.2 0.98 9.1477e-41
5.82 1.2 0.98 3.57e-43
5.9 1.2 0.98 3.57e-43
5.94 1.2 0.98 3.57e-43
6 1.2 0.98 3.57e-43
6.04 1.2 0.98 3.57e-43
6.1 1.2 0.98 3.57e-43
6.15 1.2 0.98 3.57e-43
6.2 1.2 0.98 3.57e-43
6.27 1.2 0.98 3.57e-43
6.31 1.2 0.98 3.57e-43
6.36 1.2 0.98 3.57e-43
6.4 1.2 0.98 3.57e-43
6.46 1.2 0.98 3.57e-43
6.51 1.2 0.98 3.57e-43
6.58 1.2 0.98 3.57e-43
6.62 1.2 0.98 3.57e-43
6.7 1.2 0.98 3.57e-43
6.77 1.2 0.98 3.57e-43
6.81 1.2 0.98 3.57e-43
6.85 1.2 0.98 3.57e-43
6.91 1.2 0.98 3.57e-43
6.96 1.2 0.98 3.57e-43
7.03 1.2 0.98 3.57e-43
7.08 1.2 0.98 3.57e-43
7.16 1.2 0.98 3.57e-43
7.21 1.2 0.9 9.1477e-41
7.24 1.2 0.95 9.1477e-41
5.65 1.26 0.49 9.1477e-41
5.65 1.26 0.64 9.1477e-41
5.67 1.26 0.73 9.1477e-41
5.7 1.26 0.81 9.1477e-41
5.73 1.26 0.86 9.1477e-41
5.76 1.26 0.92 9.1477e-41
5.78 1.26 0.98 9.1477e-41
5.81 1.26 1.03 9.1477e-41
5.85 1.26 1.03 3.57e-43
5.94 1.26 1.03 3.57e-43
6 1.26 1.03 3.57e-43
6.04 1.26 1.03 3.57e-43
6.1 1.26 1.03 3.57e-43
6.15 1.26 1.03 3.57e-43
6.2 1.26 1.03 3.57e-43
6.27 1.26 1.03 3.57e-43
6.31 1.26 1.03 3.57e-43
6.36 1.26 1.03 3.57e-43
6.4 1.26 1.03 3.57e-43
6.46 1.26 1.03 3.57e-43
6.51 1.26 1.03 3.57e-43
6.58 1.26 1.03 3.57e-43
6.62 1.26 1.03 3.57e-43
6.7 1.26 1.03 3.57e-43
6.77 1.26 1.03 3.57e-43
6.81 1.26 1.03 3.57e-43
6.85 1.26 1.03 3.57e-43
6.91 1.26 1.03 3.57e-43
6.96 1.26 1.03 3.57e-43
7.03 1.26 1.03 3.57e-43
7.08 1.26 1.03 3.57e-43
7.16 1.26 0.89 9.1477e-41
7.18 1.26 0.95 9.1477e-41
7.22 1.26 0.98 9.1477e-41
5.65 1.32 0.48 9.1477e-41
5.65 1.32 0.65 9.1477e-41
5.67 1.32 0.74 9.1477e-41
5.7 1.32 0.81 9.1477e-41
5.73 1.32 0.87 9.1477e-41
5.76 1.32 0.9 9.1477e-41
5.77 1.32 1 9.1477e-41
5.81 1.32 1.05 9.1477e-41
5.84 1.32 1.05 3.57e-43
5.94 1.32 1.05 3.57e-43
6 1.32 1.05 3.57e-43
6.04 1.32 1.05 3.57e-43
6.1 1.32 1.05 3.57e-43
6.15 1.32 1.05 3.57e-43
6.2 1.32 1.05 3.57e-43
6.27 1.32 1.05 3.57e-43
6.31 1.32 1.05 3.57e-43
6.36 1.32 1.05 3.57e-43
6.4 1.32 1.05 3.57e-43
6.46 1.32 1.05 3.57e-43
6.51 1.32 1.05 3.57e-43
6.58 1.32 1.05 3.57e-43
6.62 1.32 1.05 3.57e-43
6.7 1.32 1.05 3.57e-43
6.77 1.32 1.05 3.57e-43
6.81 1.32 1.05 3.57e-43
6.85 1.32 1.05 3.57e-43
6.91 1.32 1.05 3.57e-43
6.96 1.32 1.05 3.57e-43
7.03 1.32 1.05 3.57e-43
7.08 1.32 1.05 3.57e-43
7.16 1.32 0.89 9.1477e-41
7.18 1.32 0.95 9.1477e-41
7.2 1.32 0.95 3.57e-43
5.65 1.38 0.48 9.1477e-41
5.65 1.38 0.65 9.1477e-41
5.63 1.38 0.86 9.1477e-41
5.64 1.38 0.98 9.1477e-41
5.68 1.38 0.99 9.1477e-41
5.74 1.38 0.99 3.57e-43
5.77 1.38 1 9.1477e-41
5.8 1.38 1.06 9.1477e-41
5.83 1.38 1.1 9.1477e-41
5.87 1.38 1.1 3.57e-43
6 1.38 1.1 3.57e-43
6.04 1.38 1.1 3.57e-43
6.1 1.38 1.1 3.57e-43
6.15 1.38 1.1 3.57e-43
6.2 1.38 1.1 3.57e-43
6.27 1.38 1.1 3.57e-43
6.31 1.38 1.1 3.57e-43
6.36 1.38 1.1 3.57e-43
6.4 1.38 1.1 3.57e-43
6.46 1.38 1.1 3.57e-43
6.51 1.38 1.1 3.57e-43
6.58 1.38 1.1 3.57e-43
6.62 1.38 1.1 3.57e-43
6.7 1.38 1.1 3.57e-43
6.77 1.38 1.1 3.57e-43
6.81 1.38 1.1 3.57e-43
6.85 1.38 1.1 3.57e-43
6.91 1.38 1.1 3.57e-43
6.96 1.38 1.1 3.57e-43
7.03 1.38 1.1 3.57e-43
7.08 1.38 1.1 3.57e-43
7.16 1.38 1.1 3.57e-43
7.18 1.38 0.95 9.1477e-41
7.19 1.38 1.03 9.1477e-41
7.24 1.38 1.05 9.1477e-41
5.65 1.44 0.5 9.1477e-41
5.55 1.44 0.99 9.1477e-41
5.58 1.44 1.01 9.1477e-41
5.62 1.44 1.03 9.1477e-41
5.67 1.44 1.03 9.1477e-41
5.72 1.44 1.03 3.57e-43
5.77 1.44 1.03 3.57e-43
5.8 1.44 1.06 9.1477e-41
5.83 1.44 1.12 9.1477e-41
5.86 1.44 1.14 9.1477e-41
5.9 1.44 1.14 3.57e-43
6.04 1.44 1.14 3.57e-43
6.1 1.44 1.14 3.57e-43
6.15 1.44 1.14 3.57e-43
6.2 1.44 1.14 3.57e-43
6.27 1.44 1.14 3.57e-43
6.31 1.44 1.14 3.57e-43
6.36 1.44 1.14 3.57e-43
6.4 1.44 1.14 3.57e-43
6.46 1.44 1.14 3.57e-43
6.51 1.44 1.14 3.57e-43
6.58 1.44 1.14 3.57e-43
6.62 1.44 1.14 3.57e-43
6.7 1.44 1.14 3.57e-43
6.77 1.44 1.14 3.57e-43
6.81 1.44 1.14 3.57e-43
6.85 1.44 1.14 3.57e-43
6.91 1.44 1.14 3.57e-43
6.96 1.44 1.14 3.57e-43
7.03 1.44 1.14 3.57e-43
7.08 1.44 1.14 3.57e-43
7.16 1.44 1.14 3.57e-43
7.18 1.44 0.95 9.1477e-41
7.17 1.44 1.06 9.1477e-41
7.21 1.44 1.08 9.1477e-41
7.32 1.44 1.03 9.1477e-41
7.41 1.44 0.99 9.1477e-41
5.52 1.5 0.93 9.1477e-41
5.54 1.5 1.01 9.1477e-41
5.58 1.5 1.02 9.1477e-41
5.63 1.5 1.02 9.1477e-41
5.71 1.5 0.91 9.1477e-41
5.76 1.5 0.91 3.57e-43
5.77 1.5 0.91 3.57e-43
5.8 1.5 0.91 3.57e-43
5.83 1.5 1.12 9.1477e-41
5.85 1.5 1.16 9.1477e-41
5.89 1.5 1.16 3.57e-43
6.04 1.5 1.16 3.57e-43
6.1 1.5 1.16 3.57e-43
6.15 1.5 1.16 3.57e-43
6.2 1.5 1.16 3.57e-43
6.27 1.5 1.16 3.57e-43
6.31 1.5 1.16 3.57e-43
6.36 1.5 1.16 3.57e-43
6.4 1.5 1.16 3.57e-43
6.46 1.5 1.16 3.57e-43
6.51 1.5 1.16 3.57e-43
6.58 1.5 1.16 3.57e-43
6.62 1.5 1.16 3.57e-43
6.7 1.5 1.16 3.57e-43
6.77 1.5 1.16 3.57e-43
6.81 1.5 1.16 3.57e-43
6.85 1.5 1.16 3.57e-43
6.91 1.5 1.16 3.57e-43
6.96 1.5 1.16 3.57e-43
7.03 1.5 1.16 3.57e-43
7.08 1.5 1.16 3.57e-43
7.16 1.5 1.16 3.57e-43
7.18 1.5 0.95 9.1477e-41
7.17 1.5 1.06 9.1477e-41
7.19 1.5 1.13 9.1477e-41
7.24 1.5 1.13 9.1477e-41
7.39 1.5 1.02 9.1477e-41
7.45 1.5 1.02 9.1477e-41
5.65 1.56 0.48 9.1477e-41
5.65 1.56 0.66 9.1477e-41
5.67 1.56 0.74 9.1477e-41
5.7 1.56 0.82 9.1477e-41
5.72 1.56 0.89 9.1477e-41
5.76 1.56 0.89 3.57e-43
5.77 1.56 0.89 3.57e-43
5.8 1.56 0.89 3.57e-43
5.83 1.56 1.12 9.1477e-41
5.85 1.56 1.18 9.1477e-41
5.88 1.56 1.2 9.1477e-41
5.92 1.56 1.2 3.57e-43
6.1 1.56 1.2 3.57e-43
6.15 1.56 1.2 3.57e-43
6.2 1.56 1.2 3.57e-43
6.27 1.56 1.2 3.57e-43
6.31 1.56 1.2 3.57e-43
6.36 1.56 1.2 3.57e-43
6.4 1.56 1.2 3.57e-43
6.46 1.56 1.2 3.57e-43
6.51 1.56 1.2 3.57e-43
6.58 1.56 1.2 3.57e-43
6.62 1.56 1.2 3.57e-43
6.7 1.56 1.2 3.57e-43
6.77 1.56 1.2 3.57e-43
6.81 1.56 1.2 3.57e-43
6.85 1.56 1.2 3.57e-43
6.91 1.56 1.2 3.57e-43
6.96 1.56 1.2 3.57e-43
7.03 1.56 1.2 3.57e-43
7.08 1.56 1.2 3.57e-43
7.16 1.56 1.2 3.57e-43
7.18 1.56 1.2 3.57e-43
7.17 1.56 1.06 9.1477e-41
7.17 1.56 1.15 9.1477e-41
7.24 1.56 1.14 9.1477e-41
7.51 1.56 0.84 9.1477e-41
7.51 1.56 0.93 9.1477e-41
7.56 1.56 0.95 9.1477e-41
5.65 1.62 0.49 9.1477e-41
5.65 1.62 0.66 9.1477e-41
5.66 1.62 0.76 9.1477e-41
5.69 1.62 0.84 9.1477e-41
5.72 1.62 0.9 9.1477e-41
5.76 1.62 0.9 3.57e-43
5.77 1.62 0.9 3.57e-43
5.8 1.62 0.9 3.57e-43
5.83 1.62 0.9 3.57e-43
5.85 1.62 1.18 9.1477e-41
5.88 1.62 1.22 9.1477e-41
5.91 1.62 1.22 3.57e-43
6.1 1.62 1.22 3.57e-43
6.15 1.62 1.22 3.57e-43
6.2 1.62 1.22 3.57e-43
6.27 1.62 0.89 9.1477e-41
6.46 1.62 0.58 9.1477e-41
6.5 1.62 0.58 3.57e-43
6.4 1.62 0.58 3.57e-43
6.46 1.62 0.58 3.57e-43
6.51 1.62 0.58 3.57e-43
6.58 1.62 0.58 3.57e-43
6.62 1.62 0.58 3.57e-43
6.7 1.62 0.58 3.57e-43
6.77 1.62 0.58 3.57e-43
6.81 1.62 0.58 3.57e-43
6.85 1.62 0.58 3.57e-43
6.91 1.62 0.58 3.57e-43
6.96 1.62 0.58 3.57e-43
7.03 1.62 0.58 3.57e-43
7.08 1.62 0.58 3.57e-43
7.16 1.62 0.58 3.57e-43
7.18 1.62 0.58 3.57e-43
7.17 1.62 1.06 9.1477e-41
7.15 1.62 1.18 9.1477e-41
7.2 1.62 1.19 9.1477e-41
5.66 1.68 0.46 9.1477e-41
5.65 1.68 0.65 9.1477e-41
5.67 1.68 0.75 9.1477e-41
5.69 1.68 0.83 9.1477e-41
5.72 1.68 0.9 9.1477e-41
5.76 1.68 0.9 3.57e-43
5.77 1.68 0.9 3.57e-43
5.8 1.68 0.9 3.57e-43
5.83 1.68 0.9 3.57e-43
5.85 1.68 0.9 3.57e-43
5.88 1.68 1.22 9.1477e-41
5.91 1.68 1.27 9.1477e-41
5.94 1.68 1.27 3.57e-43
6.15 1.68 1.27 3.57e-43
6.2 1.68 1.27 3.57e-43
6.27 1.68 1.27 3.57e-43
6.46 1.68 0.58 9.1477e-41
6.52 1.68 0.58 3.57e-43
6.4 1.68 0.58 3.57e-43
6.46 1.68 0.92 9.1477e-41
6.67 1.68 0.61 9.1477e-41
6.71 1.68 0.61 3.57e-43
6.62 1.68 0.61 3.57e-43
6.7 1.68 0.61 3.57e-43
6.77 1.68 0.61 3.57e-43
6.81 1.68 0.61 3.57e-43
6.85 1.68 0.61 3.57e-43
6.91 1.68 0.61 3.57e-43
6.96 1.68 0.61 3.57e-43
7.03 1.68 0.61 3.57e-43
7.08 1.68 0.61 3.57e-43
7.16 1.68 0.61 3.57e-43
7.18 1.68 0.61 3.57e-43
7.17 1.68 1.06 9.1477e-41
7.13 1.68 1.21 9.1477e-41
7.16 1.68 1.24 9.1477e-41
5.65 1.74 0.49 9.1477e-41
5.65 1.74 0.66 9.1477e-41
5.66 1.74 0.76 9.1477e-41
5.69 1.74 0.84 9.1477e-41
5.71 1.74 0.92 9.1477e-41
5.76 1.74 0.92 3.57e-43
5.77 1.74 0.92 3.57e-43
5.8 1.74 0.92 3.57e-43
5.83 1.74 0.92 3.57e-43
5.85 1.74 0.92 3.57e-43
5.88 1.74 1.22 9.1477e-41
5.9 1.74 1.28 9.1477e-41
5.94 1.74 1.29 9.1477e-41
5.99 1.74 1.3 9.1477e-41
6.03 1.74 1.3 3.57e-43
6.27 1.74 1.3 3.57e-43
6.46 1.74 1.3 3.57e-43
6.52 1.74 1.3 3.57e-43
6.4 1.74 1.3 3.57e-43
6.46 1.74 0.92 9.1477e-41
6.67 1.74 0.92 3.57e-43
6.71 1.74 0.92 3.57e-43
6.62 1.74 0.92 3.57e-43
6.7 1.74 0.92 3.57e-43
6.77 1.74 0.92 3.57e-43
6.81 1.74 0.92 3.57e-43
6.85 1.74 0.92 3.57e-43
6.91 1.74 0.92 3.57e-43
6.96 1.74 0.92 3.57e-43
7.03 1.74 0.92 3.57e-43
7.08 1.74 0.92 3.57e-43
7.16 1.74 0.92 3.57e-43
7.18 1.74 0.92 3.57e-43
7.17 1.74 1.06 9.1477e-41
7.11 1.74 1.23 9.1477e-41
7.15 1.74 1.27 9.1477e-41
5.65 1.8 0.48 9.1477e-41
5.65 1.8 0.65 9.1477e-41
5.66 1.8 0.77 9.1477e-41
5.69 1.8 0.84 9.1477e-41
5.72 1.8 0.9 9.1477e-41
5.75 1.8 0.9 3.57e-43
5.77 1.8 0.9 3.57e-43
5.8 1.8 0.9 3.57e-43
5.83 1.8 0.9 3.57e-43
5.85 1.8 0.9 3.57e-43
5.88 1.8 1.22 9.1477e-41
5.9 1.8 1.29 9.1477e-41
5.93 1.8 1.31 9.1477e-41
5.97 1.8 1.34 9.1477e-41
6.01 1.8 1.34 9.1477e-41
6.06 1.8 1.33 9.1477e-41
6.1 1.8 1.35 9.1477e-41
6.15 1.8 1.36 9.1477e-41
6.2 1.8 1.35 9.1477e-41
6.25 1.8 1.35 9.1477e-41
6.29 1.8 1.35 9.1477e-41
6.34 1.8 1.35 9.1477e-41
6.39 1.8 1.37 9.1477e-41
6.44 1.8 1.37 9.1477e-41
6.49 1.8 1.36 9.1477e-41
6.54 1.8 1.36 9.1477e-41
6.6 1.8 1.35 9.1477e-41
6.65 1.8 1.37 9.1477e-41
6.7 1.8 1.36 9.1477e-41
6.75 1.8 1.36 9.1477e-41
6.81 1.8 1.36 9.1477e-41
6.87 1.8 1.36 9.1477e-41
6.93 1.8 1.35 9.1477e-41
7 1.8 1.32 9.1477e-41
7.1 1.8 1.25 9.1477e-41
7.14 1.8 1.29 9.1477e-41
5.65 1.86 0.47 9.1477e-41
5.64 1.86 0.68 9.1477e-41
5.66 1.86 0.76 9.1477e-41
5.69 1.86 0.85 9.1477e-41
5.71 1.86 0.91 9.1477e-41
5.75 1.86 0.91 3.57e-43
5.77 1.86 0.91 3.57e-43
5.8 1.86 0.91 3.57e-43
5.83 1.86 0.91 3.57e-43
5.85 1.86 0.91 3.57e-43
5.88 1.86 0.91 3.57e-43
5.9 1.86 1.29 9.1477e-41
5.93 1.86 1.32 9.1477e-41
5.96 1.86 1.35 9.1477e-41
6.01 1.86 1.35 9.1477e-41
6.05 1.86 1.36 9.1477e-41
6.09 1.86 1.37 9.1477e-41
6.14 1.86 1.38 9.1477e-41
6.19 1.86 1.38 9.1477e-41
6.24 1.86 1.37 9.1477e-41
6.28 1.86 1.38 9.1477e-41
6.33 1.86 1.38 9.1477e-41
6.38 1.86 1.39 9.1477e-41
6.43 1.86 1.39 9.1477e-41
6.48 1.86 1.38 9.1477e-41
6.53 1.86 1.38 9.1477e-41
6.58 1.86 1.38 9.1477e-41
6.64 1.86 1.38 9.1477e-41
6.69 1.86 1.37 9.1477e-41
6.74 1.86 1.38 9.1477e-41
6.8 1.86 1.37 9.1477e-41
6.86 1.86 1.38 9.1477e-41
6.92 1.86 1.37 9.1477e-41
6.98 1.86 1.36 9.1477e-41
7.04 1.86 1.35 9.1477e-41
7.11 1.86 1.33 9.1477e-41
5.66 1.92 0.46 9.1477e-41
5.64 1.92 0.67 9.1477e-41
5.66 1.92 0.77 9.1477e-41
5.69 1.92 0.85 9.1477e-41
5.71 1.92 0.91 9.1477e-41
5.75 1.92 0.91 3.57e-43
5.77 1.92 0.91 3.57e-43
5.8 1.92 0.91 3.57e-43
5.83 1.92 0.91 3.57e-43
5.85 1.92 0.91 3.57e-43
5.88 1.92 0.91 3.57e-43
5.9 1.92 1.29 9.1477e-41
5.92 1.92 1.33 9.1477e-41
5.96 1.92 1.36 9.1477e-41
6.01 1.92 1.36 9.1477e-41
6.05 1.92 1.37 9.1477e-41
6.09 1.92 1.38 9.1477e-41
6.14 1.92 1.39 9.1477e-41
6.18 1.92 1.4 9.1477e-41
6.23 1.92 1.4 9.1477e-41
6.27 1.92 1.4 9.1477e-41
6.32 1.92 1.39 9.1477e-41
6.37 1.92 1.4 9.1477e-41
6.42 1.92 1.4 9.1477e-41
6.47 1.92 1.4 9.1477e-41
6.52 1.92 1.39 9.1477e-41
6.58 1.92 1.39 9.1477e-41
6.63 1.92 1.4 9.1477e-41
6.68 1.92 1.4 9.1477e-41
6.73 1.92 1.4 9.1477e-41
6.79 1.92 1.39 9.1477e-41
6.85 1.92 1.39 9.1477e-41
6.9 1.92 1.39 9.1477e-41
6.97 1.92 1.37 9.1477e-41
7.03 1.92 1.37 9.1477e-41
7.09 1.92 1.35 9.1477e-41
7.16 1.92 1.34 9.1477e-41
5.65 1.98 0.47 9.1477e-41
5.64 1.98 0.68 9.1477e-41
5.66 1.98 0.77 9.1477e-41
5.69 1.98 0.85 9.1477e-41
5.71 1.98 0.91 9.1477e-41
5.75 1.98 0.91 3.57e-43
5.77 1.98 0.91 3.57e-43
5.8 1.98 0.91 3.57e-43
5.83 1.98 0.91 3.57e-43
5.85 1.98 0.91 3.57e-43
5.88 1.98 0.91 3.57e-43
5.9 1.98 1.29 9.1477e-41
5.93 1.98 1.32 9.1477e-41
5.96 1.98 1.36 9.1477e-41
6 1.98 1.37 9.1477e-41
6.04 1.98 1.38 9.1477e-41
6.09 1.98 1.39 9.1477e-41
6.13 1.98 1.4 9.1477e-41
6.17 1.98 1.4 9.1477e-41
6.22 1.98 1.41 9.1477e-41
6.27 1.98 1.41 9.1477e-41
6.32 1.98 1.4 9.1477e-41
6.37 1.98 1.41 9.1477e-41
6.41 1.98 1.41 9.1477e-41
6.47 1.98 1.41 9.1477e-41
6.51 1.98 1.41 9.1477e-41
6.57 1.98 1.41 9.1477e-41
6.62 1.98 1.41 9.1477e-41
6.67 1.98 1.42 9.1477e-41
6.73 1.98 1.4 9.1477e-41
6.79 1.98 1.39 9.1477e-41
6.83 1.98 1.41 9.1477e-41
6.89 1.98 1.4 9.1477e-41
6.95 1.98 1.39 9.1477e-41
7.01 1.98 1.38 9.1477e-41
7.08 1.98 1.37 9.1477e-41
7.14 1.98 1.36 9.1477e-41
5.65 2.04 0.47 9.1477e-41
5.64 2.04 0.68 9.1477e-41
5.65 2.04 0.79 9.1477e-41
5.69 2.04 0.84 9.1477e-41
5.72 2.04 0.89 9.1477e-41
5.75 2.04 0.89 3.57e-43
5.77 2.04 0.89 3.57e-43
5.8 2.04 0.89 3.57e-43
5.83 2.04 0.89 3.57e-43
5.85 2.04 0.89 3.57e-43
5.88 2.04 0.89 3.57e-43
5.9 2.04 0.89 3.57e-43
5.93 2.04 1.32 9.1477e-41
5.96 2.04 1.36 9.1477e-41
5.99 2.04 1.39 9.1477e-41
6.04 2.04 1.39 9.1477e-41
6.08 2.04 1.4 9.1477e-41
6.12 2.04 1.4 9.1477e-41
6.17 2.04 1.41 9.1477e-41
6.22 2.04 1.41 9.1477e-41
6.27 2.04 1.41 9.1477e-41
6.31 2.04 1.42 9.1477e-41
6.36 2.04 1.41 9.1477e-41
6.41 2.04 1.42 9.1477e-41
6.46 2.04 1.42 9.1477e-41
6.51 2.04 1.42 9.1477e-41
6.56 2.04 1.41 9.1477e-41
6.62 2.04 1.42 9.1477e-41
6.66 2.04 1.43 9.1477e-41
6.72 2.04 1.41 9.1477e-41
6.77 2.04 1.42 9.1477e-41
6.83 2.04 1.42 9.1477e-41
6.89 2.04 1.41 9.1477e-41
6.95 2.04 1.4 9.1477e-41
7.01 2.04 1.39 9.1477e-41
7.07 2.04 1.38 9.1477e-41
7.14 2.04 1.37 9.1477e-41
5.66 2.1 0.45 9.1477e-41
5.64 2.1 0.67 9.1477e-41
5.65 2.1 0.79 9.1477e-41
5.69 2.1 0.83 9.1477e-41
5.72 2.1 0.9 9.1477e-41
5.75 2.1 0.9 3.57e-43
5.77 2.1 0.9 3.57e-43
5.8 2.1 0.9 3.57e-43
5.83 2.1 0.9 3.57e-43
5.85 2.1 0.9 3.57e-43
5.88 2.1 0.9 3.57e-43
5.9 2.1 0.9 3.57e-43
5.93 2.1 1.32 9.1477e-41
5.95 2.1 1.37 9.1477e-41
5.99 2.1 1.4 9.1477e-41
6.03 2.1 1.41 9.1477e-41
6.08 2.1 1.4 9.1477e-41
6.12 2.1 1.4 9.1477e-41
6.17 2.1 1.41 9.1477e-41
6.22 2.1 1.41 9.1477e-41
6.26 2.1 1.42 9.1477e-41
6.31 2.1 1.43 9.1477e-41
6.36 2.1 1.42 9.1477e-41
6.4 2.1 1.42 9.1477e-41
6.46 2.1 1.42 9.1477e-41
6.51 2.1 1.42 9.1477e-41
6.56 2.1 1.42 9.1477e-41
6.61 2.1 1.42 9.1477e-41
6.66 2.1 1.42 9.1477e-41
6.72 2.1 1.42 9.1477e-41
6.77 2.1 1.42 9.1477e-41
6.82 2.1 1.43 9.1477e-41
6.88 2.1 1.42 9.1477e-41
6.95 2.1 1.4 9.1477e-41
7 2.1 1.4 9.1477e-41
7.06 2.1 1.39 9.1477e-41
7.13 2.1 1.39 9.1477e-41
5.65 2.16 0.47 9.1477e-41
5.64 2.16 0.67 9.1477e-41
5.65 2.16 0.81 9.1477e-41
5.69 2.16 0.84 9.1477e-41
5.72 2.16 0.9 9.1477e-41
5.74 2.16 0.9 3.57e-43
5.77 2.16 0.9 3.57e-43
5.8 2.16 0.9 3.57e-43
5.83 2.16 0.9 3.57e-43
5.85 2.16 0.9 3.57e-43
5.88 2.16 0.9 3.57e-43
5.9 2.16 0.9 3.57e-43
5.93 2.16 1.32 9.1477e-41
5.95 2.16 1.37 9.1477e-41
5.99 2.16 1.4 9.1477e-41
6.04 2.16 1.4 9.1477e-41
6.08 2.16 1.41 9.1477e-41
6.12 2.16 1.42 9.1477e-41
6.16 2.16 1.43 9.1477e-41
6.21 2.16 1.43 9.1477e-41
6.26 2.16 1.42 9.1477e-41
6.31 2.16 1.43 9.1477e-41
6.35 2.16 1.43 9.1477e-41
6.4 2.16 1.43 9.1477e-41
6.45 2.16 1.43 9.1477e-41
6.5 2.16 1.44 9.1477e-41
6.55 2.16 1.43 9.1477e-41
6.61 2.16 1.43 9.1477e-41
6.65 2.16 1.44 9.1477e-41
6.71 2.16 1.43 9.1477e-41
6.76 2.16 1.43 9.1477e-41
6.82 2.16 1.43 9.1477e-41
6.87 2.16 1.43 9.1477e-41
6.94 2.16 1.42 9.1477e-41
7 2.16 1.4 9.1477e-41
7.06 2.16 1.4 9.1477e-41
7.13 2.16 1.39 9.1477e-41
5.66 2.22 0.45 9.1477e-41
5.65 2.22 0.66 9.1477e-41
5.65 2.22 0.8 9.1477e-41
5.69 2.22 0.84 9.1477e-41
5.72 2.22 0.9 9.1477e-41
5.74 2.22 0.9 3.57e-43
5.77 2.22 0.9 3.57e-43
5.8 2.22 0.9 3.57e-43
5.83 2.22 0.9 3.57e-43
5.85 2.22 0.9 3.57e-43
5.88 2.22 0.9 3.57e-43
5.9 2.22 0.9 3.57e-43
5.93 2.22 1.32 9.1477e-41
5.95 2.22 1.38 9.1477e-41
5.99 2.22 1.4 9.1477e-41
6.03 2.22 1.41 9.1477e-41
6.08 2.22 1.41 9.1477e-41
6.12 2.22 1.41 9.1477e-41
6.17 2.22 1.42 9.1477e-41
6.21 2.22 1.43 9.1477e-41
6.25 2.22 1.43 9.1477e-41
6.3 2.22 1.43 9.1477e-41
6.35 2.22 1.44 9.1477e-41
6.4 2.22 1.45 9.1477e-41
6.45 2.22 1.43 9.1477e-41
6.49 2.22 1.45 9.1477e-41
6.55 2.22 1.43 9.1477e-41
6.6 2.22 1.44 9.1477e-41
6.66 2.22 1.42 9.1477e-41
6.71 2.22 1.44 9.1477e-41
6.76 2.22 1.43 9.1477e-41
6.81 2.22 1.44 9.1477e-41
6.87 2.22 1.43 9.1477e-41
6.93 2.22 1.43 9.1477e-41
6.99 2.22 1.42 9.1477e-41
7.05 2.22 1.41 9.1477e-41
7.12 2.22 1.39 9.1477e-41
5.66 2.28 0.44 9.1477e-41
5.65 2.28 0.66 9.1477e-41
5.66 2.28 0.77 9.1477e-41
5.69 2.28 0.85 9.1477e-41
5.71 2.28 0.91 9.1477e-41
5.75 2.28 0.95 9.1477e-41
5.78 2.28 0.95 3.57e-43
5.8 2.28 0.95 3.57e-43
5.83 2.28 0.95 3.57e-43
5.85 2.28 0.95 3.57e-43
5.88 2.28 0.95 3.57e-43
5.9 2.28 0.95 3.57e-43
5.93 2.28 1.32 9.1477e-41
5.95 2.28 1.37 9.1477e-41
5.99 2.28 1.4 9.1477e-41
6.03 2.28 1.42 9.1477e-41
6.07 2.28 1.42 9.1477e-41
6.12 2.28 1.42 9.1477e-41
6.16 2.28 1.44 9.1477e-41
6.2 2.28 1.44 9.1477e-41
6.25 2.28 1.44 9.1477e-41
6.3 2.28 1.44 9.1477e-41
6.34 2.28 1.45 9.1477e-41
6.4 2.28 1.45 9.1477e-41
6.45 2.28 1.44 9.1477e-41
6.49 2.28 1.45 9.1477e-41
6.54 2.28 1.45 9.1477e-41
6.61 2.28 1.43 9.1477e-41
6.65 2.28 1.45 9.1477e-41
6.71 2.28 1.44 9.1477e-41
6.76 2.28 1.43 9.1477e-41
6.82 2.28 1.44 9.1477e-41
6.87 2.28 1.44 9.1477e-41
6.93 2.28 1.43 9.1477e-41
6.99 2.28 1.42 9.1477e-41
7.06 2.28 1.4 9.1477e-41
7.11 2.28 1.41 9.1477e-41
5.67 2.34 0.41 9.1477e-41
5.65 2.34 0.65 9.1477e-41
5.66 2.34 0.77 9.1477e-41
5.69 2.34 0.85 9.1477e-41
5.72 2.34 0.9 9.1477e-41
5.75 2.34 0.95 9.1477e-41
5.79 2.34 0.95 3.57e-43
5.8 2.34 0.95 3.57e-43
5.83 2.34 0.95 3.57e-43
5.85 2.34 0.95 3.57e-43
5.88 2.34 0.95 3.57e-43
5.9 2.34 0.95 3.57e-43
5.93 2.34 1.32 9.1477e-41
5.95 2.34 1.37 9.1477e-41
5.99 2.34 1.41 9.1477e-41
6.03 2.34 1.42 9.1477e-41
6.07 2.34 1.41 9.1477e-41
6.11 2.34 1.43 9.1477e-41
6.15 2.34 1.45 9.1477e-41
6.2 2.34 1.44 9.1477e-41
6.25 2.34 1.45 9.1477e-41
6.3 2.34 1.44 9.1477e-41
6.34 2.34 1.45 9.1477e-41
6.39 2.34 1.46 9.1477e-41
6.44 2.34 1.45 9.1477e-41
6.49 2.34 1.45 9.1477e-41
6.54 2.34 1.46 9.1477e-41
6.59 2.34 1.45 9.1477e-41
6.65 2.34 1.45 9.1477e-41
6.7 2.34 1.45 9.1477e-41
6.75 2.34 1.45 9.1477e-41
6.81 2.34 1.45 9.1477e-41
6.87 2.34 1.44 9.1477e-41
6.93 2.34 1.43 9.1477e-41
6.98 2.34 1.43 9.1477e-41
7.04 2.34 1.43 9.1477e-41
7.11 2.34 1.4 9.1477e-41
5.67 2.4 0.43 9.1477e-41
5.65 2.4 0.66 9.1477e-41
5.66 2.4 0.77 9.1477e-41
5.69 2.4 0.85 9.1477e-41
5.72 2.4 0.9 9.1477e-41
5.74 2.4 0.96 9.1477e-41
5.78 2.4 0.96 3.57e-43
5.8 2.4 0.96 3.57e-43
5.83 2.4 0.96 3.57e-43
5.85 2.4 0.96 3.57e-43
5.88 2.4 0.96 3.57e-43
5.9 2.4 0.96 3.57e-43
5.93 2.4 1.32 9.1477e-41
5.95 2.4 1.37 9.1477e-41
5.99 2.4 1.41 9.1477e-41
6.02 2.4 1.42 9.1477e-41
6.07 2.4 1.42 9.1477e-41
6.11 2.4 1.44 9.1477e-41
6.15 2.4 1.45 9.1477e-41
6.2 2.4 1.45 9.1477e-41
6.25 2.4 1.44 9.1477e-41
6.29 2.4 1.45 9.1477e-41
6.34 2.4 1.45 9.1477e-41
6.39 2.4 1.46 9.1477e-41
6.44 2.4 1.45 9.1477e-41
6.49 2.4 1.46 9.1477e-41
6.54 2.4 1.45 9.1477e-41
6.59 2.4 1.45 9.1477e-41
6.65 2.4 1.45 9.1477e-41
6.7 2.4 1.45 9.1477e-41
6.75 2.4 1.45 9.1477e-41
6.81 2.4 1.45 9.1477e-41
6.86 2.4 1.45 9.1477e-41
6.92 2.4 1.44 9.1477e-41
6.98 2.4 1.43 9.1477e-41
7.05 2.4 1.42 9.1477e-41
7.11 2.4 1.41 9.1477e-41
5.67 2.46 0.42 9.1477e-41
5.65 2.46 0.65 9.1477e-41
5.66 2.46 0.76 9.1477e-41
5.69 2.46 0.85 9.1477e-41
5.71 2.46 0.91 9.1477e-41
5.74 2.46 0.96 9.1477e-41
5.78 2.46 0.96 3.57e-43
5.8 2.46 0.96 3.57e-43
5.83 2.46 0.96 3.57e-43
5.85 2.46 0.96 3.57e-43
5.88 2.46 0.96 3.57e-43
5.9 2.46 0.96 3.57e-43
5.93 2.46 1.32 9.1477e-41
5.95 2.46 1.38 9.1477e-41
5.98 2.46 1.42 9.1477e-41
6.02 2.46 1.42 9.1477e-41
6.06 2.46 1.43 9.1477e-41
6.11 2.46 1.43 9.1477e-41
6.15 2.46 1.45 9.1477e-41
6.2 2.46 1.45 9.1477e-41
6.25 2.46 1.45 9.1477e-41
6.3 2.46 1.44 9.1477e-41
6.34 2.46 1.45 9.1477e-41
6.39 2.46 1.46 9.1477e-41
6.44 2.46 1.46 9.1477e-41
6.49 2.46 1.46 9.1477e-41
6.54 2.46 1.45 9.1477e-41
6.59 2.46 1.45 9.1477e-41
6.64 2.46 1.46 9.1477e-41
6.7 2.46 1.46 9.1477e-41
6.75 2.46 1.45 9.1477e-41
6.81 2.46 1.45 9.1477e-41
6.86 2.46 1.45 9.1477e-41
6.92 2.46 1.45 9.1477e-41
6.98 2.46 1.43 9.1477e-41
7.04 2.46 1.43 9.1477e-41
7.11 2.46 1.41 9.1477e-41
5.67 2.52 0.41 9.1477e-41
5.65 2.52 0.66 9.1477e-41
5.66 2.52 0.78 9.1477e-41
5.69 2.52 0.85 9.1477e-41
5.71 2.52 0.91 9.1477e-41
5.74 2.52 0.97 9.1477e-41
5.78 2.52 0.97 3.57e-43
5.8 2.52 0.97 3.57e-43
5.83 2.52 0.97 3.57e-43
5.85 2.52 0.97 3.57e-43
5.88 2.52 0.97 3.57e-43
5.9 2.52 0.97 3.57e-43
5.93 2.52 0.97 3.57e-43
5.95 2.52 1.38 9.1477e-41
5.99 2.52 1.41 9.1477e-41
6.02 2.52 1.43 9.1477e-41
6.06 2.52 1.43 9.1477e-41
6.11 2.52 1.44 9.1477e-41
6.15 2.52 1.45 9.1477e-41
6.19 2.52 1.46 9.1477e-41
6.25 2.52 1.45 9.1477e-41
6.29 2.52 1.45 9.1477e-41
6.34 2.52 1.45 9.1477e-41
6.39 2.52 1.46 9.1477e-41
6.44 2.52 1.46 9.1477e-41
6.49 2.52 1.45 9.1477e-41
6.54 2.52 1.45 9.1477e-41
6.59 2.52 1.45 9.1477e-41
6.64 2.52 1.46 9.1477e-41
6.69 2.52 1.46 9.1477e-41
6.75 2.52 1.45 9.1477e-41
6.81 2.52 1.45 9.1477e-41
6.86 2.52 1.46 9.1477e-41
6.92 2.52 1.44 9.1477e-41
6.98 2.52 1.43 9.1477e-41
7.04 2.52 1.43 9.1477e-41
7.11 2.52 1.41 9.1477e-41
5.67 2.58 0.41 9.1477e-41
5.65 2.58 0.65 9.1477e-41
5.67 2.58 0.75 9.1477e-41
5.68 2.58 0.85 9.1477e-41
5.71 2.58 0.9 9.1477e-41
5.74 2.58 0.97 9.1477e-41
5.78 2.58 0.97 3.57e-43
5.8 2.58 0.97 3.57e-43
5.83 2.58 0.97 3.57e-43
5.85 2.58 0.97 3.57e-43
5.88 2.58 0.97 3.57e-43
5.9 2.58 0.97 3.57e-43
5.93 2.58 0.97 3.57e-43
5.95 2.58 1.38 9.1477e-41
5.98 2.58 1.42 9.1477e-41
6.02 2.58 1.42 9.1477e-41
6.06 2.58 1.43 9.1477e-41
6.11 2.58 1.43 9.1477e-41
6.15 2.58 1.45 9.1477e-41
6.2 2.58 1.45 9.1477e-41
6.25 2.58 1.45 9.1477e-41
6.29 2.58 1.45 9.1477e-41
6.34 2.58 1.45 9.1477e-41
6.39 2.58 1.47 9.1477e-41
6.43 2.58 1.47 9.1477e-41
6.49 2.58 1.45 9.1477e-41
6.53 2.58 1.47 9.1477e-41
6.59 2.58 1.45 9.1477e-41
6.64 2.58 1.46 9.1477e-41
6.7 2.58 1.46 9.1477e-41
6.75 2.58 1.45 9.1477e-41
6.8 2.58 1.46 9.1477e-41
6.86 2.58 1.46 9.1477e-41
6.92 2.58 1.45 9.1477e-41
6.98 2.58 1.43 9.1477e-41
7.04 2.58 1.43 9.1477e-41
7.1 2.58 1.42 9.1477e-41
5.65 2.64 0.65 9.1477e-41
5.66 2.64 0.77 9.1477e-41
5.69 2.64 0.85 9.1477e-41
5.71 2.64 0.91 9.1477e-41
5.74 2.64 0.97 9.1477e-41
5.78 2.64 0.97 3.57e-43
5.8 2.64 0.97 3.57e-43
5.83 2.64 0.97 3.57e-43
5.85 2.64 0.97 3.57e-43
5.88 2.64 0.97 3.57e-43
5.9 2.64 0.97 3.57e-43
5.93 2.64 0.97 3.57e-43
5.95 2.64 1.38 9.1477e-41
5.99 2.64 1.41 9.1477e-41
6.02 2.64 1.43 9.1477e-41
6.07 2.64 1.42 9.1477e-41
6.11 2.64 1.44 9.1477e-41
6.15 2.64 1.45 9.1477e-41
6.19 2.64 1.46 9.1477e-41
6.25 2.64 1.45 9.1477e-41
6.29 2.64 1.45 9.1477e-41
6.34 2.64 1.45 9.1477e-41
6.39 2.64 1.47 9.1477e-41
6.44 2.64 1.46 9.1477e-41
6.49 2.64 1.46 9.1477e-41
6.54 2.64 1.45 9.1477e-41
6.59 2.64 1.45 9.1477e-41
6.64 2.64 1.47 9.1477e-41
6.69 2.64 1.46 9.1477e-41
6.75 2.64 1.45 9.1477e-41
6.8 2.64 1.46 9.1477e-41
6.86 2.64 1.45 9.1477e-41
6.92 2.64 1.45 9.1477e-41
6.98 2.64 1.44 9.1477e-41
7.04 2.64 1.43 9.1477e-41
7.1 2.64 1.42 9.1477e-41
5.66 2.7 0.63 9.1477e-41
5.66 2.7 0.77 9.1477e-41
5.69 2.7 0.85 9.1477e-41
5.72 2.7 0.9 9.1477e-41
5.74 2.7 0.96 9.1477e-41
5.78 2.7 0.96 3.57e-43
5.8 2.7 0.96 3.57e-43
5.83 2.7 0.96 3.57e-43
5.85 2.7 0.96 3.57e-43
5.88 2.7 0.96 3.57e-43
5.9 2.7 0.96 3.57e-43
5.93 2.7 0.96 3.57e-43
5.95 2.7 1.38 9.1477e-41
5.99 2.7 1.41 9.1477e-41
6.02 2.7 1.42 9.1477e-41
6.06 2.7 1.43 9.1477e-41
6.11 2.7 1.44 9.1477e-41
6.15 2.7 1.46 9.1477e-41
6.2 2.7 1.45 9.1477e-41
6.24 2.7 1.46 9.1477e-41
6.29 2.7 1.45 9.1477e-41
6.34 2.7 1.45 9.1477e-41
6.38 2.7 1.48 9.1477e-41
6.43 2.7 1.47 9.1477e-41
6.49 2.7 1.46 9.1477e-41
6.54 2.7 1.46 9.1477e-41
6.59 2.7 1.46 9.1477e-41
6.64 2.7 1.46 9.1477e-41
6.7 2.7 1.46 9.1477e-41
6.75 2.7 1.45 9.1477e-41
6.8 2.7 1.46 9.1477e-41
6.86 2.7 1.46 9.1477e-41
6.92 2.7 1.45 9.1477e-41
6.98 2.7 1.44 9.1477e-41
7.04 2.7 1.43 9.1477e-41
7.09 2.7 1.44 9.1477e-41
5.67 2.76 0.4 9.1477e-41
5.66 2.76 0.63 9.1477e-41
5.67 2.76 0.75 9.1477e-41
5.69 2.76 0.84 9.1477e-41
5.71 2.76 0.92 9.1477e-41
5.75 2.76 0.94 9.1477e-41
5.78 2.76 0.94 3.57e-43
5.8 2.76 0.94 3.57e-43
5.83 2.76 0.94 3.57e-43
5.85 2.76 0.94 3.57e-43
5.88 2.76 0.94 3.57e-43
5.9 2.76 0.94 3.57e-43
5.93 2.76 0.94 3.57e-43
5.95 2.76 1.38 9.1477e-41
5.99 2.76 1.41 9.1477e-41
6.02 2.76 1.42 9.1477e-41
6.06 2.76 1.43 9.1477e-41
6.11 2.76 1.44 9.1477e-41
6.15 2.76 1.45 9.1477e-41
6.19 2.76 1.46 9.1477e-41
6.24 2.76 1.46 9.1477e-41
6.28 2.76 1.47 9.1477e-41
6.34 2.76 1.45 9.1477e-41
6.39 2.76 1.47 9.1477e-41
6.44 2.76 1.46 9.1477e-41
6.49 2.76 1.46 9.1477e-41
6.53 2.76 1.47 9.1477e-41
6.59 2.76 1.46 9.1477e-41
6.64 2.76 1.47 9.1477e-41
6.69 2.76 1.46 9.1477e-41
6.75 2.76 1.45 9.1477e-41
6.8 2.76 1.47 9.1477e-41
6.86 2.76 1.45 9.1477e-41
6.92 2.76 1.45 9.1477e-41
6.97 2.76 1.45 9.1477e-41
7.04 2.76 1.43 9.1477e-41
7.09 2.76 1.44 9.1477e-41
5.67 2.82 0.41 9.1477e-41
5.66 2.82 0.61 9.1477e-41
5.66 2.82 0.76 9.1477e-41
5.69 2.82 0.83 9.1477e-41
5.71 2.82 0.91 9.1477e-41
5.75 2.82 0.95 9.1477e-41
5.78 2.82 0.95 3.57e-43
5.8 2.82 0.95 3.57e-43
5.83 2.82 0.95 3.57e-43
5.85 2.82 0.95 3.57e-43
5.88 2.82 0.95 3.57e-43
5.9 2.82 0.95 3.57e-43
5.93 2.82 0.95 3.57e-43
5.95 2.82 1.38 9.1477e-41
5.99 2.82 1.41 9.1477e-41
6.02 2.82 1.42 9.1477e-41
6.06 2.82 1.43 9.1477e-41
6.11 2.82 1.43 9.1477e-41
6.15 2.82 1.46 9.1477e-41
6.2 2.82 1.45 9.1477e-41
6.25 2.82 1.45 9.1477e-41
6.29 2.82 1.45 9.1477e-41
6.34 2.82 1.45 9.1477e-41
6.39 2.82 1.47 9.1477e-41
6.43 2.82 1.47 9.1477e-41
6.49 2.82 1.45 9.1477e-41
6.54 2.82 1.46 9.1477e-41
6.59 2.82 1.45 9.1477e-41
6.64 2.82 1.47 9.1477e-41
6.7 2.82 1.46 9.1477e-41
6.75 2.82 1.45 9.1477e-41
6.81 2.82 1.45 9.1477e-41
6.86 2.82 1.45 9.1477e-41
6.92 2.82 1.45 9.1477e-41
6.98 2.82 1.43 9.1477e-41
7.04 2.82 1.43 9.1477e-41
7.1 2.82 1.43 9.1477e-41
5.67 2.88 0.43 9.1477e-41
5.66 2.88 0.62 9.1477e-41
5.67 2.88 0.75 9.1477e-41
5.69 2.88 0.84 9.1477e-41
5.71 2.88 0.92 9.1477e-41
5.75 2.88 0.94 9.1477e-41
5.78 2.88 0.94 3.57e-43
5.8 2.88 0.94 3.57e-43
5.83 2.88 0.94 3.57e-43
5.85 2.88 0.94 3.57e-43
5.88 2.88 0.94 3.57e-43
5.9 2.88 0.94 3.57e-43
5.93 2.88 0.94 3.57e-43
5.95 2.88 1.38 9.1477e-41
5.99 2.88 1.41 9.1477e-41
6.02 2.88 1.42 9.1477e-41
6.06 2.88 1.43 9.1477e-41
6.11 2.88 1.44 9.1477e-41
6.16 2.88 1.44 9.1477e-41
6.2 2.88 1.45 9.1477e-41
6.25 2.88 1.45 9.1477e-41
6.29 2.88 1.46 9.1477e-41
6.34 2.88 1.45 9.1477e-41
6.39 2.88 1.47 9.1477e-41
6.44 2.88 1.46 9.1477e-41
6.49 2.88 1.45 9.1477e-41
6.54 2.88 1.46 9.1477e-41
6.59 2.88 1.45 9.1477e-41
6.64 2.88 1.46 9.1477e-41
6.7 2.88 1.46 9.1477e-41
6.74 2.88 1.46 9.1477e-41
6.8 2.88 1.45 9.1477e-41
6.86 2.88 1.45 9.1477e-41
6.92 2.88 1.45 9.1477e-41
6.98 2.88 1.44 9.1477e-41
7.04 2.88 1.43 9.1477e-41
7.1 2.88 1.43 9.1477e-41
5.66 2.94 0.46 9.1477e-41
5.67 2.94 0.59 9.1477e-41
5.67 2.94 0.75 9.1477e-41
5.68 2.94 0.86 9.1477e-41
5.72 2.94 0.89 9.1477e-41
5.75 2.94 0.94 9.1477e-41
5.78 2.94 0.94 3.57e-43
5.8 2.94 0.94 3.57e-43
5.83 2.94 0.94 3.57e-43
5.85 2.94 0.94 3.57e-43
5.88 2.94 0.94 3.57e-43
5.9 2.94 0.94 3.57e-43
5.93 2.94 0.94 3.57e-43
5.95 2.94 1.38 9.1477e-41
5.99 2.94 1.41 9.1477e-41
6.02 2.94 1.42 9.1477e-41
6.06 2.94 1.43 9.1477e-41
6.1 2.94 1.45 9.1477e-41
6.16 2.94 1.44 9.1477e-41
6.2 2.94 1.45 9.1477e-41
6.25 2.94 1.45 9.1477e-41
6.29 2.94 1.46 9.1477e-41
6.34 2.94 1.45 9.1477e-41
6.39 2.94 1.47 9.1477e-41
6.44 2.94 1.46 9.1477e-41
6.49 2.94 1.46 9.1477e-41
6.54 2.94 1.46 9.1477e-41
6.59 2.94 1.46 9.1477e-41
6.65 2.94 1.45 9.1477e-41
6.7 2.94 1.46 9.1477e-41
6.75 2.94 1.45 9.1477e-41
6.8 2.94 1.46 9.1477e-41
6.86 2.94 1.46 9.1477e-41
6.92 2.94 1.45 9.1477e-41
6.97 2.94 1.45 9.1477e-41
7.04 2.94 1.43 9.1477e-41
7.1 2.94 1.43 9.1477e-41
5.66 3 0.61 9.1477e-41
5.67 3 0.75 9.1477e-41
5.68 3 0.86 9.1477e-41
5.72 3 0.89 9.1477e-41
5.75 3 0.94 9.1477e-41
5.77 3 1 9.1477e-41
5.82 3 1 3.57e-43
5.83 3 1 3.57e-43
5.85 3 1 3.57e-43
5.88 3 1 3.57e-43
5.9 3 1 3.57e-43
5.93 3 1 3.57e-43
5.95 3 1.38 9.1477e-41
5.99 3 1.41 9.1477e-41
6.02 3 1.42 9.1477e-41
6.06 3 1.43 9.1477e-41
6.11 3 1.43 9.1477e-41
6.15 3 1.45 9.1477e-41
6.19 3 1.46 9.1477e-41
6.25 3 1.45 9.1477e-41
6.3 3 1.44 9.1477e-41
6.34 3 1.45 9.1477e-41
6.39 3 1.47 9.1477e-41
6.44 3 1.46 9.1477e-41
6.49 3 1.45 9.1477e-41
6.54 3 1.46 9.1477e-41
6.6 3 1.44 9.1477e-41
6.64 3 1.47 9.1477e-41
6.7 3 1.46 9.1477e-41
6.75 3 1.45 9.1477e-41
6.8 3 1.47 9.1477e-41
6.86 3 1.46 9.1477e-41
6.92 3 1.45 9.1477e-41
6.98 3 1.43 9.1477e-41
7.04 3 1.43 9.1477e-41
5.67 3.06 0.41 9.1477e-41
5.66 3.06 0.62 9.1477e-41
5.67 3.06 0.74 9.1477e-41
5.68 3.06 0.87 9.1477e-41
5.72 3.06 0.88 9.1477e-41
5.75 3.06 0.95 9.1477e-41
5.78 3.06 0.99 9.1477e-41
5.82 3.06 0.99 3.57e-43
5.83 3.06 0.99 3.57e-43
5.85 3.06 0.99 3.57e-43
5.88 3.06 0.99 3.57e-43
5.9 3.06 0.99 3.57e-43
5.93 3.06 0.99 3.57e-43
5.95 3.06 1.38 9.1477e-41
5.99 3.06 1.4 9.1477e-41
6.02 3.06 1.42 9.1477e-41
6.07 3.06 1.42 9.1477e-41
6.11 3.06 1.43 9.1477e-41
6.15 3.06 1.46 9.1477e-41
6.2 3.06 1.45 9.1477e-41
6.24 3.06 1.46 9.1477e-41
6.29 3.06 1.45 9.1477e-41
6.34 3.06 1.45 9.1477e-41
6.39 3.06 1.46 9.1477e-41
6.44 3.06 1.46 9.1477e-41
6.49 3.06 1.45 9.1477e-41
6.54 3.06 1.45 9.1477e-41
6.59 3.06 1.45 9.1477e-41
6.64 3.06 1.46 9.1477e-41
6.7 3.06 1.46 9.1477e-41
6.75 3.06 1.45 9.1477e-41
6.8 3.06 1.46 9.1477e-41
6.86 3.06 1.45 9.1477e-41
6.92 3.06 1.44 9.1477e-41
6.98 3.06 1.44 9.1477e-41
7.04 3.06 1.43 9.1477e-41
7.12 3.06 1.39 9.1477e-41
5.67 3.12 0.6 9.1477e-41
5.67 3.12 0.73 9.1477e-41
5.69 3.12 0.82 9.1477e-41
5.72 3.12 0.89 9.1477e-41
5.75 3.12 0.94 9.1477e-41
5.77 3.12 1 9.1477e-41
5.82 3.12 1 3.57e-43
5.83 3.12 1 3.57e-43
5.85 3.12 1 3.57e-43
5.88 3.12 1 3.57e-43
5.9 3.12 1 3.57e-43
5.93 3.12 1 3.57e-43
5.95 3.12 1.38 9.1477e-41
5.99 3.12 1.39 9.1477e-41
6.02 3.12 1.42 9.1477e-41
6.06 3.12 1.43 9.1477e-41
6.11 3.12 1.43 9.1477e-41
6.16 3.12 1.44 9.1477e-41
6.2 3.12 1.45 9.1477e-41
6.25 3.12 1.45 9.1477e-41
6.3 3.12 1.44 9.1477e-41
6.34 3.12 1.45 9.1477e-41
6.39 3.12 1.46 9.1477e-41
6.44 3.12 1.46 9.1477e-41
6.49 3.12 1.45 9.1477e-41
6.54 3.12 1.46 9.1477e-41
6.59 3.12 1.46 9.1477e-41
6.65 3.12 1.45 9.1477e-41
6.7 3.12 1.46 9.1477e-41
6.75 3.12 1.45 9.1477e-41
6.8 3.12 1.46 9.1477e-41
6.86 3.12 1.45 9.1477e-41
6.92 3.12 1.45 9.1477e-41
6.98 3.12 1.43 9.1477e-41
7.05 3.12 1.42 9.1477e-41
5.67 3.18 0.59 9.1477e-41
5.67 3.18 0.74 9.1477e-41
5.7 3.18 0.81 9.1477e-41
5.72 3.18 0.89 9.1477e-41
5.75 3.18 0.93 9.1477e-41
5.78 3.18 0.99 9.1477e-41
5.82 3.18 0.99 3.57e-43
5.83 3.18 0.99 3.57e-43
5.85 3.18 0.99 3.57e-43
5.88 3.18 0.99 3.57e-43
5.9 3.18 0.99 3.57e-43
5.93 3.18 1.32 9.1477e-41
5.96 3.18 1.35 9.1477e-41
5.99 3.18 1.39 9.1477e-41
6.03 3.18 1.42 9.1477e-41
6.06 3.18 1.43 9.1477e-41
6.12 3.18 1.42 9.1477e-41
6.16 3.18 1.44 9.1477e-41
6.2 3.18 1.45 9.1477e-41
6.25 3.18 1.44 9.1477e-41
6.3 3.18 1.44 9.1477e-41
6.34 3.18 1.45 9.1477e-41
6.39 3.18 1.46 9.1477e-41
6.44 3.18 1.45 9.1477e-41
6.49 3.18 1.45 9.1477e-41
6.54 3.18 1.45 9.1477e-41
6.59 3.18 1.45 9.1477e-41
6.64 3.18 1.46 9.1477e-41
6.7 3.18 1.46 9.1477e-41
6.75 3.18 1.45 9.1477e-41
6.81 3.18 1.45 9.1477e-41
6.86 3.18 1.45 9.1477e-41
6.93 3.18 1.43 9.1477e-41
6.98 3.18 1.43 9.1477e-41
7.05 3.18 1.42 9.1477e-41
5.68 3.24 0.56 9.1477e-41
5.67 3.24 0.73 9.1477e-41
5.7 3.24 0.8 9.1477e-41
5.72 3.24 0.89 9.1477e-41
5.75 3.24 0.93 9.1477e-41
5.78 3.24 0.99 9.1477e-41
5.82 3.24 0.99 3.57e-43
5.83 3.24 0.99 3.57e-43
5.85 3.24 0.99 3.57e-43
5.88 3.24 0.99 3.57e-43
5.9 3.24 1.29 9.1477e-41
5.94 3.24 1.29 9.1477e-41
5.97 3.24 1.34 9.1477e-41
5.99 3.24 1.39 9.1477e-41
6.03 3.24 1.42 9.1477e-41
6.07 3.24 1.42 9.1477e-41
6.12 3.24 1.42 9.1477e-41
6.16 3.24 1.43 9.1477e-41
6.2 3.24 1.44 9.1477e-41
6.25 3.24 1.45 9.1477e-41
6.3 3.24 1.44 9.1477e-41
6.34 3.24 1.45 9.1477e-41
6.4 3.24 1.45 9.1477e-41
6.44 3.24 1.45 9.1477e-41
6.49 3.24 1.45 9.1477e-41
6.54 3.24 1.45 9.1477e-41
6.6 3.24 1.44 9.1477e-41
6.64 3.24 1.46 9.1477e-41
6.7 3.24 1.45 9.1477e-41
6.75 3.24 1.45 9.1477e-41
6.81 3.24 1.45 9.1477e-41
6.86 3.24 1.45 9.1477e-41
6.92 3.24 1.44 9.1477e-41
6.98 3.24 1.43 9.1477e-41
7.05 3.24 1.42 9.1477e-41
5.69 3.3 0.54 9.1477e-41
5.67 3.3 0.73 9.1477e-41
5.7 3.3 0.8 9.1477e-41
5.72 3.3 0.88 9.1477e-41
5.75 3.3 0.93 9.1477e-41
5.79 3.3 0.97 9.1477e-41
5.81 3.3 1.03 9.1477e-41
5.84 3.3 1.08 9.1477e-41
5.86 3.3 1.14 9.1477e-41
5.89 3.3 1.19 9.1477e-41
5.92 3.3 1.23 9.1477e-41
5.94 3.3 1.29 9.1477e-41
5.97 3.3 1.33 9.1477e-41
6 3.3 1.38 9.1477e-41
6.03 3.3 1.41 9.1477e-41
6.07 3.3 1.42 9.1477e-41
6.12 3.3 1.42 9.1477e-41
6.16 3.3 1.43 9.1477e-41
6.2 3.3 1.44 9.1477e-41
6.25 3.3 1.43 9.1477e-41
6.3 3.3 1.44 9.1477e-41
6.35 3.3 1.44 9.1477e-41
6.4 3.3 1.45 9.1477e-41
6.44 3.3 1.45 9.1477e-41
6.49 3.3 1.45 9.1477e-41
6.55 3.3 1.44 9.1477e-41
6.6 3.3 1.44 9.1477e-41
6.65 3.3 1.44 9.1477e-41
6.7 3.3 1.45 9.1477e-41
6.75 3.3 1.45 9.1477e-41
6.81 3.3 1.44 9.1477e-41
6.87 3.3 1.43 9.1477e-41
6.93 3.3 1.43 9.1477e-41
6.99 3.3 1.43 9.1477e-41
7.05 3.3 1.41 9.1477e-41
5.68 3.36 0.55 9.1477e-41
5.67 3.36 0.74 9.1477e-41
5.7 3.36 0.8 9.1477e-41
5.72 3.36 0.88 9.1477e-41
5.75 3.36 0.94 9.1477e-41
5.79 3.36 0.96 9.1477e-41
5.82 3.36 1.02 9.1477e-41
5.84 3.36 1.08 9.1477e-41
5.87 3.36 1.13 9.1477e-41
5.89 3.36 1.19 9.1477e-41
5.92 3.36 1.23 9.1477e-41
5.95 3.36 1.28 9.1477e-41
5.98 3.36 1.32 9.1477e-41
6 3.36 1.37 9.1477e-41
6.03 3.36 1.41 9.1477e-41
6.07 3.36 1.41 9.1477e-41
6.12 3.36 1.4 9.1477e-41
6.16 3.36 1.43 9.1477e-41
6.21 3.36 1.43 9.1477e-41
6.25 3.36 1.44 9.1477e-41
6.3 3.36 1.43 9.1477e-41
6.35 3.36 1.44 9.1477e-41
6.4 3.36 1.45 9.1477e-41
6.45 3.36 1.44 9.1477e-41
6.49 3.36 1.45 9.1477e-41
6.55 3.36 1.44 9.1477e-41
6.6 3.36 1.44 9.1477e-41
6.65 3.36 1.43 9.1477e-41
6.71 3.36 1.44 9.1477e-41
6.76 3.36 1.44 9.1477e-41
6.81 3.36 1.44 9.1477e-41
6.87 3.36 1.44 9.1477e-41
6.93 3.36 1.43 9.1477e-41
6.99 3.36 1.42 9.1477e-41
7.06 3.36 1.4 9.1477e-41
5.68 3.42 0.56 9.1477e-41
5.67 3.42 0.73 9.1477e-41
5.7 3.42 0.79 9.1477e-41
5.73 3.42 0.86 9.1477e-41
5.75 3.42 0.94 9.1477e-41
5.79 3.42 0.97 9.1477e-41
5.82 3.42 1.01 9.1477e-41
5.85 3.42 1.05 9.1477e-41
5.87 3.42 1.12 9.1477e-41
5.9 3.42 1.17 9.1477e-41
5.92 3.42 1.22 9.1477e-41
5.95 3.42 1.27 9.1477e-41
5.98 3.42 1.32 9.1477e-41
6.01 3.42 1.36 9.1477e-41
6.04 3.42 1.39 9.1477e-41
6.07 3.42 1.41 9.1477e-41
6.12 3.42 1.41 9.1477e-41
6.17 3.42 1.42 9.1477e-41
6.21 3.42 1.43 9.1477e-41
6.26 3.42 1.42 9.1477e-41
6.31 3.42 1.43 9.1477e-41
6.35 3.42 1.43 9.1477e-41
6.4 3.42 1.43 9.1477e-41
6.45 3.42 1.44 9.1477e-41
6.5 3.42 1.44 9.1477e-41
6.55 3.42 1.43 9.1477e-41
6.6 3.42 1.44 9.1477e-41
6.66 3.42 1.43 9.1477e-41
6.71 3.42 1.44 9.1477e-41
6.76 3.42 1.43 9.1477e-41
6.81 3.42 1.44 9.1477e-41
6.88 3.42 1.43 9.1477e-41
6.93 3.42 1.43 9.1477e-41
6.99 3.42 1.42 9.1477e-41
7.05 3.42 1.41 9.1477e-41
5.67 3.48 0.59 9.1477e-41
5.68 3.48 0.71 9.1477e-41
5.7 3.48 0.78 9.1477e-41
5.73 3.48 0.85 9.1477e-41
5.75 3.48 0.93 9.1477e-41
5.79 3.48 0.97 9.1477e-41
5.82 3.48 1.01 9.1477e-41
5.85 3.48 1.06 9.1477e-41
5.87 3.48 1.11 9.1477e-41
5.9 3.48 1.17 9.1477e-41
5.93 3.48 1.21 9.1477e-41
5.95 3.48 1.26 9.1477e-41
5.98 3.48 1.32 9.1477e-41
6.01 3.48 1.36 9.1477e-41
6.04 3.48 1.4 9.1477e-41
6.08 3.48 1.41 9.1477e-41
6.12 3.48 1.4 9.1477e-41
6.17 3.48 1.41 9.1477e-41
6.22 3.48 1.41 9.1477e-41
6.26 3.48 1.42 9.1477e-41
6.31 3.48 1.42 9.1477e-41
6.36 3.48 1.42 9.1477e-41
6.4 3.48 1.42 9.1477e-41
6.46 3.48 1.42 9.1477e-41
6.5 3.48 1.43 9.1477e-41
6.56 3.48 1.41 9.1477e-41
6.61 3.48 1.42 9.1477e-41
6.66 3.48 1.42 9.1477e-41
6.71 3.48 1.43 9.1477e-41
6.76 3.48 1.43 9.1477e-41
6.82 3.48 1.44 9.1477e-41
6.88 3.48 1.43 9.1477e-41
6.94 3.48 1.43 3.57e-43
6.99 3.48 1.42 9.1477e-41
7.06 3.48 1.39 9.1477e-41
5.67 3.54 0.42 9.1477e-41
5.67 3.54 0.59 9.1477e-41
5.69 3.54 0.69 9.1477e-41
5.71 3.54 0.76 9.1477e-41
5.74 3.54 0.84 9.1477e-41
5.76 3.54 0.92 9.1477e-41
5.79 3.54 0.97 9.1477e-41
5.83 3.54 0.99 9.1477e-41
5.85 3.54 1.05 9.1477e-41
5.88 3.54 1.11 9.1477e-41
5.91 3.54 1.16 9.1477e-41
5.93 3.54 1.21 9.1477e-41
5.95 3.54 1.26 9.1477e-41
5.98 3.54 1.31 9.1477e-41
6.01 3.54 1.34 9.1477e-41
6.04 3.54 1.38 9.1477e-41
6.09 3.54 1.39 9.1477e-41
6.13 3.54 1.4 9.1477e-41
6.17 3.54 1.4 9.1477e-41
6.22 3.54 1.41 9.1477e-41
6.27 3.54 1.41 9.1477e-41
6.32 3.54 1.41 9.1477e-41
6.36 3.54 1.41 9.1477e-41
6.41 3.54 1.41 9.1477e-41
6.46 3.54 1.42 9.1477e-41
6.5 3.54 1.43 9.1477e-41
6.56 3.54 1.42 9.1477e-41
6.61 3.54 1.42 9.1477e-41
6.66 3.54 1.42 9.1477e-41
6.72 3.54 1.42 9.1477e-41
6.78 3.54 1.41 9.1477e-41
6.82 3.54 1.43 9.1477e-41
6.89 3.54 1.41 9.1477e-41
