# .PCD v.7 - Point Cloud Data file format
VERSION .7
FIELDS x y z rgb
SIZE 4 4 4 4
TYPE F F F F
WIDTH 542
HEIGHT 1
POINTS 542
DATA ascii
5.35 0 0.48 9.1477e-41
5.39 0 0.52 9.1477e-41
5.44 0 0.53 9.1477e-41
5.48 0 0.56 9.1477e-41
5.51 0 0.63 9.1477e-41
5.55 0 0.66 9.1477e-41
5.59 0 0.67 9.1477e-41
5.64 0 0.67 9.1477e-41
5.69 0 0.68 9.1477e-41
5.74 0 0.69 9.1477e-41
5.79 0 0.68 9.1477e-41
5.83 0 0.7 9.1477e-41
5.89 0 0.68 9.1477e-41
5.93 0 0.71 9.1477e-41
5.99 0 0.7 9.1477e-41
6.04 0 0.69 9.1477e-41
6.09 0 0.68 9.1477e-41
6.15 0 0.68 9.1477e-41
6.2 0 0.68 9.1477e-41
6.26 0 0.66 9.1477e-41
6.37 0 0.53 9.1477e-41
6.45 0 0.49 9.1477e-41
5.14 0.26 0.57 9.1477e-41
5.18 0.26 0.57 3.57e-43
5.25 0.26 0.73 9.1477e-41
5.29 0.26 0.76 9.1477e-41
5.33 0.26 0.79 9.1477e-41
5.37 0.26 0.8 9.1477e-41
5.42 0.26 0.79 9.1477e-41
5.46 0.26 0.79 9.1477e-41
5.51 0.26 0.78 9.1477e-41
5.55 0.26 0.81 9.1477e-41
5.6 0.26 0.81 9.1477e-41
5.65 0.26 0.81 9.1477e-41
5.7 0.26 0.82 9.1477e-41
5.74 0.26 0.82 9.1477e-41
5.79 0.26 0.82 9.1477e-41
5.84 0.26 0.82 9.1477e-41
5.89 0.26 0.82 9.1477e-41
5.94 0.26 0.83 9.1477e-41
5.99 0.26 0.83 9.1477e-41
6.04 0.26 0.82 9.1477e-41
6.09 0.26 0.81 9.1477e-41
6.15 0.26 0.81 9.1477e-41
6.2 0.26 0.81 9.1477e-41
6.26 0.26 0.79 9.1477e-41
6.31 0.26 0.79 9.1477e-41
6.36 0.26 0.79 9.1477e-41
6.43 0.26 0.77 9.1477e-41
6.48 0.26 0.77 9.1477e-41
6.54 0.26 0.76 9.1477e-41
5.07 0.52 0.47 9.1477e-41
5.08 0.52 0.67 9.1477e-41
5.11 0.52 0.72 9.1477e-41
5.15 0.52 0.75 9.1477e-41
5.18 0.52 0.8 9.1477e-41
5.22 0.52 0.84 9.1477e-41
5.26 0.52 0.85 9.1477e-41
5.31 0.52 0.84 9.1477e-41
5.35 0.52 0.86 9.1477e-41
5.4 0.52 0.85 9.1477e-41
5.44 0.52 0.86 9.1477e-41
5.49 0.52 0.86 9.1477e-41
5.53 0.52 0.87 9.1477e-41
5.58 0.52 0.89 9.1477e-41
5.63 0.52 0.88 9.1477e-41
5.67 0.52 0.88 9.1477e-41
5.72 0.52 0.89 9.1477e-41
5.77 0.52 0.89 9.1477e-41
5.82 0.52 0.88 9.1477e-41
5.86 0.52 0.89 9.1477e-41
5.91 0.52 0.89 9.1477e-41
5.97 0.52 0.88 9.1477e-41
6.02 0.52 0.88 9.1477e-41
6.06 0.52 0.89 9.1477e-41
6.12 0.52 0.88 9.1477e-41
6.17 0.52 0.89 9.1477e-41
6.22 0.52 0.88 9.1477e-41
6.28 0.52 0.87 9.1477e-41
6.33 0.52 0.85 9.1477e-41
6.38 0.52 0.87 9.1477e-41
6.45 0.52 0.85 9.1477e-41
6.5 0.52 0.84 9.1477e-41
6.56 0.52 0.83 9.1477e-41
6.61 0.52 0.84 9.1477e-41
6.69 0.52 0.79 9.1477e-41
5.07 0.78 0.46 9.1477e-41
5.07 0.78 0.71 9.1477e-41
5.1 0.78 0.76 9.1477e-41
5.14 0.78 0.79 9.1477e-41
5.17 0.78 0.85 9.1477e-41
5.21 0.78 0.91 9.1477e-41
5.25 0.78 0.91 9.1477e-41
5.29 0.78 0.91 9.1477e-41
5.34 0.78 0.9 9.1477e-41
5.38 0.78 0.91 9.1477e-41
5.43 0.78 0.91 9.1477e-41
5.47 0.78 0.94 9.1477e-41
5.52 0.78 0.93 9.1477e-41
5.56 0.78 0.93 9.1477e-41
5.61 0.78 0.93 9.1477e-41
5.66 0.78 0.93 9.1477e-41
5.7 0.78 0.94 9.1477e-41
5.75 0.78 0.93 9.1477e-41
5.8 0.78 0.94 9.1477e-41
5.85 0.78 0.93 9.1477e-41
5.9 0.78 0.93 9.1477e-41
5.94 0.78 0.94 9.1477e-41
5.99 0.78 0.94 9.1477e-41
6.04 0.78 0.93 9.1477e-41
6.1 0.78 0.92 9.1477e-41
6.15 0.78 0.93 9.1477e-41
6.2 0.78 0.92 9.1477e-41
6.25 0.78 0.93 9.1477e-41
6.31 0.78 0.91 9.1477e-41
6.36 0.78 0.91 9.1477e-41
6.41 0.78 0.91 9.1477e-41
6.47 0.78 0.91 9.1477e-41
6.52 0.78 0.91 9.1477e-41
6.59 0.78 0.88 9.1477e-41
6.64 0.78 0.9 9.1477e-41
5.06 1.04 0.48 9.1477e-41
5.07 1.04 0.68 9.1477e-41
5.1 1.04 0.78 9.1477e-41
5.13 1.04 0.82 9.1477e-41
5.16 1.04 0.9 9.1477e-41
5.2 1.04 0.95 9.1477e-41
5.23 1.04 0.95 3.57e-43
5.29 1.04 0.95 3.57e-43
5.34 1.04 0.95 3.57e-43
5.38 1.04 0.95 3.57e-43
5.43 1.04 0.95 3.57e-43
5.47 1.04 0.95 3.57e-43
5.52 1.04 0.95 3.57e-43
5.56 1.04 0.95 3.57e-43
5.61 1.04 0.95 3.57e-43
5.66 1.04 0.95 3.57e-43
5.7 1.04 0.95 3.57e-43
5.75 1.04 0.95 3.57e-43
5.8 1.04 0.95 3.57e-43
5.85 1.04 0.95 3.57e-43
5.9 1.04 0.95 3.57e-43
5.94 1.04 0.95 3.57e-43
5.99 1.04 0.95 3.57e-43
6.04 1.04 0.95 3.57e-43
6.1 1.04 0.95 3.57e-43
6.15 1.04 0.95 3.57e-43
6.2 1.04 0.95 3.57e-43
6.25 1.04 0.95 3.57e-43
6.31 1.04 0.95 3.57e-43
6.36 1.04 0.95 3.57e-43
6.41 1.04 0.95 3.57e-43
6.47 1.04 0.95 3.57e-43
6.52 1.04 0.95 3.57e-43
6.59 1.04 0.95 3.57e-43
6.64 1.04 0.9 9.1477e-41
6.66 1.04 0.96 9.1477e-41
5.06 1.3 0.48 9.1477e-41
5.01 1.3 1 9.1477e-41
5.05 1.3 1.01 9.1477e-41
5.09 1.3 1.02 9.1477e-41
5.14 1.3 1.02 3.57e-43
5.2 1.3 1.02 3.57e-43
5.23 1.3 0.98 9.1477e-41
5.24 1.3 1.12 9.1477e-41
5.28 1.3 1.12 3.57e-43
5.38 1.3 1.12 3.57e-43
5.43 1.3 1.12 3.57e-43
5.47 1.3 1.12 3.57e-43
5.52 1.3 1.12 3.57e-43
5.56 1.3 1.12 3.57e-43
5.61 1.3 1.12 3.57e-43
5.66 1.3 1.12 3.57e-43
5.7 1.3 1.12 3.57e-43
5.75 1.3 1.12 3.57e-43
5.8 1.3 1.12 3.57e-43
5.85 1.3 1.12 3.57e-43
5.9 1.3 1.12 3.57e-43
5.94 1.3 1.12 3.57e-43
5.99 1.3 1.12 3.57e-43
6.04 1.3 1.12 3.57e-43
6.1 1.3 1.12 3.57e-43
6.15 1.3 1.12 3.57e-43
6.2 1.3 1.12 3.57e-43
6.25 1.3 1.12 3.57e-43
6.31 1.3 1.12 3.57e-43
6.36 1.3 1.12 3.57e-43
6.41 1.3 1.12 3.57e-43
6.47 1.3 1.12 3.57e-43
6.52 1.3 1.12 3.57e-43
6.59 1.3 1.12 3.57e-43
6.64 1.3 0.9 9.1477e-41
6.6 1.3 1.06 9.1477e-41
6.63 1.3 1.1 9.1477e-41
5.06 1.56 0.48 9.1477e-41
5.06 1.56 0.73 9.1477e-41
5.09 1.56 0.83 9.1477e-41
5.12 1.56 0.88 9.1477e-41
5.16 1.56 0.88 3.57e-43
5.2 1.56 0.88 3.57e-43
5.23 1.56 0.88 3.57e-43
5.24 1.56 0.88 3.57e-43
5.28 1.56 1.14 9.1477e-41
5.29 1.56 1.25 9.1477e-41
5.33 1.56 1.27 9.1477e-41
5.37 1.56 1.27 3.57e-43
5.52 1.56 1.27 3.57e-43
5.56 1.56 1.27 3.57e-43
5.61 1.56 1.27 3.57e-43
5.66 1.56 1.27 3.57e-43
5.7 1.56 1.27 3.57e-43
5.75 1.56 0.93 9.1477e-41
5.93 1.56 0.93 3.57e-43
5.85 1.56 0.93 3.57e-43
5.9 1.56 0.93 9.1477e-41
6.07 1.56 0.93 3.57e-43
5.99 1.56 0.93 3.57e-43
6.04 1.56 0.93 3.57e-43
6.1 1.56 0.93 3.57e-43
6.15 1.56 0.93 3.57e-43
6.2 1.56 0.93 3.57e-43
6.25 1.56 0.93 3.57e-43
6.31 1.56 0.93 3.57e-43
6.36 1.56 0.93 3.57e-43
6.41 1.56 0.93 3.57e-43
6.47 1.56 0.93 3.57e-43
6.52 1.56 0.93 3.57e-43
6.59 1.56 0.93 3.57e-43
6.64 1.56 0.93 3.57e-43
6.6 1.56 1.06 9.1477e-41
6.56 1.56 1.23 9.1477e-41
6.63 1.56 1.22 9.1477e-41
5.07 1.82 0.47 9.1477e-41
5.06 1.82 0.74 9.1477e-41
5.09 1.82 0.83 9.1477e-41
5.12 1.82 0.88 9.1477e-41
5.16 1.82 0.88 3.57e-43
5.2 1.82 0.88 3.57e-43
5.23 1.82 0.88 3.57e-43
5.24 1.82 0.88 3.57e-43
5.28 1.82 0.88 3.57e-43
5.29 1.82 0.88 3.57e-43
5.33 1.82 1.27 9.1477e-41
5.35 1.82 1.35 9.1477e-41
5.39 1.82 1.36 9.1477e-41
5.43 1.82 1.37 9.1477e-41
5.47 1.82 1.39 9.1477e-41
5.51 1.82 1.39 9.1477e-41
5.55 1.82 1.39 9.1477e-41
5.59 1.82 1.4 9.1477e-41
5.63 1.82 1.4 9.1477e-41
5.68 1.82 1.39 9.1477e-41
5.72 1.82 1.4 9.1477e-41
5.76 1.82 1.4 9.1477e-41
5.81 1.82 1.4 9.1477e-41
5.85 1.82 1.4 9.1477e-41
5.9 1.82 1.39 9.1477e-41
5.94 1.82 1.41 9.1477e-41
5.99 1.82 1.41 9.1477e-41
6.03 1.82 1.41 9.1477e-41
6.08 1.82 1.41 9.1477e-41
6.13 1.82 1.39 9.1477e-41
6.17 1.82 1.41 9.1477e-41
6.23 1.82 1.39 9.1477e-41
6.28 1.82 1.39 9.1477e-41
6.32 1.82 1.39 9.1477e-41
6.38 1.82 1.39 9.1477e-41
6.43 1.82 1.38 9.1477e-41
6.49 1.82 1.37 9.1477e-41
6.55 1.82 1.35 9.1477e-41
5.07 2.08 0.45 9.1477e-41
5.05 2.08 0.81 9.1477e-41
5.09 2.08 0.82 9.1477e-41
5.12 2.08 0.89 9.1477e-41
5.15 2.08 0.95 9.1477e-41
5.19 2.08 0.95 3.57e-43
5.23 2.08 0.95 3.57e-43
5.24 2.08 0.95 3.57e-43
5.28 2.08 0.95 3.57e-43
5.29 2.08 0.95 3.57e-43
5.33 2.08 0.95 3.57e-43
5.35 2.08 1.35 9.1477e-41
5.38 2.08 1.39 9.1477e-41
5.41 2.08 1.41 9.1477e-41
5.46 2.08 1.41 9.1477e-41
5.49 2.08 1.43 9.1477e-41
5.54 2.08 1.42 9.1477e-41
5.58 2.08 1.42 9.1477e-41
5.62 2.08 1.43 9.1477e-41
5.66 2.08 1.43 9.1477e-41
5.7 2.08 1.45 9.1477e-41
5.75 2.08 1.44 9.1477e-41
5.79 2.08 1.45 9.1477e-41
5.84 2.08 1.43 9.1477e-41
5.88 2.08 1.44 9.1477e-41
5.93 2.08 1.44 9.1477e-41
5.97 2.08 1.44 9.1477e-41
6.02 2.08 1.43 9.1477e-41
6.06 2.08 1.43 9.1477e-41
6.11 2.08 1.43 9.1477e-41
6.16 2.08 1.43 9.1477e-41
6.2 2.08 1.44 9.1477e-41
6.25 2.08 1.43 9.1477e-41
6.31 2.08 1.43 9.1477e-41
6.36 2.08 1.42 9.1477e-41
6.41 2.08 1.41 9.1477e-41
6.47 2.08 1.41 9.1477e-41
6.52 2.08 1.39 9.1477e-41
5.06 2.34 0.73 9.1477e-41
5.09 2.34 0.83 9.1477e-41
5.12 2.34 0.9 9.1477e-41
5.15 2.34 0.95 9.1477e-41
5.19 2.34 0.95 3.57e-43
5.23 2.34 0.95 3.57e-43
5.24 2.34 0.95 3.57e-43
5.28 2.34 0.95 3.57e-43
5.29 2.34 0.95 3.57e-43
5.33 2.34 0.95 3.57e-43
5.35 2.34 1.35 9.1477e-41
5.38 2.34 1.39 9.1477e-41
5.41 2.34 1.41 9.1477e-41
5.45 2.34 1.44 9.1477e-41
5.49 2.34 1.45 9.1477e-41
5.53 2.34 1.45 9.1477e-41
5.57 2.34 1.45 9.1477e-41
5.61 2.34 1.46 9.1477e-41
5.65 2.34 1.45 9.1477e-41
5.7 2.34 1.46 9.1477e-41
5.74 2.34 1.46 9.1477e-41
5.78 2.34 1.46 9.1477e-41
5.83 2.34 1.46 9.1477e-41
5.87 2.34 1.46 9.1477e-41
5.92 2.34 1.47 9.1477e-41
5.97 2.34 1.45 9.1477e-41
6.01 2.34 1.45 9.1477e-41
6.05 2.34 1.46 9.1477e-41
6.1 2.34 1.46 9.1477e-41
6.15 2.34 1.46 9.1477e-41
6.2 2.34 1.45 9.1477e-41
6.25 2.34 1.44 9.1477e-41
6.29 2.34 1.45 9.1477e-41
6.34 2.34 1.45 9.1477e-41
6.4 2.34 1.44 9.1477e-41
6.45 2.34 1.43 9.1477e-41
6.51 2.34 1.42 9.1477e-41
5.07 2.6 0.7 9.1477e-41
5.09 2.6 0.83 9.1477e-41
5.12 2.6 0.9 9.1477e-41
5.15 2.6 0.94 9.1477e-41
5.19 2.6 0.94 3.57e-43
5.23 2.6 0.94 3.57e-43
5.24 2.6 0.94 3.57e-43
5.28 2.6 0.94 3.57e-43
5.29 2.6 0.94 3.57e-43
5.33 2.6 0.94 3.57e-43
5.35 2.6 1.35 9.1477e-41
5.38 2.6 1.38 9.1477e-41
5.41 2.6 1.42 9.1477e-41
5.45 2.6 1.45 9.1477e-41
5.49 2.6 1.45 9.1477e-41
5.53 2.6 1.45 9.1477e-41
5.57 2.6 1.44 9.1477e-41
5.61 2.6 1.46 9.1477e-41
5.65 2.6 1.45 9.1477e-41
5.7 2.6 1.46 9.1477e-41
5.74 2.6 1.47 9.1477e-41
5.78 2.6 1.46 9.1477e-41
5.82 2.6 1.47 9.1477e-41
5.87 2.6 1.46 9.1477e-41
5.92 2.6 1.47 9.1477e-41
5.96 2.6 1.46 9.1477e-41
6.01 2.6 1.46 9.1477e-41
6.05 2.6 1.46 9.1477e-41
6.1 2.6 1.46 9.1477e-41
6.14 2.6 1.47 9.1477e-41
6.19 2.6 1.46 9.1477e-41
6.24 2.6 1.46 9.1477e-41
6.29 2.6 1.45 9.1477e-41
6.34 2.6 1.45 9.1477e-41
6.4 2.6 1.45 9.1477e-41
6.45 2.6 1.43 9.1477e-41
6.5 2.6 1.43 9.1477e-41
5.08 2.86 0.67 9.1477e-41
5.08 2.86 0.85 9.1477e-41
5.13 2.86 0.85 9.1477e-41
5.15 2.86 0.94 9.1477e-41
5.19 2.86 0.99 9.1477e-41
5.22 2.86 0.99 3.57e-43
5.24 2.86 0.99 3.57e-43
5.28 2.86 0.99 3.57e-43
5.29 2.86 0.99 3.57e-43
5.33 2.86 0.99 3.57e-43
5.35 2.86 1.35 9.1477e-41
5.39 2.86 1.36 9.1477e-41
5.41 2.86 1.41 9.1477e-41
5.45 2.86 1.44 9.1477e-41
5.49 2.86 1.45 9.1477e-41
5.53 2.86 1.44 9.1477e-41
5.57 2.86 1.44 9.1477e-41
5.61 2.86 1.46 9.1477e-41
5.65 2.86 1.45 9.1477e-41
5.7 2.86 1.46 9.1477e-41
5.74 2.86 1.45 9.1477e-41
5.78 2.86 1.46 9.1477e-41
5.83 2.86 1.46 9.1477e-41
5.87 2.86 1.46 9.1477e-41
5.91 2.86 1.47 9.1477e-41
5.96 2.86 1.46 9.1477e-41
6.01 2.86 1.46 9.1477e-41
6.05 2.86 1.46 9.1477e-41
6.1 2.86 1.46 9.1477e-41
6.15 2.86 1.46 9.1477e-41
6.19 2.86 1.47 9.1477e-41
6.25 2.86 1.45 9.1477e-41
6.29 2.86 1.45 9.1477e-41
6.34 2.86 1.45 9.1477e-41
6.4 2.86 1.45 9.1477e-41
6.44 2.86 1.46 9.1477e-41
6.57 2.86 1.31 9.1477e-41
5.08 3.12 0.66 9.1477e-41
5.1 3.12 0.79 9.1477e-41
5.13 3.12 0.86 9.1477e-41
5.16 3.12 0.93 9.1477e-41
5.19 3.12 0.96 9.1477e-41
5.22 3.12 0.96 3.57e-43
5.24 3.12 0.96 3.57e-43
5.28 3.12 0.96 3.57e-43
5.29 3.12 1.25 9.1477e-41
5.33 3.12 1.26 9.1477e-41
5.36 3.12 1.3 9.1477e-41
5.39 3.12 1.35 9.1477e-41
5.42 3.12 1.39 9.1477e-41
5.45 3.12 1.42 9.1477e-41
5.49 3.12 1.43 9.1477e-41
5.54 3.12 1.43 9.1477e-41
5.57 3.12 1.44 9.1477e-41
5.62 3.12 1.44 9.1477e-41
5.65 3.12 1.45 9.1477e-41
5.7 3.12 1.45 9.1477e-41
5.74 3.12 1.45 9.1477e-41
5.78 3.12 1.46 9.1477e-41
5.83 3.12 1.45 9.1477e-41
5.87 3.12 1.45 9.1477e-41
5.92 3.12 1.46 9.1477e-41
5.97 3.12 1.45 9.1477e-41
6.01 3.12 1.45 9.1477e-41
6.06 3.12 1.44 9.1477e-41
6.1 3.12 1.45 9.1477e-41
6.15 3.12 1.45 9.1477e-41
6.2 3.12 1.45 9.1477e-41
6.25 3.12 1.43 9.1477e-41
6.3 3.12 1.44 9.1477e-41
6.35 3.12 1.44 9.1477e-41
6.4 3.12 1.44 9.1477e-41
6.46 3.12 1.42 9.1477e-41
5.08 3.38 0.64 9.1477e-41
5.11 3.38 0.75 9.1477e-41
5.13 3.38 0.83 9.1477e-41
5.16 3.38 0.91 9.1477e-41
5.2 3.38 0.95 9.1477e-41
5.23 3.38 0.99 9.1477e-41
5.26 3.38 1.07 9.1477e-41
5.29 3.38 1.12 9.1477e-41
5.31 3.38 1.18 9.1477e-41
5.35 3.38 1.22 9.1477e-41
5.37 3.38 1.28 9.1477e-41
5.4 3.38 1.31 9.1477e-41
5.43 3.38 1.36 9.1477e-41
5.46 3.38 1.39 9.1477e-41
5.5 3.38 1.4 9.1477e-41
5.54 3.38 1.41 9.1477e-41
5.58 3.38 1.41 9.1477e-41
5.62 3.38 1.42 9.1477e-41
5.67 3.38 1.41 9.1477e-41
5.71 3.38 1.43 9.1477e-41
5.75 3.38 1.42 9.1477e-41
5.8 3.38 1.42 9.1477e-41
5.84 3.38 1.42 9.1477e-41
5.89 3.38 1.41 9.1477e-41
5.93 3.38 1.43 9.1477e-41
5.98 3.38 1.43 9.1477e-41
6.03 3.38 1.42 9.1477e-41
6.07 3.38 1.42 9.1477e-41
6.12 3.38 1.41 9.1477e-41
6.17 3.38 1.41 9.1477e-41
6.22 3.38 1.41 9.1477e-41
6.26 3.38 1.42 9.1477e-41
6.32 3.38 1.4 9.1477e-41
6.37 3.38 1.41 9.1477e-41
6.42 3.38 1.4 9.1477e-41
6.47 3.38 1.41 9.1477e-41
5.14 3.64 0.59 9.1477e-41
5.17 3.64 0.68 9.1477e-41
5.19 3.64 0.78 9.1477e-41
5.22 3.64 0.83 9.1477e-41
5.25 3.64 0.9 9.1477e-41
5.27 3.64 1 9.1477e-41
5.31 3.64 1 3.57e-43
5.31 3.64 1 3.57e-43
5.35 3.64 1 3.57e-43
5.37 3.64 1 3.57e-43
5.4 3.64 1 3.57e-43
5.43 3.64 1 3.57e-43
5.46 3.64 1 3.57e-43
5.5 3.64 1 3.57e-43
5.54 3.64 1 3.57e-43
5.58 3.64 1 3.57e-43
5.62 3.64 1 3.57e-43
5.67 3.64 1 3.57e-43
5.71 3.64 1 3.57e-43
5.75 3.64 1 3.57e-43
5.8 3.64 1 3.57e-43
5.84 3.64 1 3.57e-43
5.89 3.64 1 3.57e-43
5.93 3.64 1 3.57e-43
5.98 3.64 1 3.57e-43
6.03 3.64 1 3.57e-43
6.07 3.64 1 3.57e-43
6.12 3.64 1 3.57e-43
6.17 3.64 1 3.57e-43
6.22 3.64 1 3.57e-43
6.26 3.64 1 3.57e-43
6.32 3.64 1 3.57e-43
6.37 3.64 1 3.57e-43
6.42 3.64 1.4 9.1477e-41
5.58 3.9 0.56 9.1477e-41
5.61 3.9 0.61 9.1477e-41
5.66 3.9 0.63 9.1477e-41
5.71 3.9 0.63 9.1477e-41
5.75 3.9 0.64 9.1477e-41
5.81 3.9 0.62 9.1477e-41
5.86 3.9 0.63 9.1477e-41
5.91 3.9 0.63 9.1477e-41
5.96 3.9 0.64 9.1477e-41
6.01 3.9 0.63 9.1477e-41
6.06 3.9 0.63 9.1477e-41
6.11 3.9 0.64 9.1477e-41
6.17 3.9 0.64 9.1477e-41
6.22 3.9 0.63 9.1477e-41
6.28 3.9 0.62 9.1477e-41
6.33 3.9 0.62 9.1477e-41
6.41 3.9 0.59 9.1477e-41
