# .PCD v.7 - Point Cloud Data file format
VERSION .7
FIELDS x y z rgb
SIZE 4 4 4 4
TYPE F F F F
WIDTH 1505
HEIGHT 1
POINTS 1505
DATA ascii
3.33 0 0.56 9.1477e-41
3.38 0 0.56 9.1477e-41
3.42 0 0.58 9.1477e-41
3.47 0 0.58 3.57e-43
3.45 0 0.58 3.57e-43
3.51 0 0.58 3.57e-43
3.55 0 0.58 3.57e-43
3.62 0 0.58 3.57e-43
3.68 0 0.58 3.57e-43
3.73 0 0.4 9.1477e-41
3.79 0 0.68 9.1477e-41
3.83 0 0.65 9.1477e-41
3.88 0 0.67 9.1477e-41
3.92 0 0.67 3.57e-43
3.95 0 0.67 3.57e-43
4 0 0.67 3.57e-43
4.05 0 0.67 3.57e-43
4.18 0 0.55 9.1477e-41
4.23 0 0.52 9.1477e-41
4.28 0 0.52 9.1477e-41
4.32 0 0.49 9.1477e-41
3.3 0.08 0.65 9.1477e-41
3.34 0.08 0.65 9.1477e-41
3.39 0.08 0.65 9.1477e-41
3.43 0.08 0.65 3.57e-43
3.47 0.08 0.65 3.57e-43
3.45 0.08 0.65 3.57e-43
3.51 0.08 0.65 3.57e-43
3.55 0.08 0.65 3.57e-43
3.62 0.08 0.65 3.57e-43
3.75 0.08 0.73 9.1477e-41
3.79 0.08 0.73 9.1477e-41
3.84 0.08 0.74 9.1477e-41
3.88 0.08 0.74 9.1477e-41
3.92 0.08 0.71 9.1477e-41
3.97 0.08 0.71 3.57e-43
4 0.08 0.71 3.57e-43
4.05 0.08 0.71 3.57e-43
4.09 0.08 0.71 3.57e-43
4.14 0.08 0.71 3.57e-43
4.18 0.08 0.55 9.1477e-41
4.23 0.08 0.63 9.1477e-41
4.27 0.08 0.62 9.1477e-41
4.32 0.08 0.62 9.1477e-41
4.36 0.08 0.61 9.1477e-41
4.41 0.08 0.61 3.57e-43
3.17 0.16 0.67 9.1477e-41
3.21 0.16 0.67 9.1477e-41
3.26 0.16 0.67 9.1477e-41
3.3 0.16 0.65 9.1477e-41
3.34 0.16 0.65 3.57e-43
3.39 0.16 0.65 3.57e-43
3.43 0.16 0.65 3.57e-43
3.47 0.16 0.65 3.57e-43
3.45 0.16 0.65 3.57e-43
3.51 0.16 0.65 3.57e-43
3.55 0.16 0.65 3.57e-43
3.62 0.16 0.65 3.57e-43
3.68 0.16 0.65 3.57e-43
3.75 0.16 0.65 3.57e-43
3.79 0.16 0.65 3.57e-43
3.84 0.16 0.65 3.57e-43
3.88 0.16 0.65 3.57e-43
3.92 0.16 0.65 3.57e-43
3.97 0.16 0.65 3.57e-43
4.05 0.16 0.65 3.57e-43
4.14 0.16 0.65 3.57e-43
4.18 0.16 0.65 3.57e-43
4.23 0.16 0.65 3.57e-43
4.27 0.16 0.62 9.1477e-41
4.32 0.16 0.63 9.1477e-41
4.36 0.16 0.63 9.1477e-41
4.4 0.16 0.61 9.1477e-41
4.45 0.16 0.63 9.1477e-41
4.49 0.16 0.63 9.1477e-41
4.55 0.16 0.45 9.1477e-41
3.13 0.24 0.7 9.1477e-41
3.17 0.24 0.69 9.1477e-41
3.21 0.24 0.68 9.1477e-41
3.26 0.24 0.68 9.1477e-41
3.32 0.24 0.68 3.57e-43
3.34 0.24 0.68 3.57e-43
3.39 0.24 0.68 3.57e-43
3.43 0.24 0.68 3.57e-43
3.47 0.24 0.68 3.57e-43
3.45 0.24 0.68 3.57e-43
3.51 0.24 0.68 3.57e-43
3.55 0.24 0.68 3.57e-43
3.62 0.24 0.68 3.57e-43
3.68 0.24 0.68 3.57e-43
3.75 0.24 0.68 3.57e-43
3.79 0.24 0.68 3.57e-43
3.84 0.24 0.68 3.57e-43
3.88 0.24 0.68 3.57e-43
3.92 0.24 0.68 3.57e-43
3.97 0.24 0.68 3.57e-43
4 0.24 0.68 3.57e-43
4.05 0.24 0.68 3.57e-43
4.09 0.24 0.68 3.57e-43
4.14 0.24 0.68 3.57e-43
4.18 0.24 0.68 3.57e-43
4.23 0.24 0.68 3.57e-43
4.27 0.24 0.68 3.57e-43
4.32 0.24 0.63 9.1477e-41
4.36 0.24 0.64 9.1477e-41
4.4 0.24 0.62 9.1477e-41
4.45 0.24 0.64 9.1477e-41
4.49 0.24 0.65 9.1477e-41
4.54 0.24 0.65 3.57e-43
3.09 0.32 0.75 9.1477e-41
3.14 0.32 0.78 9.1477e-41
3.19 0.32 0.77 9.1477e-41
3.23 0.32 0.74 9.1477e-41
3.27 0.32 0.74 3.57e-43
3.32 0.32 0.74 3.57e-43
3.34 0.32 0.74 3.57e-43
3.39 0.32 0.74 3.57e-43
3.43 0.32 0.74 3.57e-43
3.47 0.32 0.74 3.57e-43
3.45 0.32 0.74 3.57e-43
3.51 0.32 0.74 3.57e-43
3.55 0.32 0.74 3.57e-43
3.62 0.32 0.74 3.57e-43
3.68 0.32 0.74 3.57e-43
3.75 0.32 0.74 3.57e-43
3.79 0.32 0.74 3.57e-43
3.84 0.32 0.74 3.57e-43
3.88 0.32 0.74 3.57e-43
3.92 0.32 0.74 3.57e-43
3.97 0.32 0.74 3.57e-43
4 0.32 0.74 3.57e-43
4.05 0.32 0.74 3.57e-43
4.09 0.32 0.74 3.57e-43
4.14 0.32 0.74 3.57e-43
4.18 0.32 0.74 3.57e-43
4.23 0.32 0.74 3.57e-43
4.27 0.32 0.74 3.57e-43
4.32 0.32 0.74 3.57e-43
4.36 0.32 0.74 3.57e-43
4.4 0.32 0.62 9.1477e-41
4.45 0.32 0.66 9.1477e-41
4.49 0.32 0.61 9.1477e-41
4.54 0.32 0.64 9.1477e-41
4.58 0.32 0.64 3.57e-43
3.1 0.4 0.79 9.1477e-41
3.15 0.4 0.83 9.1477e-41
3.2 0.4 0.83 9.1477e-41
3.24 0.4 0.83 3.57e-43
3.27 0.4 0.83 3.57e-43
3.32 0.4 0.83 3.57e-43
3.34 0.4 0.83 3.57e-43
3.39 0.4 0.83 3.57e-43
3.43 0.4 0.83 3.57e-43
3.47 0.4 0.83 3.57e-43
3.45 0.4 0.83 3.57e-43
3.51 0.4 0.83 3.57e-43
3.55 0.4 0.83 3.57e-43
3.62 0.4 0.83 3.57e-43
3.68 0.4 0.83 3.57e-43
3.75 0.4 0.83 3.57e-43
3.79 0.4 0.83 3.57e-43
3.84 0.4 0.83 3.57e-43
3.88 0.4 0.83 3.57e-43
3.92 0.4 0.83 3.57e-43
3.97 0.4 0.83 3.57e-43
4 0.4 0.83 3.57e-43
4.05 0.4 0.83 3.57e-43
4.09 0.4 0.83 3.57e-43
4.14 0.4 0.83 3.57e-43
4.18 0.4 0.83 3.57e-43
4.23 0.4 0.83 3.57e-43
4.27 0.4 0.83 3.57e-43
4.32 0.4 0.83 3.57e-43
4.36 0.4 0.83 3.57e-43
4.4 0.4 0.83 3.57e-43
4.45 0.4 0.66 9.1477e-41
4.48 0.4 0.78 9.1477e-41
4.52 0.4 0.77 9.1477e-41
4.57 0.4 0.77 9.1477e-41
4.62 0.4 0.71 9.1477e-41
3.11 0.48 0.82 9.1477e-41
3.15 0.48 0.82 3.57e-43
3.2 0.48 0.82 3.57e-43
3.24 0.48 0.82 3.57e-43
3.27 0.48 0.82 3.57e-43
3.32 0.48 0.82 3.57e-43
3.34 0.48 0.82 3.57e-43
3.39 0.48 0.82 3.57e-43
3.43 0.48 0.82 3.57e-43
3.47 0.48 0.82 3.57e-43
3.45 0.48 0.82 3.57e-43
3.51 0.48 0.82 3.57e-43
3.68 0.48 0.82 3.57e-43
3.68 0.48 0.82 3.57e-43
3.75 0.48 0.73 9.1477e-41
3.8 0.48 0.92 9.1477e-41
3.85 0.48 0.92 9.1477e-41
3.89 0.48 0.92 3.57e-43
3.92 0.48 0.92 3.57e-43
3.97 0.48 0.92 3.57e-43
4 0.48 0.92 3.57e-43
4.05 0.48 0.92 3.57e-43
4.09 0.48 0.92 3.57e-43
4.14 0.48 0.92 3.57e-43
4.18 0.48 0.92 3.57e-43
4.23 0.48 0.92 3.57e-43
4.27 0.48 0.92 3.57e-43
4.32 0.48 0.92 3.57e-43
4.36 0.48 0.92 3.57e-43
4.4 0.48 0.92 3.57e-43
4.45 0.48 0.92 3.57e-43
4.48 0.48 0.78 9.1477e-41
4.52 0.48 0.78 3.57e-43
4.57 0.48 0.77 9.1477e-41
4.9 0.48 0.77 3.57e-43
3.07 0.56 0.85 9.1477e-41
3.12 0.56 0.86 9.1477e-41
3.16 0.56 0.86 3.57e-43
3.2 0.56 0.86 3.57e-43
3.24 0.56 0.86 3.57e-43
3.27 0.56 0.86 3.57e-43
3.32 0.56 0.86 3.57e-43
3.34 0.56 0.86 3.57e-43
3.39 0.56 0.86 3.57e-43
3.43 0.56 0.86 3.57e-43
3.47 0.56 0.86 3.57e-43
3.45 0.56 0.86 3.57e-43
3.64 0.56 0.86 3.57e-43
3.68 0.56 0.86 3.57e-43
3.76 0.56 0.94 9.1477e-41
3.81 0.56 0.94 9.1477e-41
3.85 0.56 0.94 9.1477e-41
3.89 0.56 0.95 9.1477e-41
3.93 0.56 0.94 9.1477e-41
3.97 0.56 0.94 9.1477e-41
4.01 0.56 0.94 3.57e-43
4.05 0.56 0.78 9.1477e-41
4.09 0.56 0.78 3.57e-43
4.14 0.56 0.78 3.57e-43
4.18 0.56 0.78 3.57e-43
4.23 0.56 0.78 3.57e-43
4.27 0.56 0.78 3.57e-43
4.32 0.56 0.78 3.57e-43
4.36 0.56 0.78 3.57e-43
4.4 0.56 0.78 3.57e-43
4.45 0.56 0.78 3.57e-43
4.48 0.56 0.78 3.57e-43
4.52 0.56 0.79 9.1477e-41
4.56 0.56 0.82 9.1477e-41
4.61 0.56 0.82 3.57e-43
3.07 0.64 0.85 9.1477e-41
3.12 0.64 0.85 3.57e-43
3.16 0.64 0.85 3.57e-43
3.2 0.64 0.85 3.57e-43
3.24 0.64 0.85 3.57e-43
3.27 0.64 0.85 3.57e-43
3.32 0.64 0.85 3.57e-43
3.34 0.64 0.85 3.57e-43
3.39 0.64 0.85 3.57e-43
3.43 0.64 0.85 3.57e-43
3.47 0.64 0.61 9.1477e-41
3.56 0.64 0.61 3.57e-43
3.51 0.64 0.61 3.57e-43
3.64 0.64 0.61 3.57e-43
3.68 0.64 0.61 3.57e-43
3.68 0.64 0.61 3.57e-43
3.76 0.64 0.61 3.57e-43
3.81 0.64 0.61 3.57e-43
3.85 0.64 0.61 3.57e-43
3.89 0.64 0.95 9.1477e-41
3.93 0.64 0.95 3.57e-43
3.97 0.64 0.94 9.1477e-41
4.01 0.64 0.96 9.1477e-41
4.05 0.64 0.95 9.1477e-41
4.09 0.64 0.96 9.1477e-41
4.18 0.64 0.95 9.1477e-41
4.22 0.64 0.95 3.57e-43
4.27 0.64 0.95 3.57e-43
4.32 0.64 0.95 3.57e-43
4.36 0.64 0.95 3.57e-43
4.4 0.64 0.95 3.57e-43
4.45 0.64 0.95 3.57e-43
4.48 0.64 0.95 3.57e-43
4.52 0.64 0.79 9.1477e-41
4.56 0.64 0.85 9.1477e-41
4.61 0.64 0.85 3.57e-43
3.39 0.72 0.95 3.57e-43
3.43 0.72 0.95 9.1477e-41
3.48 0.72 0.98 9.1477e-41
3.52 0.72 0.96 9.1477e-41
3.56 0.72 0.95 9.1477e-41
3.6 0.72 0.93 9.1477e-41
3.64 0.72 0.95 9.1477e-41
3.68 0.72 0.94 9.1477e-41
3.72 0.72 0.95 9.1477e-41
3.76 0.72 0.94 9.1477e-41
3.81 0.72 0.93 9.1477e-41
3.85 0.72 0.94 9.1477e-41
3.89 0.72 0.94 9.1477e-41
3.93 0.72 0.94 9.1477e-41
3.97 0.72 0.95 9.1477e-41
4.01 0.72 0.95 9.1477e-41
4.05 0.72 0.94 9.1477e-41
4.09 0.72 0.94 3.57e-43
4.18 0.72 0.94 9.1477e-41
4.22 0.72 0.94 3.57e-43
4.27 0.72 0.94 3.57e-43
4.32 0.72 0.94 3.57e-43
4.36 0.72 0.94 3.57e-43
4.4 0.72 0.94 3.57e-43
4.45 0.72 0.94 3.57e-43
4.48 0.72 0.94 3.57e-43
4.52 0.72 0.94 3.57e-43
4.56 0.72 0.94 3.57e-43
4.61 0.72 0.94 3.57e-43
3.22 0.8 0.96 3.57e-43
3.26 0.8 0.95 9.1477e-41
3.3 0.8 0.94 9.1477e-41
3.35 0.8 0.94 9.1477e-41
3.39 0.8 0.95 9.1477e-41
3.43 0.8 0.95 9.1477e-41
3.47 0.8 0.96 9.1477e-41
3.52 0.8 0.97 9.1477e-41
3.56 0.8 0.99 9.1477e-41
3.6 0.8 0.97 9.1477e-41
3.64 0.8 1 9.1477e-41
3.69 0.8 0.99 9.1477e-41
3.73 0.8 1 9.1477e-41
3.77 0.8 0.99 9.1477e-41
3.81 0.8 0.99 9.1477e-41
3.85 0.8 0.99 3.57e-43
3.89 0.8 0.94 9.1477e-41
3.93 0.8 0.99 9.1477e-41
3.97 0.8 0.99 3.57e-43
4.01 0.8 0.95 9.1477e-41
4.05 0.8 0.97 9.1477e-41
4.09 0.8 0.98 9.1477e-41
4.18 0.8 0.94 9.1477e-41
4.22 0.8 0.94 9.1477e-41
4.26 0.8 0.93 9.1477e-41
4.3 0.8 0.91 9.1477e-41
4.35 0.8 0.9 9.1477e-41
4.39 0.8 0.9 3.57e-43
4.45 0.8 0.9 3.57e-43
4.48 0.8 0.9 3.57e-43
4.52 0.8 0.9 3.57e-43
4.56 0.8 0.9 3.57e-43
4.61 0.8 0.9 3.57e-43
3.07 0.88 0.87 3.57e-43
3.18 0.88 0.97 9.1477e-41
3.22 0.88 0.96 9.1477e-41
3.26 0.88 0.96 3.57e-43
3.3 0.88 0.96 3.57e-43
3.35 0.88 0.94 9.1477e-41
3.4 0.88 1.02 9.1477e-41
3.44 0.88 1.02 3.57e-43
3.47 0.88 1.02 3.57e-43
3.52 0.88 0.97 9.1477e-41
3.56 0.88 0.99 9.1477e-41
3.6 0.88 1 9.1477e-41
3.65 0.88 1.01 9.1477e-41
3.69 0.88 0.99 9.1477e-41
3.73 0.88 1 9.1477e-41
3.77 0.88 0.99 9.1477e-41
3.81 0.88 0.99 9.1477e-41
3.85 0.88 0.98 9.1477e-41
3.89 0.88 0.99 9.1477e-41
3.93 0.88 1 9.1477e-41
3.97 0.88 0.99 9.1477e-41
4.01 0.88 0.99 9.1477e-41
4.05 0.88 0.99 9.1477e-41
4.09 0.88 0.99 3.57e-43
4.14 0.88 0.99 3.57e-43
4.18 0.88 0.99 3.57e-43
4.22 0.88 0.99 3.57e-43
4.26 0.88 0.99 3.57e-43
4.3 0.88 0.99 3.57e-43
4.35 0.88 0.9 9.1477e-41
4.38 0.88 0.94 9.1477e-41
4.43 0.88 0.92 9.1477e-41
4.47 0.88 0.91 9.1477e-41
4.51 0.88 0.91 3.57e-43
4.56 0.88 0.91 3.57e-43
4.61 0.88 0.91 3.57e-43
3.23 0.96 0.99 3.57e-43
3.27 0.96 1 9.1477e-41
3.32 0.96 1.02 9.1477e-41
3.36 0.96 1.02 3.57e-43
3.4 0.96 1.02 9.1477e-41
3.44 0.96 1 9.1477e-41
3.48 0.96 1 9.1477e-41
3.52 0.96 1 9.1477e-41
3.56 0.96 1 9.1477e-41
3.6 0.96 1 9.1477e-41
3.65 0.96 1.01 9.1477e-41
3.69 0.96 1 9.1477e-41
3.73 0.96 0.99 9.1477e-41
3.77 0.96 1 9.1477e-41
3.81 0.96 1 9.1477e-41
3.85 0.96 0.99 9.1477e-41
3.89 0.96 0.99 9.1477e-41
3.93 0.96 1 9.1477e-41
3.97 0.96 0.98 9.1477e-41
4.01 0.96 0.99 9.1477e-41
4.05 0.96 0.98 9.1477e-41
4.09 0.96 0.98 9.1477e-41
4.18 0.96 0.98 9.1477e-41
4.22 0.96 0.99 9.1477e-41
4.26 0.96 0.97 9.1477e-41
4.3 0.96 0.97 3.57e-43
4.35 0.96 0.97 3.57e-43
4.38 0.96 0.97 3.57e-43
4.43 0.96 0.97 3.57e-43
4.47 0.96 0.91 9.1477e-41
4.51 0.96 0.92 9.1477e-41
4.55 0.96 0.92 3.57e-43
4.61 0.96 0.92 3.57e-43
3.07 1.04 0.87 3.57e-43
3.18 1.04 0.99 9.1477e-41
3.23 1.04 0.99 3.57e-43
3.27 1.04 0.99 3.57e-43
3.32 1.04 0.99 3.57e-43
3.36 1.04 0.99 3.57e-43
3.4 1.04 1.02 9.1477e-41
3.44 1.04 0.99 9.1477e-41
3.48 1.04 0.99 9.1477e-41
3.52 1.04 1.01 9.1477e-41
3.56 1.04 1.01 3.57e-43
3.6 1.04 1.01 3.57e-43
3.65 1.04 1.01 3.57e-43
3.69 1.04 1.01 3.57e-43
3.73 1.04 1.01 3.57e-43
3.77 1.04 1.01 3.57e-43
3.81 1.04 1.01 3.57e-43
3.85 1.04 1.01 3.57e-43
3.89 1.04 0.99 9.1477e-41
3.93 1.04 0.99 3.57e-43
3.97 1.04 0.98 9.1477e-41
4.01 1.04 0.99 9.1477e-41
4.05 1.04 1 9.1477e-41
4.09 1.04 1.03 9.1477e-41
4.18 1.04 1.04 9.1477e-41
4.22 1.04 1.03 9.1477e-41
4.26 1.04 1.03 9.1477e-41
4.3 1.04 1.03 3.57e-43
4.35 1.04 1.03 3.57e-43
4.38 1.04 1.03 3.57e-43
4.43 1.04 1.03 3.57e-43
4.47 1.04 1.03 3.57e-43
4.51 1.04 1.03 3.57e-43
4.55 1.04 1.03 3.57e-43
4.61 1.04 1.03 3.57e-43
3.73 1.12 1.01 3.57e-43
3.77 1.12 1.03 9.1477e-41
3.81 1.12 1.02 9.1477e-41
3.85 1.12 1.02 9.1477e-41
3.89 1.12 1.02 9.1477e-41
3.93 1.12 1.02 3.57e-43
3.97 1.12 1.02 3.57e-43
4.01 1.12 1.02 3.57e-43
4.05 1.12 1.02 3.57e-43
4.09 1.12 1.02 3.57e-43
4.14 1.12 1.02 3.57e-43
4.18 1.12 1.02 3.57e-43
4.22 1.12 1.02 3.57e-43
4.26 1.12 1.02 3.57e-43
4.3 1.12 1.02 3.57e-43
4.35 1.12 1.02 3.57e-43
4.38 1.12 1.02 3.57e-43
4.43 1.12 1.02 3.57e-43
4.47 1.12 1.02 3.57e-43
4.51 1.12 1.02 3.57e-43
4.55 1.12 1.02 3.57e-43
4.61 1.12 1.02 3.57e-43
3.73 1.2 1.01 3.57e-43
3.77 1.2 0.96 9.1477e-41
3.81 1.2 0.93 9.1477e-41
3.85 1.2 0.94 9.1477e-41
3.89 1.2 0.93 9.1477e-41
3.93 1.2 0.93 9.1477e-41
3.97 1.2 0.93 3.57e-43
4.01 1.2 0.93 3.57e-43
4.05 1.2 0.93 3.57e-43
4.09 1.2 0.93 3.57e-43
4.14 1.2 0.93 3.57e-43
4.18 1.2 0.93 3.57e-43
4.22 1.2 0.93 3.57e-43
4.26 1.2 0.93 3.57e-43
4.3 1.2 0.93 3.57e-43
4.35 1.2 0.93 3.57e-43
4.38 1.2 0.93 3.57e-43
4.43 1.2 0.93 3.57e-43
4.47 1.2 0.93 3.57e-43
4.51 1.2 0.93 3.57e-43
4.55 1.2 0.93 3.57e-43
4.61 1.2 0.82 9.1477e-41
4.65 1.2 0.85 9.1477e-41
3.73 1.28 1.01 3.57e-43
3.77 1.28 0.98 9.1477e-41
3.81 1.28 0.95 9.1477e-41
3.85 1.28 0.95 9.1477e-41
3.89 1.28 0.95 9.1477e-41
3.93 1.28 0.95 3.57e-43
3.97 1.28 0.95 3.57e-43
4.01 1.28 0.95 3.57e-43
4.05 1.28 0.95 3.57e-43
4.09 1.28 0.95 3.57e-43
4.14 1.28 0.95 3.57e-43
4.18 1.28 0.95 3.57e-43
4.22 1.28 0.95 3.57e-43
4.26 1.28 0.95 3.57e-43
4.3 1.28 0.95 3.57e-43
4.35 1.28 0.95 3.57e-43
4.38 1.28 0.95 3.57e-43
4.43 1.28 0.95 3.57e-43
4.47 1.28 0.95 3.57e-43
4.51 1.28 0.95 3.57e-43
4.55 1.28 0.95 3.57e-43
4.61 1.28 0.82 9.1477e-41
4.65 1.28 0.82 3.57e-43
2.98 1.36 1.05 9.1477e-41
3.02 1.36 1.05 3.57e-43
2.82 1.36 1.05 3.57e-43
3.08 1.36 1.05 3.57e-43
3.12 1.36 1.05 3.57e-43
3.18 1.36 1.05 3.57e-43
3.23 1.36 0.99 9.1477e-41
3.17 1.36 0.99 3.57e-43
3.32 1.36 0.99 3.57e-43
3.36 1.36 0.99 3.57e-43
3.4 1.36 0.99 3.57e-43
3.44 1.36 0.99 3.57e-43
3.48 1.36 0.99 3.57e-43
3.52 1.36 1.01 9.1477e-41
3.48 1.36 1.01 3.57e-43
3.6 1.36 1.01 3.57e-43
3.65 1.36 1.01 3.57e-43
3.69 1.36 1.01 3.57e-43
3.73 1.36 1.01 3.57e-43
3.77 1.36 1.01 3.57e-43
3.81 1.36 1.01 3.57e-43
3.85 1.36 1.01 3.57e-43
3.89 1.36 1.01 3.57e-43
3.93 1.36 1.01 3.57e-43
3.97 1.36 1.01 3.57e-43
4.01 1.36 1.01 3.57e-43
4.05 1.36 1.01 3.57e-43
4.09 1.36 1.01 3.57e-43
4.14 1.36 1.01 3.57e-43
4.18 1.36 1.01 3.57e-43
4.22 1.36 1.01 3.57e-43
4.26 1.36 1.01 3.57e-43
4.3 1.36 1.01 3.57e-43
4.35 1.36 1.01 3.57e-43
4.38 1.36 1.01 3.57e-43
4.43 1.36 0.92 9.1477e-41
4.5 1.36 0.92 3.57e-43
4.51 1.36 0.92 3.57e-43
4.55 1.36 0.94 9.1477e-41
4.59 1.36 0.93 9.1477e-41
4.64 1.36 0.93 3.57e-43
4.8 1.36 0.93 3.57e-43
4.85 1.36 0.93 3.57e-43
3.08 1.44 0.99 3.57e-43
3.34 1.44 1.38 3.57e-43
3.37 1.44 1.33 3.57e-43
3.4 1.44 1.28 3.57e-43
3.33 1.44 1.28 3.57e-43
3.44 1.44 1.28 3.57e-43
3.48 1.44 1.28 3.57e-43
3.52 1.44 1.28 3.57e-43
3.48 1.44 0.99 3.57e-43
3.64 1.44 1.32 3.57e-43
3.68 1.44 1.33 3.57e-43
3.71 1.44 1.33 3.57e-43
3.73 1.44 1.33 3.57e-43
3.77 1.44 1.33 3.57e-43
3.81 1.44 0.95 9.1477e-41
3.82 1.44 0.52 9.1477e-41
3.87 1.44 0.47 9.1477e-41
3.91 1.44 0.48 9.1477e-41
3.97 1.44 0.72 9.1477e-41
4.01 1.44 0.72 3.57e-43
4.05 1.44 0.72 3.57e-43
4.09 1.44 0.72 3.57e-43
4.14 1.44 0.72 3.57e-43
4.18 1.44 0.72 3.57e-43
4.22 1.44 0.72 3.57e-43
4.26 1.44 0.72 3.57e-43
4.3 1.44 0.97 9.1477e-41
4.36 1.44 0.65 9.1477e-41
4.4 1.44 0.65 3.57e-43
4.43 1.44 0.65 3.57e-43
4.5 1.44 0.65 3.57e-43
4.51 1.44 0.65 3.57e-43
4.55 1.44 0.94 9.1477e-41
4.59 1.44 0.94 3.57e-43
4.64 1.44 0.88 9.1477e-41
4.72 1.44 0.97 9.1477e-41
4.75 1.44 0.97 3.57e-43
3.08 1.52 0.99 3.57e-43
3.34 1.52 1.38 3.57e-43
3.37 1.52 1.33 3.57e-43
3.4 1.52 1.28 3.57e-43
3.33 1.52 1.28 3.57e-43
3.44 1.52 1.28 3.57e-43
3.48 1.52 1.28 3.57e-43
3.52 1.52 1.28 3.57e-43
3.64 1.52 1.32 9.1477e-41
3.68 1.52 1.33 9.1477e-41
3.71 1.52 1.33 3.57e-43
3.73 1.52 1.33 3.57e-43
3.77 1.52 1.33 3.57e-43
3.81 1.52 1.33 3.57e-43
3.82 1.52 1.33 3.57e-43
3.87 1.52 1.33 3.57e-43
3.91 1.52 0.48 9.1477e-41
3.98 1.52 1.24 9.1477e-41
4.02 1.52 1.24 3.57e-43
4.05 1.52 1.24 3.57e-43
4.09 1.52 1.24 3.57e-43
4.14 1.52 1.24 3.57e-43
4.18 1.52 1.24 3.57e-43
4.22 1.52 1.24 3.57e-43
4.26 1.52 1.24 3.57e-43
4.3 1.52 0.97 9.1477e-41
4.35 1.52 0.81 9.1477e-41
4.4 1.52 0.76 9.1477e-41
4.41 1.52 0.76 3.57e-43
4.5 1.52 0.76 3.57e-43
4.51 1.52 0.99 9.1477e-41
4.55 1.52 0.99 9.1477e-41
4.6 1.52 0.88 9.1477e-41
4.65 1.52 0.86 9.1477e-41
3.34 1.6 1.38 3.57e-43
3.37 1.6 1.33 9.1477e-41
3.4 1.6 1.28 9.1477e-41
3.33 1.6 1.28 3.57e-43
3.44 1.6 1.28 3.57e-43
3.48 1.6 1.28 3.57e-43
3.52 1.6 1.28 3.57e-43
3.48 1.6 1.28 3.57e-43
3.64 1.6 1.28 3.57e-43
3.68 1.6 1.28 3.57e-43
3.71 1.6 1.28 3.57e-43
3.73 1.6 1.28 3.57e-43
3.77 1.6 1.28 3.57e-43
3.81 1.6 1.28 3.57e-43
3.82 1.6 1.28 3.57e-43
3.87 1.6 1.28 3.57e-43
3.91 1.6 1.28 3.57e-43
3.98 1.6 1.28 3.57e-43
4.02 1.6 1.28 3.57e-43
4.05 1.6 1.28 3.57e-43
4.09 1.6 1.28 3.57e-43
4.14 1.6 1.28 3.57e-43
4.18 1.6 1.28 3.57e-43
4.22 1.6 1.28 3.57e-43
4.26 1.6 1.28 3.57e-43
4.3 1.6 0.97 9.1477e-41
4.34 1.6 1.02 9.1477e-41
4.38 1.6 1.02 3.57e-43
4.41 1.6 1.02 3.57e-43
4.5 1.6 1.02 3.57e-43
4.51 1.6 0.99 9.1477e-41
4.55 1.6 0.93 9.1477e-41
4.6 1.6 0.88 9.1477e-41
4.64 1.6 0.89 9.1477e-41
3.3 1.68 1.4 3.57e-43
3.34 1.68 1.38 9.1477e-41
3.37 1.68 1.38 3.57e-43
3.4 1.68 1.38 3.57e-43
3.33 1.68 1.38 3.57e-43
3.44 1.68 1.38 3.57e-43
3.48 1.68 0.99 9.1477e-41
3.57 1.68 1.4 9.1477e-41
3.61 1.68 1.39 9.1477e-41
3.65 1.68 1.4 9.1477e-41
3.68 1.68 1.4 9.1477e-41
3.72 1.68 1.4 9.1477e-41
3.76 1.68 1.4 9.1477e-41
3.8 1.68 1.41 9.1477e-41
3.83 1.68 1.4 9.1477e-41
3.87 1.68 1.39 9.1477e-41
3.91 1.68 1.39 9.1477e-41
3.95 1.68 1.4 9.1477e-41
3.98 1.68 1.4 9.1477e-41
4.02 1.68 1.39 9.1477e-41
4.06 1.68 1.38 9.1477e-41
4.09 1.68 1.37 9.1477e-41
4.17 1.68 1.38 9.1477e-41
4.21 1.68 1.38 3.57e-43
4.26 1.68 1.03 9.1477e-41
4.28 1.68 1.36 9.1477e-41
4.32 1.68 1.36 3.57e-43
4.38 1.68 1.36 3.57e-43
4.41 1.68 1.36 3.57e-43
4.5 1.68 1.36 3.57e-43
4.51 1.68 0.99 9.1477e-41
4.55 1.68 0.92 9.1477e-41
4.6 1.68 0.88 9.1477e-41
4.64 1.68 0.89 9.1477e-41
3.3 1.76 1.4 3.57e-43
3.34 1.76 1.4 3.57e-43
3.38 1.76 1.4 3.57e-43
3.4 1.76 1.28 3.57e-43
3.46 1.76 1.42 3.57e-43
3.44 1.76 0.99 9.1477e-41
3.54 1.76 1.42 9.1477e-41
3.57 1.76 1.41 9.1477e-41
3.61 1.76 1.42 9.1477e-41
3.65 1.76 1.42 9.1477e-41
3.69 1.76 1.42 9.1477e-41
3.72 1.76 1.42 9.1477e-41
3.76 1.76 1.41 9.1477e-41
3.8 1.76 1.42 9.1477e-41
3.83 1.76 1.41 9.1477e-41
3.87 1.76 1.42 9.1477e-41
3.91 1.76 1.41 9.1477e-41
3.95 1.76 1.41 9.1477e-41
3.98 1.76 1.41 9.1477e-41
4.02 1.76 1.41 9.1477e-41
4.06 1.76 1.41 9.1477e-41
4.09 1.76 1.41 9.1477e-41
4.17 1.76 1.4 9.1477e-41
4.21 1.76 1.4 3.57e-43
4.26 1.76 1.4 3.57e-43
4.28 1.76 1.4 3.57e-43
4.32 1.76 1.4 3.57e-43
4.38 1.76 1 9.1477e-41
4.4 1.76 1 3.57e-43
4.5 1.76 1 3.57e-43
4.51 1.76 0.99 9.1477e-41
4.56 1.76 0.9 9.1477e-41
4.6 1.76 0.9 3.57e-43
4.64 1.76 0.89 9.1477e-41
3.3 1.84 1.4 3.57e-43
3.34 1.84 1.4 9.1477e-41
3.38 1.84 1.4 3.57e-43
3.4 1.84 1.28 9.1477e-41
3.46 1.84 1.42 9.1477e-41
3.5 1.84 1.43 9.1477e-41
3.54 1.84 1.42 9.1477e-41
3.57 1.84 1.44 9.1477e-41
3.61 1.84 1.42 9.1477e-41
3.65 1.84 1.44 9.1477e-41
3.69 1.84 1.42 9.1477e-41
3.72 1.84 1.43 9.1477e-41
3.76 1.84 1.44 9.1477e-41
3.8 1.84 1.43 9.1477e-41
3.83 1.84 1.42 9.1477e-41
3.87 1.84 1.43 9.1477e-41
3.91 1.84 1.43 9.1477e-41
3.95 1.84 1.43 9.1477e-41
3.98 1.84 1.42 9.1477e-41
4.02 1.84 1.43 9.1477e-41
4.06 1.84 1.42 9.1477e-41
4.09 1.84 1.43 9.1477e-41
4.17 1.84 1.41 9.1477e-41
4.21 1.84 1.42 9.1477e-41
4.24 1.84 1.4 9.1477e-41
4.28 1.84 1.38 9.1477e-41
4.32 1.84 1.38 9.1477e-41
4.36 1.84 1.38 9.1477e-41
4.4 1.84 1.38 3.57e-43
4.5 1.84 0.49 9.1477e-41
4.51 1.84 0.98 9.1477e-41
4.55 1.84 0.96 9.1477e-41
4.6 1.84 0.96 3.57e-43
4.64 1.84 0.89 9.1477e-41
3.3 1.92 1.4 3.57e-43
3.34 1.92 1.41 9.1477e-41
3.38 1.92 1.41 9.1477e-41
3.42 1.92 1.44 9.1477e-41
3.46 1.92 1.44 9.1477e-41
3.5 1.92 1.45 9.1477e-41
3.54 1.92 1.44 9.1477e-41
3.57 1.92 1.44 9.1477e-41
3.61 1.92 1.44 9.1477e-41
3.65 1.92 1.44 9.1477e-41
3.69 1.92 1.43 9.1477e-41
3.72 1.92 1.44 9.1477e-41
3.76 1.92 1.44 9.1477e-41
3.8 1.92 1.44 9.1477e-41
3.83 1.92 1.42 9.1477e-41
3.87 1.92 1.43 9.1477e-41
3.91 1.92 1.43 9.1477e-41
3.95 1.92 1.44 9.1477e-41
3.98 1.92 1.43 9.1477e-41
4.02 1.92 1.43 9.1477e-41
4.06 1.92 1.43 9.1477e-41
4.09 1.92 1.43 9.1477e-41
4.17 1.92 1.43 9.1477e-41
4.21 1.92 1.43 9.1477e-41
4.24 1.92 1.41 9.1477e-41
4.28 1.92 1.41 9.1477e-41
4.32 1.92 1.4 9.1477e-41
4.36 1.92 1.39 9.1477e-41
4.39 1.92 1.39 3.57e-43
4.5 1.92 0.5 9.1477e-41
4.51 1.92 0.99 9.1477e-41
4.55 1.92 0.96 9.1477e-41
4.6 1.92 0.91 9.1477e-41
4.64 1.92 0.91 9.1477e-41
3.3 2 1.4 3.57e-43
3.34 2 1.42 9.1477e-41
3.38 2 1.41 9.1477e-41
3.42 2 1.43 9.1477e-41
3.46 2 1.43 9.1477e-41
3.5 2 1.45 9.1477e-41
3.54 2 1.44 9.1477e-41
3.58 2 1.45 9.1477e-41
3.61 2 1.44 9.1477e-41
3.65 2 1.44 9.1477e-41
3.69 2 1.44 9.1477e-41
3.73 2 1.45 9.1477e-41
3.76 2 1.44 9.1477e-41
3.8 2 1.45 9.1477e-41
3.84 2 1.44 9.1477e-41
3.87 2 1.44 9.1477e-41
3.91 2 1.45 9.1477e-41
3.95 2 1.45 9.1477e-41
3.98 2 1.45 9.1477e-41
4.02 2 1.44 9.1477e-41
4.06 2 1.44 9.1477e-41
4.09 2 1.44 9.1477e-41
4.17 2 1.43 9.1477e-41
4.21 2 1.42 9.1477e-41
4.24 2 1.43 9.1477e-41
4.28 2 1.41 9.1477e-41
4.32 2 1.41 9.1477e-41
4.36 2 1.41 9.1477e-41
4.39 2 1.41 3.57e-43
4.5 2 0.5 9.1477e-41
4.51 2 0.99 9.1477e-41
4.55 2 0.92 9.1477e-41
4.6 2 0.92 9.1477e-41
4.64 2 0.92 9.1477e-41
3.3 2.08 1.4 3.57e-43
3.35 2.08 1.44 9.1477e-41
3.39 2.08 1.43 9.1477e-41
3.43 2.08 1.45 9.1477e-41
3.46 2.08 1.44 9.1477e-41
3.5 2.08 1.46 9.1477e-41
3.54 2.08 1.45 9.1477e-41
3.58 2.08 1.46 9.1477e-41
3.61 2.08 1.45 9.1477e-41
3.65 2.08 1.45 9.1477e-41
3.69 2.08 1.44 9.1477e-41
3.73 2.08 1.46 9.1477e-41
3.76 2.08 1.45 9.1477e-41
3.8 2.08 1.46 9.1477e-41
3.84 2.08 1.45 9.1477e-41
3.87 2.08 1.44 9.1477e-41
3.91 2.08 1.44 9.1477e-41
3.95 2.08 1.46 9.1477e-41
3.98 2.08 1.45 9.1477e-41
4.02 2.08 1.45 9.1477e-41
4.06 2.08 1.44 9.1477e-41
4.09 2.08 1.44 9.1477e-41
4.17 2.08 1.43 9.1477e-41
4.21 2.08 1.43 9.1477e-41
4.24 2.08 1.43 9.1477e-41
4.28 2.08 1.42 9.1477e-41
4.32 2.08 1.42 9.1477e-41
4.36 2.08 1.42 9.1477e-41
4.39 2.08 1.42 3.57e-43
4.5 2.08 0.5 9.1477e-41
4.51 2.08 0.98 9.1477e-41
4.54 2.08 1.03 9.1477e-41
4.59 2.08 1.03 3.57e-43
4.64 2.08 0.91 9.1477e-41
3.09 2.16 0.99 3.57e-43
3.3 2.16 1.4 9.1477e-41
3.35 2.16 1.44 9.1477e-41
3.39 2.16 1.43 9.1477e-41
3.43 2.16 1.45 9.1477e-41
3.46 2.16 1.45 9.1477e-41
3.5 2.16 1.46 9.1477e-41
3.54 2.16 1.45 9.1477e-41
3.58 2.16 1.46 9.1477e-41
3.61 2.16 1.45 9.1477e-41
3.65 2.16 1.45 9.1477e-41
3.69 2.16 1.45 9.1477e-41
3.73 2.16 1.45 9.1477e-41
3.76 2.16 1.46 9.1477e-41
3.8 2.16 1.46 9.1477e-41
3.84 2.16 1.45 9.1477e-41
3.87 2.16 1.46 9.1477e-41
3.91 2.16 1.46 9.1477e-41
3.95 2.16 1.46 9.1477e-41
3.98 2.16 1.45 9.1477e-41
4.02 2.16 1.45 9.1477e-41
4.06 2.16 1.45 9.1477e-41
4.09 2.16 1.45 9.1477e-41
4.17 2.16 1.44 9.1477e-41
4.21 2.16 1.44 9.1477e-41
4.24 2.16 1.44 9.1477e-41
4.28 2.16 1.43 9.1477e-41
4.32 2.16 1.42 9.1477e-41
4.36 2.16 1.42 9.1477e-41
4.39 2.16 1.42 3.57e-43
4.5 2.16 0.5 9.1477e-41
4.48 2.16 0.5 3.57e-43
4.54 2.16 0.5 3.57e-43
4.59 2.16 0.5 3.57e-43
4.64 2.16 0.91 9.1477e-41
3.1 2.24 1.4 3.57e-43
3.35 2.24 1.44 9.1477e-41
3.39 2.24 1.43 9.1477e-41
3.42 2.24 1.44 9.1477e-41
3.46 2.24 1.45 9.1477e-41
3.5 2.24 1.45 9.1477e-41
3.54 2.24 1.47 9.1477e-41
3.58 2.24 1.46 9.1477e-41
3.62 2.24 1.46 9.1477e-41
3.65 2.24 1.46 9.1477e-41
3.69 2.24 1.45 9.1477e-41
3.73 2.24 1.46 9.1477e-41
3.76 2.24 1.46 9.1477e-41
3.8 2.24 1.46 9.1477e-41
3.84 2.24 1.44 9.1477e-41
3.87 2.24 1.45 9.1477e-41
3.91 2.24 1.45 9.1477e-41
3.95 2.24 1.46 9.1477e-41
3.98 2.24 1.46 9.1477e-41
4.02 2.24 1.44 9.1477e-41
4.06 2.24 1.45 9.1477e-41
4.09 2.24 1.44 9.1477e-41
4.17 2.24 1.45 9.1477e-41
4.21 2.24 1.43 9.1477e-41
4.24 2.24 1.45 9.1477e-41
4.28 2.24 1.43 9.1477e-41
4.32 2.24 1.41 9.1477e-41
4.36 2.24 1.41 9.1477e-41
4.39 2.24 1.43 9.1477e-41
4.43 2.24 1.43 3.57e-43
4.48 2.24 1.43 3.57e-43
4.54 2.24 1.43 3.57e-43
4.59 2.24 1.43 3.57e-43
4.64 2.24 0.91 9.1477e-41
3.1 2.32 1.4 3.57e-43
3.35 2.32 1.44 9.1477e-41
3.39 2.32 1.44 9.1477e-41
3.43 2.32 1.45 9.1477e-41
3.46 2.32 1.45 9.1477e-41
3.5 2.32 1.45 9.1477e-41
3.54 2.32 1.44 9.1477e-41
3.58 2.32 1.46 9.1477e-41
3.61 2.32 1.45 9.1477e-41
3.65 2.32 1.46 9.1477e-41
3.69 2.32 1.45 9.1477e-41
3.73 2.32 1.46 9.1477e-41
3.76 2.32 1.46 9.1477e-41
3.8 2.32 1.46 9.1477e-41
3.84 2.32 1.45 9.1477e-41
3.87 2.32 1.46 9.1477e-41
3.91 2.32 1.45 9.1477e-41
3.95 2.32 1.46 9.1477e-41
3.98 2.32 1.45 9.1477e-41
4.02 2.32 1.45 9.1477e-41
4.06 2.32 1.44 9.1477e-41
4.09 2.32 1.43 9.1477e-41
4.17 2.32 1.44 9.1477e-41
4.21 2.32 1.44 9.1477e-41
4.24 2.32 1.43 9.1477e-41
4.28 2.32 1.43 9.1477e-41
4.32 2.32 1.42 9.1477e-41
4.36 2.32 1.41 9.1477e-41
4.39 2.32 1.41 3.57e-43
4.43 2.32 1.41 3.57e-43
4.48 2.32 1.41 3.57e-43
4.54 2.32 1.03 9.1477e-41
4.59 2.32 1.03 3.57e-43
4.64 2.32 0.91 9.1477e-41
3.1 2.4 1.4 3.57e-43
3.35 2.4 1.44 9.1477e-41
3.39 2.4 1.43 9.1477e-41
3.43 2.4 1.45 9.1477e-41
3.46 2.4 1.44 9.1477e-41
3.5 2.4 1.46 9.1477e-41
3.54 2.4 1.44 9.1477e-41
3.58 2.4 1.46 9.1477e-41
3.61 2.4 1.45 9.1477e-41
3.65 2.4 1.44 9.1477e-41
3.69 2.4 1.45 9.1477e-41
3.73 2.4 1.46 9.1477e-41
3.76 2.4 1.45 9.1477e-41
3.8 2.4 1.45 9.1477e-41
3.84 2.4 1.45 9.1477e-41
3.87 2.4 1.45 9.1477e-41
3.91 2.4 1.45 9.1477e-41
3.95 2.4 1.45 9.1477e-41
3.98 2.4 1.45 9.1477e-41
4.02 2.4 1.45 9.1477e-41
4.06 2.4 1.44 9.1477e-41
4.09 2.4 1.44 9.1477e-41
4.17 2.4 1.43 9.1477e-41
4.21 2.4 1.42 9.1477e-41
4.24 2.4 1.43 9.1477e-41
4.28 2.4 1.42 9.1477e-41
4.32 2.4 1.41 9.1477e-41
4.36 2.4 1.41 3.57e-43
4.39 2.4 1.41 3.57e-43
4.43 2.4 1.41 3.57e-43
4.48 2.4 1.41 3.57e-43
4.54 2.4 1.03 9.1477e-41
4.59 2.4 1.03 3.57e-43
4.64 2.4 0.91 9.1477e-41
3.1 2.48 1.4 3.57e-43
3.35 2.48 1.43 9.1477e-41
3.39 2.48 1.43 9.1477e-41
3.42 2.48 1.43 9.1477e-41
3.46 2.48 1.45 9.1477e-41
3.5 2.48 1.45 9.1477e-41
3.54 2.48 1.45 9.1477e-41
3.58 2.48 1.46 9.1477e-41
3.61 2.48 1.45 9.1477e-41
3.65 2.48 1.45 9.1477e-41
3.69 2.48 1.45 9.1477e-41
3.73 2.48 1.45 9.1477e-41
3.76 2.48 1.45 9.1477e-41
3.8 2.48 1.45 9.1477e-41
3.84 2.48 1.45 9.1477e-41
3.87 2.48 1.45 9.1477e-41
3.91 2.48 1.45 9.1477e-41
3.95 2.48 1.45 9.1477e-41
3.98 2.48 1.45 9.1477e-41
4.02 2.48 1.45 9.1477e-41
4.06 2.48 1.44 9.1477e-41
4.09 2.48 1.44 9.1477e-41
4.17 2.48 1.44 9.1477e-41
4.21 2.48 1.43 9.1477e-41
4.24 2.48 1.43 9.1477e-41
4.28 2.48 1.41 9.1477e-41
4.32 2.48 1.41 9.1477e-41
4.36 2.48 1.41 3.57e-43
4.39 2.48 1.41 3.57e-43
4.43 2.48 1.41 3.57e-43
4.48 2.48 1.41 3.57e-43
4.54 2.48 1.03 9.1477e-41
4.59 2.48 1.03 3.57e-43
4.64 2.48 0.91 9.1477e-41
3.11 2.56 1.43 3.57e-43
3.39 2.56 1.43 9.1477e-41
3.42 2.56 1.44 9.1477e-41
3.46 2.56 1.43 9.1477e-41
3.5 2.56 1.44 9.1477e-41
3.54 2.56 1.45 9.1477e-41
3.58 2.56 1.45 9.1477e-41
3.61 2.56 1.44 9.1477e-41
3.65 2.56 1.45 9.1477e-41
3.69 2.56 1.45 9.1477e-41
3.72 2.56 1.44 9.1477e-41
3.76 2.56 1.46 9.1477e-41
3.8 2.56 1.45 9.1477e-41
3.84 2.56 1.44 9.1477e-41
3.87 2.56 1.44 9.1477e-41
3.91 2.56 1.44 9.1477e-41
3.95 2.56 1.44 9.1477e-41
3.98 2.56 1.43 9.1477e-41
4.02 2.56 1.44 9.1477e-41
4.06 2.56 1.44 9.1477e-41
4.09 2.56 1.44 9.1477e-41
4.17 2.56 1.43 9.1477e-41
4.21 2.56 1.43 9.1477e-41
4.24 2.56 1.42 9.1477e-41
4.28 2.56 1.42 9.1477e-41
4.32 2.56 1.41 9.1477e-41
4.36 2.56 1.41 3.57e-43
4.39 2.56 1.41 3.57e-43
4.43 2.56 1.41 3.57e-43
4.48 2.56 1.41 3.57e-43
4.54 2.56 1.03 9.1477e-41
4.59 2.56 1.03 3.57e-43
4.64 2.56 0.91 9.1477e-41
3.11 2.64 1.43 3.57e-43
3.38 2.64 1.42 9.1477e-41
3.42 2.64 1.43 9.1477e-41
3.46 2.64 1.43 9.1477e-41
3.5 2.64 1.43 9.1477e-41
3.54 2.64 1.44 9.1477e-41
3.58 2.64 1.45 9.1477e-41
3.61 2.64 1.43 9.1477e-41
3.65 2.64 1.44 9.1477e-41
3.69 2.64 1.43 9.1477e-41
3.72 2.64 1.44 9.1477e-41
3.76 2.64 1.44 9.1477e-41
3.8 2.64 1.44 9.1477e-41
3.84 2.64 1.43 9.1477e-41
3.87 2.64 1.44 9.1477e-41
3.91 2.64 1.44 9.1477e-41
3.95 2.64 1.43 9.1477e-41
3.98 2.64 1.44 9.1477e-41
4.02 2.64 1.44 9.1477e-41
4.06 2.64 1.43 9.1477e-41
4.09 2.64 1.43 9.1477e-41
4.17 2.64 1.43 9.1477e-41
4.21 2.64 1.42 9.1477e-41
4.24 2.64 1.42 9.1477e-41
4.28 2.64 1.41 9.1477e-41
4.32 2.64 1.4 9.1477e-41
4.36 2.64 1.4 3.57e-43
4.39 2.64 1.4 3.57e-43
4.43 2.64 1.4 3.57e-43
4.48 2.64 1.4 3.57e-43
4.54 2.64 1.03 9.1477e-41
4.59 2.64 1.03 3.57e-43
4.64 2.64 0.91 9.1477e-41
3.11 2.72 1.43 3.57e-43
3.38 2.72 1.41 9.1477e-41
3.42 2.72 1.42 9.1477e-41
3.46 2.72 1.42 9.1477e-41
3.5 2.72 1.44 9.1477e-41
3.54 2.72 1.43 9.1477e-41
3.57 2.72 1.43 9.1477e-41
3.61 2.72 1.44 9.1477e-41
3.65 2.72 1.44 9.1477e-41
3.69 2.72 1.45 9.1477e-41
3.72 2.72 1.43 9.1477e-41
3.76 2.72 1.43 9.1477e-41
3.8 2.72 1.44 9.1477e-41
3.84 2.72 1.43 9.1477e-41
3.87 2.72 1.43 9.1477e-41
3.91 2.72 1.42 9.1477e-41
3.95 2.72 1.43 9.1477e-41
3.98 2.72 1.43 9.1477e-41
4.02 2.72 1.42 9.1477e-41
4.06 2.72 1.43 9.1477e-41
4.09 2.72 1.43 9.1477e-41
4.17 2.72 1.42 9.1477e-41
4.21 2.72 1.41 9.1477e-41
4.24 2.72 1.42 9.1477e-41
4.28 2.72 1.41 9.1477e-41
4.32 2.72 1.39 9.1477e-41
4.36 2.72 1.39 3.57e-43
4.39 2.72 1.39 3.57e-43
4.43 2.72 1.39 3.57e-43
4.48 2.72 1.39 3.57e-43
4.54 2.72 1.03 9.1477e-41
4.59 2.72 1.03 3.57e-43
4.64 2.72 0.91 9.1477e-41
3.11 2.8 1.43 3.57e-43
3.38 2.8 1.4 9.1477e-41
3.42 2.8 1.41 9.1477e-41
3.46 2.8 1.41 9.1477e-41
3.5 2.8 1.42 9.1477e-41
3.54 2.8 1.42 9.1477e-41
3.57 2.8 1.43 9.1477e-41
3.61 2.8 1.42 9.1477e-41
3.65 2.8 1.43 9.1477e-41
3.69 2.8 1.42 9.1477e-41
3.72 2.8 1.43 9.1477e-41
3.76 2.8 1.43 9.1477e-41
3.8 2.8 1.44 9.1477e-41
3.83 2.8 1.42 9.1477e-41
3.87 2.8 1.42 9.1477e-41
3.91 2.8 1.42 9.1477e-41
3.95 2.8 1.42 9.1477e-41
3.98 2.8 1.42 9.1477e-41
4.02 2.8 1.43 9.1477e-41
4.06 2.8 1.41 9.1477e-41
4.09 2.8 1.42 9.1477e-41
4.17 2.8 1.42 9.1477e-41
4.21 2.8 1.41 9.1477e-41
4.24 2.8 1.4 9.1477e-41
4.28 2.8 1.4 9.1477e-41
4.32 2.8 1.39 9.1477e-41
4.36 2.8 1.39 3.57e-43
4.39 2.8 1.39 3.57e-43
4.43 2.8 1.39 3.57e-43
4.48 2.8 1.39 3.57e-43
4.54 2.8 1.03 9.1477e-41
4.59 2.8 1.03 3.57e-43
4.64 2.8 0.91 9.1477e-41
3.11 2.88 1.43 3.57e-43
3.38 2.88 1.39 9.1477e-41
3.42 2.88 1.39 9.1477e-41
3.46 2.88 1.41 9.1477e-41
3.5 2.88 1.42 9.1477e-41
3.54 2.88 1.42 9.1477e-41
3.57 2.88 1.43 9.1477e-41
3.61 2.88 1.41 9.1477e-41
3.65 2.88 1.43 9.1477e-41
3.68 2.88 1.41 9.1477e-41
3.72 2.88 1.42 9.1477e-41
3.76 2.88 1.42 9.1477e-41
3.8 2.88 1.42 9.1477e-41
3.83 2.88 1.42 9.1477e-41
3.87 2.88 1.43 9.1477e-41
3.91 2.88 1.41 9.1477e-41
3.95 2.88 1.42 9.1477e-41
3.98 2.88 1.42 9.1477e-41
4.02 2.88 1.41 9.1477e-41
4.06 2.88 1.41 9.1477e-41
4.09 2.88 1.41 9.1477e-41
4.17 2.88 1.4 9.1477e-41
4.21 2.88 1.4 9.1477e-41
4.24 2.88 1.39 9.1477e-41
4.28 2.88 1.39 9.1477e-41
4.32 2.88 1.37 9.1477e-41
4.36 2.88 1.37 3.57e-43
4.39 2.88 1.37 3.57e-43
4.43 2.88 1.37 3.57e-43
4.48 2.88 1.37 3.57e-43
4.54 2.88 1.37 3.57e-43
4.59 2.88 1.37 3.57e-43
4.64 2.88 0.91 9.1477e-41
3.11 2.96 1.43 3.57e-43
3.38 2.96 1.39 9.1477e-41
3.42 2.96 1.39 3.57e-43
3.46 2.96 1.41 9.1477e-41
3.49 2.96 1.41 3.57e-43
3.54 2.96 1.42 9.1477e-41
3.57 2.96 1.41 9.1477e-41
3.61 2.96 1.4 9.1477e-41
3.65 2.96 1.4 9.1477e-41
3.68 2.96 1.4 9.1477e-41
3.72 2.96 1.4 9.1477e-41
3.76 2.96 1.42 9.1477e-41
3.8 2.96 1.41 9.1477e-41
3.83 2.96 1.39 9.1477e-41
3.87 2.96 1.41 9.1477e-41
3.91 2.96 1.4 9.1477e-41
3.95 2.96 1.41 9.1477e-41
3.98 2.96 1.4 9.1477e-41
4.02 2.96 1.41 9.1477e-41
4.06 2.96 1.4 9.1477e-41
4.09 2.96 1.4 9.1477e-41
4.17 2.96 1.38 9.1477e-41
4.21 2.96 1.38 9.1477e-41
4.25 2.96 1.37 9.1477e-41
4.28 2.96 1.38 9.1477e-41
4.32 2.96 1.36 9.1477e-41
4.36 2.96 1.36 3.57e-43
4.39 2.96 1.36 3.57e-43
4.43 2.96 1.36 3.57e-43
4.48 2.96 1.36 3.57e-43
4.54 2.96 1.36 3.57e-43
4.59 2.96 1.36 3.57e-43
4.64 2.96 0.91 9.1477e-41
3.11 3.04 1.43 3.57e-43
3.38 3.04 1.37 9.1477e-41
3.41 3.04 1.37 9.1477e-41
3.45 3.04 1.35 9.1477e-41
3.49 3.04 1.35 3.57e-43
3.54 3.04 1.42 9.1477e-41
3.57 3.04 1.38 9.1477e-41
3.61 3.04 1.39 9.1477e-41
3.65 3.04 1.4 9.1477e-41
3.68 3.04 1.38 9.1477e-41
3.72 3.04 1.4 9.1477e-41
3.76 3.04 1.4 9.1477e-41
3.8 3.04 1.4 9.1477e-41
3.83 3.04 1.38 9.1477e-41
3.87 3.04 1.39 9.1477e-41
3.91 3.04 1.39 9.1477e-41
3.95 3.04 1.39 9.1477e-41
3.98 3.04 1.39 9.1477e-41
4.02 3.04 1.4 9.1477e-41
4.06 3.04 1.39 9.1477e-41
4.09 3.04 1.39 9.1477e-41
4.17 3.04 1.38 9.1477e-41
4.21 3.04 1.38 9.1477e-41
4.25 3.04 1.37 9.1477e-41
4.28 3.04 1.35 9.1477e-41
4.32 3.04 1.35 3.57e-43
4.36 3.04 1.35 3.57e-43
4.39 3.04 1.35 3.57e-43
4.43 3.04 1.35 3.57e-43
4.48 3.04 1.35 3.57e-43
4.54 3.04 1.35 3.57e-43
4.59 3.04 1.35 3.57e-43
4.64 3.04 0.91 9.1477e-41
3.11 3.12 1.35 3.57e-43
3.49 3.12 1.37 9.1477e-41
3.53 3.12 1.38 9.1477e-41
3.57 3.12 1.4 9.1477e-41
3.61 3.12 1.38 9.1477e-41
3.64 3.12 1.39 9.1477e-41
3.68 3.12 1.37 9.1477e-41
3.72 3.12 1.38 9.1477e-41
3.76 3.12 1.39 9.1477e-41
3.8 3.12 1.39 9.1477e-41
3.83 3.12 1.37 9.1477e-41
3.87 3.12 1.38 9.1477e-41
3.91 3.12 1.37 9.1477e-41
3.94 3.12 1.38 9.1477e-41
3.98 3.12 1.38 9.1477e-41
4.02 3.12 1.37 9.1477e-41
4.06 3.12 1.37 9.1477e-41
4.09 3.12 1.38 9.1477e-41
4.17 3.12 1.37 9.1477e-41
4.21 3.12 1.37 9.1477e-41
4.25 3.12 1.36 9.1477e-41
4.28 3.12 1.36 3.57e-43
4.32 3.12 1.36 3.57e-43
4.36 3.12 1.36 3.57e-43
4.39 3.12 1.36 3.57e-43
4.43 3.12 1.36 3.57e-43
4.48 3.12 1.36 3.57e-43
4.54 3.12 1.36 3.57e-43
4.59 3.12 1.36 3.57e-43
4.64 3.12 0.91 9.1477e-41
3.11 3.2 1.4 3.57e-43
3.59 3.2 1.4 3.57e-43
3.64 3.2 1.39 9.1477e-41
3.67 3.2 1.27 9.1477e-41
3.71 3.2 1.26 9.1477e-41
3.75 3.2 1.26 9.1477e-41
3.79 3.2 1.26 3.57e-43
3.83 3.2 1.37 9.1477e-41
3.86 3.2 1.37 3.57e-43
3.91 3.2 1.37 3.57e-43
3.94 3.2 1.37 3.57e-43
3.98 3.2 1.37 3.57e-43
4.02 3.2 1.37 3.57e-43
4.06 3.2 1.37 3.57e-43
4.09 3.2 1.37 3.57e-43
4.13 3.2 1.37 3.57e-43
4.17 3.2 1.37 3.57e-43
4.21 3.2 1.37 3.57e-43
4.25 3.2 1.37 3.57e-43
4.28 3.2 1.37 3.57e-43
4.32 3.2 1.37 3.57e-43
4.36 3.2 1.37 3.57e-43
4.39 3.2 1.37 3.57e-43
4.43 3.2 1.37 3.57e-43
4.48 3.2 1.37 3.57e-43
4.54 3.2 1.37 3.57e-43
4.59 3.2 1.37 3.57e-43
4.64 3.2 0.91 9.1477e-41
3.35 3.28 1.26 3.57e-43
3.74 3.28 1.26 3.57e-43
3.79 3.28 1.26 9.1477e-41
3.82 3.28 1.17 9.1477e-41
3.86 3.28 1.18 9.1477e-41
3.9 3.28 1.13 9.1477e-41
3.94 3.28 1.13 3.57e-43
3.98 3.28 1.13 3.57e-43
4.02 3.28 1.13 3.57e-43
4.06 3.28 1.13 3.57e-43
4.09 3.28 1.13 3.57e-43
4.13 3.28 1.13 3.57e-43
4.17 3.28 1.13 3.57e-43
4.21 3.28 1.13 3.57e-43
4.25 3.28 1.13 3.57e-43
4.28 3.28 1.13 3.57e-43
4.32 3.28 1.13 3.57e-43
4.36 3.28 1.13 3.57e-43
4.39 3.28 1.13 3.57e-43
4.43 3.28 1.13 3.57e-43
4.48 3.28 1.13 3.57e-43
4.54 3.28 1.13 3.57e-43
4.59 3.28 1 9.1477e-41
3.9 3.36 1 3.57e-43
3.93 3.36 0.97 9.1477e-41
3.97 3.36 0.97 3.57e-43
4.02 3.36 0.97 3.57e-43
4.06 3.36 0.97 3.57e-43
4.09 3.36 0.97 3.57e-43
4.13 3.36 0.97 3.57e-43
4.17 3.36 0.97 3.57e-43
4.21 3.36 0.97 3.57e-43
4.25 3.36 0.97 3.57e-43
4.28 3.36 0.97 3.57e-43
4.32 3.36 0.97 3.57e-43
4.36 3.36 0.97 3.57e-43
4.39 3.36 0.97 3.57e-43
4.43 3.36 0.97 3.57e-43
4.48 3.36 0.97 3.57e-43
4.54 3.36 1.03 9.1477e-41
4.6 3.36 0.92 9.1477e-41
3.06 3.44 0.82 9.1477e-41
3.13 3.44 0.82 3.57e-43
3.18 3.44 0.99 9.1477e-41
3.23 3.44 1 9.1477e-41
3.27 3.44 1 3.57e-43
3.38 3.44 1 3.57e-43
3.41 3.44 1 3.57e-43
3.45 3.44 1 3.57e-43
3.49 3.44 1 3.57e-43
3.53 3.44 1 3.57e-43
3.57 3.44 1 3.57e-43
3.59 3.44 1 3.57e-43
3.64 3.44 1 3.57e-43
3.67 3.44 1 3.57e-43
3.71 3.44 1 3.57e-43
3.74 3.44 1 3.57e-43
3.79 3.44 1 3.57e-43
3.82 3.44 1 3.57e-43
3.86 3.44 1 3.57e-43
3.9 3.44 1 3.57e-43
3.93 3.44 1 3.57e-43
3.97 3.44 1 3.57e-43
4.02 3.44 1 3.57e-43
4.06 3.44 1 3.57e-43
4.09 3.44 1 3.57e-43
4.13 3.44 1 3.57e-43
4.17 3.44 1 3.57e-43
4.21 3.44 1 3.57e-43
4.25 3.44 1 3.57e-43
4.28 3.44 1 3.57e-43
4.32 3.44 1 3.57e-43
4.36 3.44 1 3.57e-43
4.39 3.44 1.41 9.1477e-41
4.47 3.44 1.41 3.57e-43
4.48 3.44 1.29 9.1477e-41
4.55 3.44 0.93 9.1477e-41
4.6 3.44 0.88 9.1477e-41
3.13 3.52 0.91 9.1477e-41
3.15 3.52 0.84 9.1477e-41
3.21 3.52 0.84 3.57e-43
3.27 3.52 0.84 3.57e-43
3.38 3.52 0.84 3.57e-43
3.41 3.52 1.37 9.1477e-41
3.39 3.52 0.98 9.1477e-41
3.44 3.52 0.99 9.1477e-41
3.48 3.52 1.02 9.1477e-41
3.53 3.52 1.04 9.1477e-41
3.57 3.52 1.04 9.1477e-41
3.61 3.52 1.04 9.1477e-41
3.65 3.52 1.03 9.1477e-41
3.69 3.52 1.03 9.1477e-41
3.73 3.52 1.02 9.1477e-41
3.77 3.52 1.02 3.57e-43
3.82 3.52 1.02 3.57e-43
3.86 3.52 1.02 3.57e-43
3.9 3.52 1.02 3.57e-43
3.93 3.52 1.02 3.57e-43
3.97 3.52 1.02 3.57e-43
4.02 3.52 1.02 3.57e-43
4.06 3.52 1.02 3.57e-43
4.09 3.52 1.02 3.57e-43
4.13 3.52 1.02 3.57e-43
4.17 3.52 1.02 3.57e-43
4.21 3.52 1.37 9.1477e-41
4.26 3.52 0.98 9.1477e-41
4.3 3.52 0.96 9.1477e-41
4.34 3.52 0.97 9.1477e-41
4.38 3.52 0.97 3.57e-43
4.39 3.52 0.97 3.57e-43
4.47 3.52 0.98 9.1477e-41
4.52 3.52 0.83 9.1477e-41
4.56 3.52 0.82 9.1477e-41
4.61 3.52 0.76 9.1477e-41
3.16 3.6 0.64 9.1477e-41
3.22 3.6 0.7 9.1477e-41
3.27 3.6 0.74 9.1477e-41
3.32 3.6 0.79 9.1477e-41
3.37 3.6 0.79 3.57e-43
3.44 3.6 0.79 3.57e-43
3.48 3.6 0.79 3.57e-43
3.53 3.6 0.79 3.57e-43
3.57 3.6 0.79 3.57e-43
3.61 3.6 0.79 3.57e-43
3.65 3.6 0.79 3.57e-43
3.69 3.6 0.79 3.57e-43
3.73 3.6 0.79 3.57e-43
3.77 3.6 0.79 3.57e-43
3.82 3.6 0.79 3.57e-43
3.86 3.6 0.79 3.57e-43
3.9 3.6 0.79 3.57e-43
3.93 3.6 0.79 3.57e-43
3.97 3.6 0.79 3.57e-43
4.02 3.6 0.79 3.57e-43
4.06 3.6 0.79 3.57e-43
4.09 3.6 0.79 3.57e-43
4.13 3.6 0.79 3.57e-43
4.17 3.6 0.79 3.57e-43
4.21 3.6 0.79 3.57e-43
4.26 3.6 0.79 3.57e-43
4.3 3.6 0.79 3.57e-43
4.34 3.6 0.97 9.1477e-41
4.39 3.6 0.83 9.1477e-41
4.44 3.6 0.77 9.1477e-41
4.48 3.6 0.74 9.1477e-41
4.53 3.6 0.74 3.57e-43
4.56 3.6 0.82 9.1477e-41
3.26 3.68 0.42 9.1477e-41
3.33 3.68 0.55 9.1477e-41
3.38 3.68 0.59 9.1477e-41
3.43 3.68 0.63 9.1477e-41
3.47 3.68 0.62 9.1477e-41
3.52 3.68 0.63 9.1477e-41
3.57 3.68 0.63 9.1477e-41
3.62 3.68 0.71 9.1477e-41
3.66 3.68 0.68 9.1477e-41
3.7 3.68 0.69 9.1477e-41
3.75 3.68 0.69 9.1477e-41
3.79 3.68 0.68 9.1477e-41
3.83 3.68 0.67 9.1477e-41
3.88 3.68 0.68 9.1477e-41
3.92 3.68 0.68 9.1477e-41
3.96 3.68 0.68 9.1477e-41
4.01 3.68 0.68 9.1477e-41
4.05 3.68 0.69 9.1477e-41
4.09 3.68 0.68 9.1477e-41
4.18 3.68 0.7 9.1477e-41
4.23 3.68 0.68 9.1477e-41
4.27 3.68 0.68 3.57e-43
4.3 3.68 0.68 3.57e-43
4.34 3.68 0.97 9.1477e-41
4.41 3.68 0.56 9.1477e-41
4.46 3.68 0.5 9.1477e-41
