# .PCD v.7 - Point Cloud Data file format
VERSION .7
FIELDS x y z rgb
SIZE 4 4 4 4
TYPE F F F F
WIDTH 1893
HEIGHT 1
POINTS 1893
DATA ascii
1.96 0 0.52 9.1477e-41
2.03 0 0.56 9.1477e-41
2.08 0 0.55 9.1477e-41
2.13 0 0.57 9.1477e-41
2.19 0 0.57 9.1477e-41
2.23 0 0.56 9.1477e-41
2.29 0 0.57 9.1477e-41
2.34 0 0.57 3.57e-43
2.21 0 0.57 3.57e-43
2.49 0 0.58 9.1477e-41
2.53 0 0.57 9.1477e-41
2.58 0 0.55 9.1477e-41
2.62 0 0.54 9.1477e-41
2.67 0 0.55 9.1477e-41
2.72 0 0.55 9.1477e-41
2.76 0 0.52 9.1477e-41
2.8 0 0.47 9.1477e-41
1.78 0.07 0.48 9.1477e-41
1.88 0.07 0.59 9.1477e-41
1.99 0.07 0.7 9.1477e-41
2.04 0.07 0.72 9.1477e-41
2.09 0.07 0.72 9.1477e-41
2.15 0.07 0.73 9.1477e-41
2.2 0.07 0.74 9.1477e-41
2.25 0.07 0.74 9.1477e-41
2.3 0.07 0.73 9.1477e-41
2.34 0.07 0.73 9.1477e-41
2.4 0.07 0.74 9.1477e-41
2.44 0.07 0.73 9.1477e-41
2.49 0.07 0.73 9.1477e-41
2.53 0.07 0.73 9.1477e-41
2.58 0.07 0.71 9.1477e-41
2.62 0.07 0.71 9.1477e-41
2.67 0.07 0.71 9.1477e-41
2.71 0.07 0.69 9.1477e-41
2.76 0.07 0.7 9.1477e-41
2.8 0.07 0.68 9.1477e-41
2.83 0.07 0.61 9.1477e-41
2.87 0.07 0.56 9.1477e-41
2.92 0.07 0.57 9.1477e-41
2.96 0.07 0.54 9.1477e-41
1.79 0.14 0.62 9.1477e-41
1.9 0.14 0.75 9.1477e-41
1.95 0.14 0.74 9.1477e-41
2.01 0.14 0.76 9.1477e-41
2.06 0.14 0.77 9.1477e-41
2.11 0.14 0.77 9.1477e-41
2.16 0.14 0.77 9.1477e-41
2.21 0.14 0.77 9.1477e-41
2.27 0.14 0.79 9.1477e-41
2.32 0.14 0.79 9.1477e-41
2.36 0.14 0.78 9.1477e-41
2.41 0.14 0.78 9.1477e-41
2.46 0.14 0.78 9.1477e-41
2.5 0.14 0.78 9.1477e-41
2.55 0.14 0.77 9.1477e-41
2.6 0.14 0.77 9.1477e-41
2.64 0.14 0.76 9.1477e-41
2.69 0.14 0.76 9.1477e-41
2.73 0.14 0.75 9.1477e-41
2.77 0.14 0.73 9.1477e-41
2.82 0.14 0.74 9.1477e-41
2.86 0.14 0.72 9.1477e-41
2.9 0.14 0.69 9.1477e-41
2.92 0.14 0.6 9.1477e-41
2.97 0.14 0.6 9.1477e-41
3.01 0.14 0.57 9.1477e-41
3.05 0.14 0.56 9.1477e-41
3.07 0.14 0.41 9.1477e-41
1.77 0.21 0.7 9.1477e-41
1.86 0.21 0.78 9.1477e-41
1.92 0.21 0.79 9.1477e-41
1.97 0.21 0.79 9.1477e-41
2.02 0.21 0.8 9.1477e-41
2.08 0.21 0.81 9.1477e-41
2.13 0.21 0.82 9.1477e-41
2.18 0.21 0.82 9.1477e-41
2.23 0.21 0.82 9.1477e-41
2.28 0.21 0.82 9.1477e-41
2.33 0.21 0.82 9.1477e-41
2.38 0.21 0.82 9.1477e-41
2.42 0.21 0.82 9.1477e-41
2.47 0.21 0.82 9.1477e-41
2.52 0.21 0.82 9.1477e-41
2.56 0.21 0.81 9.1477e-41
2.61 0.21 0.81 9.1477e-41
2.65 0.21 0.8 9.1477e-41
2.7 0.21 0.8 9.1477e-41
2.74 0.21 0.79 9.1477e-41
2.79 0.21 0.79 9.1477e-41
2.83 0.21 0.78 9.1477e-41
2.87 0.21 0.77 9.1477e-41
2.91 0.21 0.75 9.1477e-41
2.96 0.21 0.75 9.1477e-41
2.99 0.21 0.71 9.1477e-41
3.02 0.21 0.6 9.1477e-41
3.06 0.21 0.6 9.1477e-41
3.11 0.21 0.59 9.1477e-41
3.15 0.21 0.55 9.1477e-41
1.77 0.28 0.81 9.1477e-41
1.83 0.28 0.81 9.1477e-41
1.88 0.28 0.82 9.1477e-41
1.93 0.28 0.81 9.1477e-41
1.99 0.28 0.82 9.1477e-41
2.04 0.28 0.83 9.1477e-41
2.09 0.28 0.83 9.1477e-41
2.14 0.28 0.84 9.1477e-41
2.19 0.28 0.85 9.1477e-41
2.24 0.28 0.85 9.1477e-41
2.29 0.28 0.84 9.1477e-41
2.34 0.28 0.84 9.1477e-41
2.39 0.28 0.85 9.1477e-41
2.43 0.28 0.85 9.1477e-41
2.48 0.28 0.84 9.1477e-41
2.53 0.28 0.84 9.1477e-41
2.57 0.28 0.84 9.1477e-41
2.62 0.28 0.84 9.1477e-41
2.66 0.28 0.84 9.1477e-41
2.7 0.28 0.82 9.1477e-41
2.75 0.28 0.82 9.1477e-41
2.79 0.28 0.81 9.1477e-41
2.84 0.28 0.81 9.1477e-41
2.88 0.28 0.79 9.1477e-41
2.92 0.28 0.78 9.1477e-41
2.97 0.28 0.78 9.1477e-41
3.01 0.28 0.77 9.1477e-41
3.05 0.28 0.74 9.1477e-41
3.06 0.28 0.74 3.57e-43
3.11 0.28 0.59 9.1477e-41
3.15 0.28 0.6 9.1477e-41
3.2 0.28 0.57 9.1477e-41
1.73 0.35 0.82 9.1477e-41
1.79 0.35 0.84 9.1477e-41
1.84 0.35 0.84 9.1477e-41
1.89 0.35 0.83 9.1477e-41
1.95 0.35 0.85 9.1477e-41
2 0.35 0.85 9.1477e-41
2.05 0.35 0.85 9.1477e-41
2.1 0.35 0.86 9.1477e-41
2.15 0.35 0.86 9.1477e-41
2.2 0.35 0.86 9.1477e-41
2.25 0.35 0.87 9.1477e-41
2.3 0.35 0.87 9.1477e-41
2.35 0.35 0.87 9.1477e-41
2.4 0.35 0.88 9.1477e-41
2.44 0.35 0.87 9.1477e-41
2.49 0.35 0.87 9.1477e-41
2.53 0.35 0.87 9.1477e-41
2.58 0.35 0.86 9.1477e-41
2.62 0.35 0.86 9.1477e-41
2.67 0.35 0.85 9.1477e-41
2.71 0.35 0.85 9.1477e-41
2.75 0.35 0.84 9.1477e-41
2.8 0.35 0.84 9.1477e-41
2.84 0.35 0.83 9.1477e-41
2.89 0.35 0.82 9.1477e-41
2.93 0.35 0.8 9.1477e-41
2.97 0.35 0.81 9.1477e-41
3.02 0.35 0.81 9.1477e-41
3.06 0.35 0.79 9.1477e-41
3.09 0.35 0.75 9.1477e-41
3.12 0.35 0.67 9.1477e-41
3.16 0.35 0.64 9.1477e-41
3.2 0.35 0.64 3.57e-43
1.75 0.42 0.87 9.1477e-41
1.8 0.42 0.86 9.1477e-41
1.85 0.42 0.85 9.1477e-41
1.9 0.42 0.85 9.1477e-41
1.96 0.42 0.87 9.1477e-41
2.01 0.42 0.87 9.1477e-41
2.06 0.42 0.88 9.1477e-41
2.11 0.42 0.89 9.1477e-41
2.16 0.42 0.88 9.1477e-41
2.21 0.42 0.88 9.1477e-41
2.26 0.42 0.9 9.1477e-41
2.31 0.42 0.89 9.1477e-41
2.35 0.42 0.89 9.1477e-41
2.4 0.42 0.9 9.1477e-41
2.45 0.42 0.89 9.1477e-41
2.5 0.42 0.9 9.1477e-41
2.54 0.42 0.88 9.1477e-41
2.58 0.42 0.88 9.1477e-41
2.63 0.42 0.87 9.1477e-41
2.67 0.42 0.87 9.1477e-41
2.71 0.42 0.86 9.1477e-41
2.76 0.42 0.87 9.1477e-41
2.81 0.42 0.86 9.1477e-41
2.85 0.42 0.84 9.1477e-41
2.89 0.42 0.85 9.1477e-41
2.93 0.42 0.84 9.1477e-41
2.98 0.42 0.83 9.1477e-41
3.02 0.42 0.82 9.1477e-41
3.07 0.42 0.83 9.1477e-41
3.11 0.42 0.81 9.1477e-41
3.15 0.42 0.81 9.1477e-41
3.18 0.42 0.75 9.1477e-41
3.21 0.42 0.67 9.1477e-41
3.24 0.42 0.58 9.1477e-41
1.7 0.49 0.87 9.1477e-41
1.75 0.49 0.88 9.1477e-41
1.81 0.49 0.88 9.1477e-41
1.85 0.49 0.86 9.1477e-41
1.91 0.49 0.89 9.1477e-41
1.97 0.49 0.9 9.1477e-41
2.02 0.49 0.9 9.1477e-41
2.07 0.49 0.9 9.1477e-41
2.12 0.49 0.9 9.1477e-41
2.17 0.49 0.9 9.1477e-41
2.22 0.49 0.91 9.1477e-41
2.26 0.49 0.9 9.1477e-41
2.31 0.49 0.91 9.1477e-41
2.36 0.49 0.9 9.1477e-41
2.41 0.49 0.91 9.1477e-41
2.45 0.49 0.9 9.1477e-41
2.5 0.49 0.9 9.1477e-41
2.54 0.49 0.9 9.1477e-41
2.59 0.49 0.89 9.1477e-41
2.63 0.49 0.89 9.1477e-41
2.68 0.49 0.89 9.1477e-41
2.72 0.49 0.89 9.1477e-41
2.76 0.49 0.88 9.1477e-41
2.81 0.49 0.87 9.1477e-41
2.86 0.49 0.88 9.1477e-41
2.9 0.49 0.87 9.1477e-41
2.94 0.49 0.86 9.1477e-41
2.98 0.49 0.85 9.1477e-41
3.03 0.49 0.85 9.1477e-41
3.07 0.49 0.84 9.1477e-41
3.11 0.49 0.84 9.1477e-41
3.15 0.49 0.82 9.1477e-41
3.19 0.49 0.77 9.1477e-41
3.22 0.49 0.72 9.1477e-41
3.25 0.49 0.64 9.1477e-41
3.28 0.49 0.5 9.1477e-41
1.71 0.56 0.9 9.1477e-41
1.77 0.56 0.9 9.1477e-41
1.82 0.56 0.9 9.1477e-41
1.86 0.56 0.89 9.1477e-41
1.92 0.56 0.91 9.1477e-41
1.97 0.56 0.91 9.1477e-41
2.03 0.56 0.92 9.1477e-41
2.07 0.56 0.91 9.1477e-41
2.13 0.56 0.93 9.1477e-41
2.17 0.56 0.92 9.1477e-41
2.22 0.56 0.92 9.1477e-41
2.27 0.56 0.93 9.1477e-41
2.32 0.56 0.93 9.1477e-41
2.37 0.56 0.93 9.1477e-41
2.41 0.56 0.91 9.1477e-41
2.46 0.56 0.93 9.1477e-41
2.5 0.56 0.91 9.1477e-41
2.55 0.56 0.91 9.1477e-41
2.6 0.56 0.93 9.1477e-41
2.63 0.56 0.89 9.1477e-41
2.68 0.56 0.91 9.1477e-41
2.73 0.56 0.91 9.1477e-41
2.77 0.56 0.91 9.1477e-41
2.81 0.56 0.89 9.1477e-41
2.86 0.56 0.88 9.1477e-41
2.9 0.56 0.89 9.1477e-41
2.94 0.56 0.88 9.1477e-41
2.99 0.56 0.87 9.1477e-41
3.03 0.56 0.87 9.1477e-41
3.07 0.56 0.87 9.1477e-41
3.12 0.56 0.86 9.1477e-41
3.16 0.56 0.85 9.1477e-41
3.19 0.56 0.81 9.1477e-41
3.23 0.56 0.75 9.1477e-41
3.26 0.56 0.69 9.1477e-41
3.29 0.56 0.59 9.1477e-41
1.62 0.63 0.82 9.1477e-41
1.72 0.63 0.91 9.1477e-41
1.77 0.63 0.91 9.1477e-41
1.82 0.63 0.91 9.1477e-41
1.88 0.63 0.92 9.1477e-41
1.93 0.63 0.92 9.1477e-41
1.98 0.63 0.92 9.1477e-41
2.03 0.63 0.92 9.1477e-41
2.09 0.63 0.94 9.1477e-41
2.13 0.63 0.94 9.1477e-41
2.18 0.63 0.94 9.1477e-41
2.23 0.63 0.94 9.1477e-41
2.28 0.63 0.94 9.1477e-41
2.32 0.63 0.94 9.1477e-41
2.37 0.63 0.94 9.1477e-41
2.42 0.63 0.93 9.1477e-41
2.46 0.63 0.94 9.1477e-41
2.51 0.63 0.93 9.1477e-41
2.55 0.63 0.93 9.1477e-41
2.6 0.63 0.94 9.1477e-41
2.64 0.63 0.93 9.1477e-41
2.69 0.63 0.93 9.1477e-41
2.73 0.63 0.93 9.1477e-41
2.77 0.63 0.91 9.1477e-41
2.82 0.63 0.91 9.1477e-41
2.86 0.63 0.9 9.1477e-41
2.9 0.63 0.9 9.1477e-41
2.95 0.63 0.89 9.1477e-41
2.99 0.63 0.88 9.1477e-41
3.03 0.63 0.88 9.1477e-41
3.08 0.63 0.88 9.1477e-41
3.12 0.63 0.88 9.1477e-41
3.16 0.63 0.86 9.1477e-41
3.19 0.63 0.81 9.1477e-41
3.23 0.63 0.77 9.1477e-41
3.27 0.63 0.73 9.1477e-41
3.28 0.63 0.56 9.1477e-41
1.66 0.7 0.9 9.1477e-41
1.73 0.7 0.92 9.1477e-41
1.78 0.7 0.92 9.1477e-41
1.83 0.7 0.92 9.1477e-41
1.88 0.7 0.94 9.1477e-41
1.94 0.7 0.94 9.1477e-41
1.98 0.7 0.93 9.1477e-41
2.04 0.7 0.94 9.1477e-41
2.09 0.7 0.94 9.1477e-41
2.14 0.7 0.94 9.1477e-41
2.18 0.7 0.95 9.1477e-41
2.23 0.7 0.95 9.1477e-41
2.28 0.7 0.95 9.1477e-41
2.33 0.7 0.94 9.1477e-41
2.37 0.7 0.95 9.1477e-41
2.42 0.7 0.94 9.1477e-41
2.47 0.7 0.95 9.1477e-41
2.51 0.7 0.94 9.1477e-41
2.56 0.7 0.95 9.1477e-41
2.6 0.7 0.94 9.1477e-41
2.65 0.7 0.94 9.1477e-41
2.69 0.7 0.95 9.1477e-41
2.73 0.7 0.93 9.1477e-41
2.78 0.7 0.94 9.1477e-41
2.82 0.7 0.91 9.1477e-41
2.87 0.7 0.93 9.1477e-41
2.91 0.7 0.92 9.1477e-41
2.95 0.7 0.91 9.1477e-41
2.99 0.7 0.91 9.1477e-41
3.03 0.7 0.89 9.1477e-41
3.08 0.7 0.9 9.1477e-41
3.12 0.7 0.89 9.1477e-41
3.16 0.7 0.88 9.1477e-41
3.2 0.7 0.84 9.1477e-41
3.23 0.7 0.78 9.1477e-41
3.27 0.7 0.74 9.1477e-41
3.27 0.7 0.48 9.1477e-41
1.68 0.77 0.94 9.1477e-41
1.73 0.77 0.93 9.1477e-41
1.78 0.77 0.94 9.1477e-41
1.84 0.77 0.95 9.1477e-41
1.89 0.77 0.95 9.1477e-41
1.95 0.77 0.96 9.1477e-41
2 0.77 0.96 9.1477e-41
2.05 0.77 0.96 9.1477e-41
2.09 0.77 0.96 9.1477e-41
2.14 0.77 0.96 9.1477e-41
2.19 0.77 0.96 9.1477e-41
2.24 0.77 0.96 9.1477e-41
2.29 0.77 0.96 9.1477e-41
2.33 0.77 0.96 9.1477e-41
2.38 0.77 0.97 9.1477e-41
2.43 0.77 0.96 9.1477e-41
2.47 0.77 0.96 9.1477e-41
2.51 0.77 0.95 9.1477e-41
2.56 0.77 0.96 9.1477e-41
2.61 0.77 0.95 9.1477e-41
2.65 0.77 0.95 9.1477e-41
2.69 0.77 0.95 9.1477e-41
2.74 0.77 0.95 9.1477e-41
2.78 0.77 0.94 9.1477e-41
2.83 0.77 0.94 9.1477e-41
2.87 0.77 0.94 9.1477e-41
2.91 0.77 0.93 9.1477e-41
2.96 0.77 0.93 9.1477e-41
3 0.77 0.92 9.1477e-41
3.04 0.77 0.92 9.1477e-41
3.08 0.77 0.92 9.1477e-41
3.13 0.77 0.91 9.1477e-41
3.17 0.77 0.89 9.1477e-41
3.2 0.77 0.85 9.1477e-41
3.23 0.77 0.79 9.1477e-41
3.27 0.77 0.75 9.1477e-41
3.3 0.77 0.64 9.1477e-41
1.69 0.84 0.95 9.1477e-41
1.74 0.84 0.96 9.1477e-41
1.79 0.84 0.96 9.1477e-41
1.85 0.84 0.96 9.1477e-41
1.9 0.84 0.97 9.1477e-41
1.95 0.84 0.97 9.1477e-41
2 0.84 0.98 9.1477e-41
2.05 0.84 0.97 9.1477e-41
2.1 0.84 0.97 9.1477e-41
2.14 0.84 0.96 9.1477e-41
2.18 0.84 0.95 9.1477e-41
2.23 0.84 0.94 9.1477e-41
2.27 0.84 0.93 9.1477e-41
2.32 0.84 0.94 9.1477e-41
2.38 0.84 0.96 9.1477e-41
2.43 0.84 0.96 9.1477e-41
2.47 0.84 0.97 9.1477e-41
2.52 0.84 0.96 9.1477e-41
2.57 0.84 0.97 9.1477e-41
2.61 0.84 0.96 9.1477e-41
2.65 0.84 0.96 9.1477e-41
2.7 0.84 0.96 9.1477e-41
2.74 0.84 0.96 9.1477e-41
2.79 0.84 0.96 9.1477e-41
2.83 0.84 0.96 9.1477e-41
2.87 0.84 0.95 9.1477e-41
2.92 0.84 0.96 9.1477e-41
2.96 0.84 0.95 9.1477e-41
3 0.84 0.94 9.1477e-41
3.04 0.84 0.93 9.1477e-41
3.09 0.84 0.94 9.1477e-41
3.13 0.84 0.92 9.1477e-41
3.17 0.84 0.91 9.1477e-41
3.2 0.84 0.87 9.1477e-41
3.24 0.84 0.8 9.1477e-41
3.27 0.84 0.75 9.1477e-41
3.29 0.84 0.61 9.1477e-41
1.7 0.91 0.97 9.1477e-41
1.75 0.91 0.98 9.1477e-41
1.81 0.91 0.98 9.1477e-41
1.86 0.91 0.98 9.1477e-41
1.89 0.91 0.94 9.1477e-41
1.93 0.91 0.93 9.1477e-41
1.99 0.91 0.93 3.57e-43
2.05 0.91 0.97 9.1477e-41
2.09 0.91 0.95 9.1477e-41
2.14 0.91 0.95 3.57e-43
2.18 0.91 0.95 3.57e-43
2.23 0.91 0.95 3.57e-43
2.27 0.91 0.95 3.57e-43
2.32 0.91 0.95 3.57e-43
2.38 0.91 0.95 3.57e-43
2.43 0.91 0.95 3.57e-43
2.47 0.91 0.95 3.57e-43
2.52 0.91 0.95 3.57e-43
2.57 0.91 0.97 9.1477e-41
2.61 0.91 0.95 9.1477e-41
2.65 0.91 0.94 9.1477e-41
2.69 0.91 0.95 9.1477e-41
2.74 0.91 0.95 9.1477e-41
2.78 0.91 0.93 9.1477e-41
2.83 0.91 0.95 9.1477e-41
2.88 0.91 0.97 9.1477e-41
2.92 0.91 0.96 9.1477e-41
2.96 0.91 0.96 9.1477e-41
3.01 0.91 0.96 9.1477e-41
3.05 0.91 0.94 9.1477e-41
3.09 0.91 0.95 9.1477e-41
3.13 0.91 0.95 9.1477e-41
3.17 0.91 0.93 9.1477e-41
3.21 0.91 0.88 9.1477e-41
3.24 0.91 0.81 9.1477e-41
3.27 0.91 0.76 9.1477e-41
3.26 0.91 0.41 9.1477e-41
1.72 0.98 1.01 9.1477e-41
1.75 0.98 1.01 3.57e-43
1.81 0.98 1.01 3.57e-43
1.86 0.98 1.01 3.57e-43
1.89 0.98 1.01 3.57e-43
1.93 0.98 1.01 3.57e-43
1.99 0.98 1.01 3.57e-43
2.05 0.98 1.01 3.57e-43
2.09 0.98 1.01 3.57e-43
2.14 0.98 1.01 3.57e-43
2.18 0.98 1.01 3.57e-43
2.23 0.98 1.01 3.57e-43
2.27 0.98 1.01 3.57e-43
2.32 0.98 1.01 3.57e-43
2.38 0.98 1.01 3.57e-43
2.43 0.98 1.01 3.57e-43
2.47 0.98 1.01 3.57e-43
2.52 0.98 1.01 3.57e-43
2.57 0.98 1.01 3.57e-43
2.61 0.98 1.01 3.57e-43
2.65 0.98 1.01 3.57e-43
2.69 0.98 1.01 3.57e-43
2.74 0.98 1.01 3.57e-43
2.78 0.98 1.01 3.57e-43
2.83 0.98 1.01 3.57e-43
2.88 0.98 1.01 3.57e-43
2.92 0.98 1.01 3.57e-43
2.96 0.98 0.96 9.1477e-41
3 0.98 0.94 9.1477e-41
3.05 0.98 0.97 9.1477e-41
3.09 0.98 0.96 9.1477e-41
3.13 0.98 0.95 9.1477e-41
3.18 0.98 0.94 9.1477e-41
3.21 0.98 0.9 9.1477e-41
3.24 0.98 0.81 9.1477e-41
3.27 0.98 0.76 9.1477e-41
3.29 0.98 0.62 9.1477e-41
1.72 1.05 1.02 9.1477e-41
1.77 1.05 1.02 3.57e-43
1.81 1.05 1.02 3.57e-43
1.86 1.05 1.02 3.57e-43
1.89 1.05 1.02 3.57e-43
1.93 1.05 1.02 3.57e-43
1.99 1.05 1.02 3.57e-43
2.05 1.05 1.02 3.57e-43
2.09 1.05 1.02 3.57e-43
2.14 1.05 1.02 3.57e-43
2.18 1.05 1.02 3.57e-43
2.23 1.05 1.02 3.57e-43
2.27 1.05 1.02 3.57e-43
2.32 1.05 1.02 3.57e-43
2.38 1.05 1.02 3.57e-43
2.43 1.05 1.02 3.57e-43
2.47 1.05 1.02 3.57e-43
2.52 1.05 1.02 3.57e-43
2.57 1.05 1.02 3.57e-43
2.61 1.05 1.02 3.57e-43
2.65 1.05 1.02 3.57e-43
2.69 1.05 1.02 3.57e-43
2.74 1.05 1.02 3.57e-43
2.78 1.05 1.02 3.57e-43
2.83 1.05 1.02 3.57e-43
2.88 1.05 1.02 3.57e-43
2.92 1.05 1.02 3.57e-43
2.96 1.05 1.02 3.57e-43
3 1.05 1.02 3.57e-43
3.05 1.05 1.02 3.57e-43
3.09 1.05 0.96 9.1477e-41
3.14 1.05 0.98 9.1477e-41
3.18 1.05 0.96 9.1477e-41
3.21 1.05 0.9 9.1477e-41
3.24 1.05 0.83 9.1477e-41
3.27 1.05 0.75 9.1477e-41
3.29 1.05 0.57 9.1477e-41
1.74 1.12 1.05 9.1477e-41
1.77 1.12 1.05 3.57e-43
1.81 1.12 1.05 3.57e-43
1.86 1.12 1.05 3.57e-43
1.89 1.12 1.05 3.57e-43
1.93 1.12 1.05 3.57e-43
1.99 1.12 1.05 3.57e-43
2.05 1.12 1.05 3.57e-43
2.09 1.12 1.05 3.57e-43
2.14 1.12 1.05 3.57e-43
2.18 1.12 1.05 3.57e-43
2.23 1.12 1.05 3.57e-43
2.27 1.12 1.05 3.57e-43
2.32 1.12 1.05 3.57e-43
2.38 1.12 1.05 3.57e-43
2.43 1.12 1.05 3.57e-43
2.47 1.12 1.05 3.57e-43
2.52 1.12 1.05 3.57e-43
2.57 1.12 1.05 3.57e-43
2.61 1.12 1.05 3.57e-43
2.65 1.12 1.05 3.57e-43
2.69 1.12 1.05 3.57e-43
2.74 1.12 1.05 3.57e-43
2.78 1.12 1.05 3.57e-43
2.83 1.12 1.05 3.57e-43
2.88 1.12 1.05 3.57e-43
2.92 1.12 1.05 3.57e-43
2.96 1.12 1.05 3.57e-43
3 1.12 0.94 9.1477e-41
3.06 1.12 0.99 9.1477e-41
3.1 1.12 1 9.1477e-41
3.15 1.12 1.01 9.1477e-41
3.18 1.12 0.98 9.1477e-41
3.21 1.12 0.92 9.1477e-41
3.24 1.12 0.84 9.1477e-41
3.27 1.12 0.75 9.1477e-41
3.28 1.12 0.52 9.1477e-41
1.7 1.19 1.08 9.1477e-41
1.76 1.19 1.1 9.1477e-41
1.78 1.19 1.1 3.57e-43
1.81 1.19 1.1 3.57e-43
1.86 1.19 1.1 3.57e-43
1.89 1.19 1.1 3.57e-43
1.93 1.19 1.1 3.57e-43
1.99 1.19 1.1 3.57e-43
2.05 1.19 1.1 3.57e-43
2.09 1.19 1.1 3.57e-43
2.14 1.19 1.1 3.57e-43
2.18 1.19 1.1 3.57e-43
2.23 1.19 1.1 3.57e-43
2.27 1.19 1.1 3.57e-43
2.32 1.19 1.1 3.57e-43
2.38 1.19 1.1 3.57e-43
2.43 1.19 1.1 3.57e-43
2.47 1.19 1.1 3.57e-43
2.52 1.19 1.1 3.57e-43
2.57 1.19 1.1 3.57e-43
2.61 1.19 1.1 3.57e-43
2.65 1.19 1.1 3.57e-43
2.69 1.19 1.1 3.57e-43
2.74 1.19 1.1 3.57e-43
2.78 1.19 1.1 3.57e-43
2.83 1.19 1.1 3.57e-43
2.88 1.19 1.1 3.57e-43
2.92 1.19 1.1 3.57e-43
2.96 1.19 1.1 3.57e-43
3 1.19 1.1 3.57e-43
3.06 1.19 0.99 9.1477e-41
3.12 1.19 1.07 9.1477e-41
3.15 1.19 1.05 9.1477e-41
3.19 1.19 1 9.1477e-41
3.21 1.19 0.91 9.1477e-41
3.24 1.19 0.85 9.1477e-41
3.27 1.19 0.77 9.1477e-41
3.28 1.19 0.52 9.1477e-41
1.59 1.26 1.05 9.1477e-41
1.62 1.26 1.02 9.1477e-41
1.74 1.26 1.16 9.1477e-41
1.78 1.26 1.16 3.57e-43
1.78 1.26 1.16 3.57e-43
1.81 1.26 1.16 3.57e-43
1.86 1.26 1.16 3.57e-43
1.89 1.26 1.16 3.57e-43
1.93 1.26 1.16 3.57e-43
1.99 1.26 1.16 3.57e-43
2.05 1.26 1.16 3.57e-43
2.09 1.26 1.16 3.57e-43
2.14 1.26 1.16 3.57e-43
2.18 1.26 1.16 3.57e-43
2.23 1.26 1.16 3.57e-43
2.27 1.26 1.16 3.57e-43
2.32 1.26 1.16 3.57e-43
2.38 1.26 1.16 3.57e-43
2.43 1.26 1.16 3.57e-43
2.47 1.26 1.16 3.57e-43
2.52 1.26 1.16 3.57e-43
2.57 1.26 1.16 3.57e-43
2.61 1.26 1.16 3.57e-43
2.65 1.26 1.16 3.57e-43
2.69 1.26 1.16 3.57e-43
2.74 1.26 1.16 3.57e-43
2.78 1.26 1.16 3.57e-43
2.83 1.26 1.16 3.57e-43
2.88 1.26 1.16 3.57e-43
2.92 1.26 1.16 3.57e-43
2.96 1.26 1.16 3.57e-43
3 1.26 1.16 3.57e-43
3.06 1.26 0.99 9.1477e-41
3.13 1.26 1.12 9.1477e-41
3.16 1.26 1.12 3.57e-43
3.19 1.26 1 9.1477e-41
3.21 1.26 0.91 9.1477e-41
3.25 1.26 0.86 9.1477e-41
3.27 1.26 0.77 9.1477e-41
3.28 1.26 0.54 9.1477e-41
1.5 1.33 1.08 9.1477e-41
1.56 1.33 1.1 9.1477e-41
1.59 1.33 1.07 9.1477e-41
1.77 1.33 1.2 9.1477e-41
1.8 1.33 1.2 3.57e-43
1.78 1.33 1.2 3.57e-43
1.81 1.33 1.2 3.57e-43
1.86 1.33 1.2 3.57e-43
1.89 1.33 1.2 3.57e-43
1.93 1.33 1.2 3.57e-43
1.99 1.33 1.2 3.57e-43
2.05 1.33 1.2 3.57e-43
2.09 1.33 1.2 3.57e-43
2.14 1.33 1.2 3.57e-43
2.18 1.33 1.2 3.57e-43
2.23 1.33 1.2 3.57e-43
2.27 1.33 1.2 3.57e-43
2.32 1.33 1.2 3.57e-43
2.38 1.33 1.2 3.57e-43
2.43 1.33 1.2 3.57e-43
2.47 1.33 1.2 3.57e-43
2.52 1.33 1.2 3.57e-43
2.57 1.33 1.2 3.57e-43
2.61 1.33 1.2 3.57e-43
2.65 1.33 1.2 3.57e-43
2.69 1.33 1.2 3.57e-43
2.74 1.33 1.2 3.57e-43
2.78 1.33 1.2 3.57e-43
2.83 1.33 1.2 3.57e-43
2.88 1.33 1.2 3.57e-43
2.92 1.33 1.2 3.57e-43
2.96 1.33 1.2 3.57e-43
3 1.33 0.94 9.1477e-41
3.1 1.33 1.16 9.1477e-41
3.13 1.33 1.15 9.1477e-41
3.16 1.33 1.15 3.57e-43
3.19 1.33 1 9.1477e-41
3.22 1.33 0.98 9.1477e-41
3.28 1.33 1.04 9.1477e-41
3.32 1.33 1.02 9.1477e-41
3.36 1.33 1 9.1477e-41
1.79 1.4 1.25 9.1477e-41
1.82 1.4 1.25 3.57e-43
1.78 1.4 1.25 3.57e-43
1.81 1.4 1.25 3.57e-43
1.86 1.4 1.25 3.57e-43
1.89 1.4 1.25 3.57e-43
1.93 1.4 1.25 3.57e-43
1.99 1.4 1.25 3.57e-43
2.05 1.4 1.25 3.57e-43
2.09 1.4 1.25 3.57e-43
2.14 1.4 1.25 3.57e-43
2.18 1.4 1.25 3.57e-43
2.23 1.4 1.25 3.57e-43
2.27 1.4 1.25 3.57e-43
2.32 1.4 1.25 3.57e-43
2.38 1.4 1.25 3.57e-43
2.43 1.4 1.25 3.57e-43
2.47 1.4 1.25 3.57e-43
2.52 1.4 1.25 3.57e-43
2.57 1.4 1.25 3.57e-43
2.61 1.4 1.25 3.57e-43
2.65 1.4 1.25 3.57e-43
2.69 1.4 1.25 3.57e-43
2.74 1.4 1.25 3.57e-43
2.78 1.4 1.25 3.57e-43
2.83 1.4 1.25 3.57e-43
2.88 1.4 1.25 3.57e-43
2.92 1.4 1.25 3.57e-43
2.96 1.4 1.25 3.57e-43
3 1.4 0.94 9.1477e-41
3.1 1.4 1.19 9.1477e-41
3.14 1.4 1.17 9.1477e-41
3.14 1.4 0.97 9.1477e-41
3.17 1.4 0.93 9.1477e-41
3.21 1.4 0.92 9.1477e-41
3.28 1.4 1.04 9.1477e-41
3.32 1.4 1.05 9.1477e-41
3.36 1.4 1.05 9.1477e-41
3.4 1.4 1.03 9.1477e-41
1.81 1.47 1.28 9.1477e-41
1.84 1.47 1.28 3.57e-43
1.78 1.47 1.28 3.57e-43
1.81 1.47 1.28 3.57e-43
1.86 1.47 1.28 3.57e-43
1.89 1.47 1.28 3.57e-43
1.93 1.47 1.28 3.57e-43
1.99 1.47 1.28 3.57e-43
2.05 1.47 1.28 3.57e-43
2.09 1.47 1.28 3.57e-43
2.14 1.47 1.28 3.57e-43
2.18 1.47 1.28 3.57e-43
2.23 1.47 1.28 3.57e-43
2.27 1.47 1.28 3.57e-43
2.32 1.47 1.28 3.57e-43
2.38 1.47 1.28 3.57e-43
2.43 1.47 1.28 3.57e-43
2.47 1.47 1.28 3.57e-43
2.52 1.47 1.28 3.57e-43
2.57 1.47 1.28 3.57e-43
2.61 1.47 1.28 3.57e-43
2.65 1.47 1.28 3.57e-43
2.69 1.47 0.95 9.1477e-41
2.78 1.47 1.09 9.1477e-41
2.82 1.47 1.08 9.1477e-41
2.86 1.47 1.08 3.57e-43
2.88 1.47 1.08 3.57e-43
2.92 1.47 1.08 3.57e-43
2.96 1.47 0.96 9.1477e-41
3.07 1.47 1.24 9.1477e-41
3.11 1.47 1.22 9.1477e-41
2.99 1.47 0.48 9.1477e-41
3.13 1.47 0.91 9.1477e-41
3.17 1.47 0.92 9.1477e-41
3.21 1.47 0.93 9.1477e-41
3.25 1.47 0.87 9.1477e-41
3.28 1.47 0.81 9.1477e-41
3.29 1.47 0.58 9.1477e-41
1.83 1.54 1.32 9.1477e-41
1.86 1.54 1.32 3.57e-43
1.78 1.54 1.32 3.57e-43
1.81 1.54 1.32 3.57e-43
1.86 1.54 0.98 9.1477e-41
1.69 1.54 0.98 3.57e-43
1.93 1.54 0.98 3.57e-43
1.99 1.54 0.98 3.57e-43
2.05 1.54 0.98 3.57e-43
2.09 1.54 0.98 3.57e-43
2.14 1.54 0.98 3.57e-43
2.18 1.54 0.98 3.57e-43
2.23 1.54 0.98 3.57e-43
2.27 1.54 0.98 3.57e-43
2.32 1.54 0.98 3.57e-43
2.38 1.54 0.98 3.57e-43
2.43 1.54 0.98 3.57e-43
2.47 1.54 0.98 3.57e-43
2.52 1.54 0.98 3.57e-43
2.57 1.54 0.98 3.57e-43
2.61 1.54 0.98 3.57e-43
2.65 1.54 0.98 3.57e-43
2.69 1.54 0.95 9.1477e-41
2.78 1.54 1.08 9.1477e-41
2.82 1.54 1.08 9.1477e-41
2.86 1.54 1.08 3.57e-43
2.88 1.54 1.08 3.57e-43
2.92 1.54 0.96 9.1477e-41
3.04 1.54 1.3 9.1477e-41
3.08 1.54 1.28 9.1477e-41
2.97 1.54 0.59 9.1477e-41
3.02 1.54 0.62 9.1477e-41
3.12 1.54 0.87 9.1477e-41
3.18 1.54 0.94 9.1477e-41
3.21 1.54 0.93 9.1477e-41
3.25 1.54 0.88 9.1477e-41
3.28 1.54 0.81 9.1477e-41
3.29 1.54 0.58 9.1477e-41
1.84 1.61 1.35 9.1477e-41
1.88 1.61 1.35 3.57e-43
1.78 1.61 1.35 3.57e-43
1.81 1.61 1.35 3.57e-43
1.86 1.61 1.35 3.57e-43
1.69 1.61 0.52 9.1477e-41
2.14 1.61 1.38 9.1477e-41
2.18 1.61 1.38 9.1477e-41
2.23 1.61 1.38 9.1477e-41
2.27 1.61 1.39 9.1477e-41
2.32 1.61 1.39 9.1477e-41
2.36 1.61 1.38 9.1477e-41
2.41 1.61 1.39 9.1477e-41
2.45 1.61 1.39 9.1477e-41
2.49 1.61 1.39 9.1477e-41
2.53 1.61 1.38 9.1477e-41
2.57 1.61 1.38 3.57e-43
2.47 1.61 1.38 3.57e-43
2.52 1.61 1.38 3.57e-43
2.57 1.61 1.38 3.57e-43
2.61 1.61 1.38 3.57e-43
2.65 1.61 0.94 9.1477e-41
2.72 1.61 1.03 9.1477e-41
2.77 1.61 1.03 3.57e-43
2.82 1.61 1.03 3.57e-43
2.86 1.61 1.03 3.57e-43
2.88 1.61 1.03 3.57e-43
2.92 1.61 0.96 9.1477e-41
3.05 1.61 1.31 9.1477e-41
3.08 1.61 1.29 9.1477e-41
2.98 1.61 0.65 9.1477e-41
3.02 1.61 0.61 9.1477e-41
3.12 1.61 0.88 9.1477e-41
3.17 1.61 0.93 9.1477e-41
3.22 1.61 0.94 9.1477e-41
3.25 1.61 0.89 9.1477e-41
3.28 1.61 0.81 9.1477e-41
3.29 1.61 0.6 9.1477e-41
1.86 1.68 1.39 9.1477e-41
1.91 1.68 1.39 9.1477e-41
1.96 1.68 1.4 9.1477e-41
2.01 1.68 1.4 9.1477e-41
2.06 1.68 1.41 9.1477e-41
2.1 1.68 1.41 9.1477e-41
2.15 1.68 1.4 9.1477e-41
2.2 1.68 1.41 9.1477e-41
2.24 1.68 1.41 9.1477e-41
2.29 1.68 1.41 9.1477e-41
2.33 1.68 1.42 9.1477e-41
2.37 1.68 1.41 9.1477e-41
2.42 1.68 1.41 9.1477e-41
2.46 1.68 1.41 9.1477e-41
2.5 1.68 1.4 9.1477e-41
2.54 1.68 1.4 9.1477e-41
2.58 1.68 1.4 9.1477e-41
2.62 1.68 1.4 9.1477e-41
2.66 1.68 1.4 9.1477e-41
2.7 1.68 1.4 9.1477e-41
2.74 1.68 1.39 9.1477e-41
2.79 1.68 1.39 9.1477e-41
2.82 1.68 1.38 9.1477e-41
2.86 1.68 1.38 9.1477e-41
2.9 1.68 1.37 9.1477e-41
2.94 1.68 1.37 9.1477e-41
2.98 1.68 1.36 9.1477e-41
3.02 1.68 1.36 9.1477e-41
3.05 1.68 1.34 9.1477e-41
2.93 1.68 0.63 9.1477e-41
2.99 1.68 0.69 9.1477e-41
3.06 1.68 0.82 9.1477e-41
3.12 1.68 0.87 9.1477e-41
3.18 1.68 0.95 9.1477e-41
3.22 1.68 0.94 9.1477e-41
3.25 1.68 0.9 9.1477e-41
3.28 1.68 0.81 9.1477e-41
3.3 1.68 0.63 9.1477e-41
1.87 1.75 1.4 9.1477e-41
1.92 1.75 1.42 9.1477e-41
1.97 1.75 1.42 9.1477e-41
2.02 1.75 1.42 9.1477e-41
2.07 1.75 1.42 9.1477e-41
2.11 1.75 1.42 9.1477e-41
2.16 1.75 1.43 9.1477e-41
2.21 1.75 1.44 9.1477e-41
2.25 1.75 1.44 9.1477e-41
2.29 1.75 1.43 9.1477e-41
2.34 1.75 1.43 9.1477e-41
2.38 1.75 1.43 9.1477e-41
2.42 1.75 1.43 9.1477e-41
2.46 1.75 1.43 9.1477e-41
2.51 1.75 1.42 9.1477e-41
2.55 1.75 1.43 9.1477e-41
2.59 1.75 1.41 9.1477e-41
2.63 1.75 1.42 9.1477e-41
2.67 1.75 1.42 9.1477e-41
2.71 1.75 1.41 9.1477e-41
2.75 1.75 1.41 9.1477e-41
2.79 1.75 1.41 9.1477e-41
2.83 1.75 1.4 9.1477e-41
2.87 1.75 1.4 9.1477e-41
2.91 1.75 1.4 9.1477e-41
2.95 1.75 1.39 9.1477e-41
2.98 1.75 1.38 9.1477e-41
3.02 1.75 1.38 9.1477e-41
3.06 1.75 1.36 9.1477e-41
2.93 1.75 0.62 9.1477e-41
3.02 1.75 0.82 9.1477e-41
3.09 1.75 0.97 9.1477e-41
3.13 1.75 0.93 9.1477e-41
3.18 1.75 0.95 9.1477e-41
3.22 1.75 0.94 9.1477e-41
3.25 1.75 0.9 9.1477e-41
3.28 1.75 0.81 9.1477e-41
3.29 1.75 0.59 9.1477e-41
1.88 1.82 1.42 9.1477e-41
1.93 1.82 1.43 9.1477e-41
1.98 1.82 1.43 9.1477e-41
2.03 1.82 1.43 9.1477e-41
2.07 1.82 1.43 9.1477e-41
2.12 1.82 1.44 9.1477e-41
2.17 1.82 1.44 9.1477e-41
2.21 1.82 1.45 9.1477e-41
2.26 1.82 1.45 9.1477e-41
2.3 1.82 1.44 9.1477e-41
2.35 1.82 1.45 9.1477e-41
2.39 1.82 1.45 9.1477e-41
2.43 1.82 1.44 9.1477e-41
2.47 1.82 1.45 9.1477e-41
2.51 1.82 1.44 9.1477e-41
2.55 1.82 1.44 9.1477e-41
2.59 1.82 1.43 9.1477e-41
2.64 1.82 1.44 9.1477e-41
2.67 1.82 1.43 9.1477e-41
2.71 1.82 1.42 9.1477e-41
2.76 1.82 1.43 9.1477e-41
2.79 1.82 1.42 9.1477e-41
2.83 1.82 1.42 9.1477e-41
2.87 1.82 1.42 9.1477e-41
2.91 1.82 1.42 9.1477e-41
2.95 1.82 1.41 9.1477e-41
2.99 1.82 1.4 9.1477e-41
3.02 1.82 1.38 9.1477e-41
2.89 1.82 0.64 9.1477e-41
2.93 1.82 0.65 9.1477e-41
2.97 1.82 0.61 9.1477e-41
3.1 1.82 1 9.1477e-41
3.15 1.82 1.01 9.1477e-41
3.18 1.82 0.98 9.1477e-41
3.22 1.82 0.95 9.1477e-41
3.25 1.82 0.9 9.1477e-41
3.28 1.82 0.9 3.57e-43
3.29 1.82 0.59 9.1477e-41
1.88 1.89 1.43 9.1477e-41
1.94 1.89 1.44 9.1477e-41
1.98 1.89 1.44 9.1477e-41
2.03 1.89 1.45 9.1477e-41
2.08 1.89 1.45 9.1477e-41
2.13 1.89 1.45 9.1477e-41
2.17 1.89 1.45 9.1477e-41
2.22 1.89 1.45 9.1477e-41
2.26 1.89 1.46 9.1477e-41
2.31 1.89 1.46 9.1477e-41
2.35 1.89 1.46 9.1477e-41
2.39 1.89 1.46 9.1477e-41
2.43 1.89 1.45 9.1477e-41
2.48 1.89 1.46 9.1477e-41
2.52 1.89 1.46 9.1477e-41
2.56 1.89 1.46 9.1477e-41
2.6 1.89 1.45 9.1477e-41
2.64 1.89 1.44 9.1477e-41
2.68 1.89 1.45 9.1477e-41
2.72 1.89 1.44 9.1477e-41
2.76 1.89 1.43 9.1477e-41
2.8 1.89 1.44 9.1477e-41
2.84 1.89 1.43 9.1477e-41
2.87 1.89 1.42 9.1477e-41
2.91 1.89 1.42 9.1477e-41
2.95 1.89 1.42 9.1477e-41
2.99 1.89 1.42 9.1477e-41
3.02 1.89 1.38 9.1477e-41
2.87 1.89 0.56 9.1477e-41
2.93 1.89 0.61 9.1477e-41
2.97 1.89 0.58 9.1477e-41
3.11 1.89 1.02 9.1477e-41
3.15 1.89 1.04 9.1477e-41
3.19 1.89 1.03 9.1477e-41
3.22 1.89 0.97 9.1477e-41
3.25 1.89 0.9 9.1477e-41
3.28 1.89 0.82 9.1477e-41
3.29 1.89 0.57 9.1477e-41
1.89 1.96 1.44 9.1477e-41
1.94 1.96 1.44 9.1477e-41
1.99 1.96 1.45 9.1477e-41
2.03 1.96 1.45 9.1477e-41
2.08 1.96 1.46 9.1477e-41
2.13 1.96 1.46 9.1477e-41
2.17 1.96 1.46 9.1477e-41
2.22 1.96 1.47 9.1477e-41
2.26 1.96 1.47 9.1477e-41
2.31 1.96 1.47 9.1477e-41
2.35 1.96 1.46 9.1477e-41
2.39 1.96 1.47 9.1477e-41
2.44 1.96 1.47 9.1477e-41
2.48 1.96 1.46 9.1477e-41
2.52 1.96 1.47 9.1477e-41
2.56 1.96 1.47 9.1477e-41
2.6 1.96 1.45 9.1477e-41
2.64 1.96 1.46 9.1477e-41
2.68 1.96 1.45 9.1477e-41
2.72 1.96 1.45 9.1477e-41
2.76 1.96 1.45 9.1477e-41
2.8 1.96 1.45 9.1477e-41
2.84 1.96 1.44 9.1477e-41
2.88 1.96 1.44 9.1477e-41
2.92 1.96 1.43 9.1477e-41
2.96 1.96 1.42 9.1477e-41
3 1.96 1.42 9.1477e-41
3.03 1.96 1.4 9.1477e-41
2.99 1.96 1.09 9.1477e-41
3.02 1.96 1.03 9.1477e-41
3.06 1.96 1.02 9.1477e-41
3.11 1.96 1.04 9.1477e-41
3.15 1.96 1.03 9.1477e-41
3.19 1.96 1.02 9.1477e-41
3.22 1.96 0.96 9.1477e-41
3.25 1.96 0.9 9.1477e-41
3.29 1.96 0.84 9.1477e-41
3.32 1.96 0.81 9.1477e-41
1.89 2.03 1.44 9.1477e-41
1.94 2.03 1.45 9.1477e-41
1.99 2.03 1.46 9.1477e-41
2.04 2.03 1.47 9.1477e-41
2.09 2.03 1.47 9.1477e-41
2.14 2.03 1.48 9.1477e-41
2.18 2.03 1.47 9.1477e-41
2.22 2.03 1.47 9.1477e-41
2.27 2.03 1.47 9.1477e-41
2.31 2.03 1.48 9.1477e-41
2.35 2.03 1.47 9.1477e-41
2.4 2.03 1.48 9.1477e-41
2.44 2.03 1.47 9.1477e-41
2.48 2.03 1.47 9.1477e-41
2.52 2.03 1.47 9.1477e-41
2.56 2.03 1.46 9.1477e-41
2.61 2.03 1.47 9.1477e-41
2.64 2.03 1.46 9.1477e-41
2.69 2.03 1.47 9.1477e-41
2.72 2.03 1.45 9.1477e-41
2.77 2.03 1.46 9.1477e-41
2.81 2.03 1.46 9.1477e-41
2.85 2.03 1.46 9.1477e-41
2.88 2.03 1.45 9.1477e-41
2.92 2.03 1.44 9.1477e-41
2.96 2.03 1.43 9.1477e-41
3 2.03 1.42 9.1477e-41
3.03 2.03 1.4 9.1477e-41
2.99 2.03 1.07 9.1477e-41
3.02 2.03 1 9.1477e-41
3.06 2.03 0.99 9.1477e-41
3.08 2.03 0.91 9.1477e-41
3.13 2.03 0.93 9.1477e-41
3.18 2.03 0.97 9.1477e-41
3.22 2.03 0.97 9.1477e-41
3.25 2.03 0.9 9.1477e-41
3.28 2.03 0.82 9.1477e-41
3.32 2.03 0.81 9.1477e-41
1.9 2.1 1.45 9.1477e-41
1.95 2.1 1.47 9.1477e-41
1.99 2.1 1.46 9.1477e-41
2.05 2.1 1.48 9.1477e-41
2.09 2.1 1.48 9.1477e-41
2.14 2.1 1.48 9.1477e-41
2.18 2.1 1.48 9.1477e-41
2.23 2.1 1.48 9.1477e-41
2.27 2.1 1.48 9.1477e-41
2.32 2.1 1.49 9.1477e-41
2.36 2.1 1.48 9.1477e-41
2.4 2.1 1.48 9.1477e-41
2.44 2.1 1.48 9.1477e-41
2.49 2.1 1.48 9.1477e-41
2.53 2.1 1.48 9.1477e-41
2.57 2.1 1.48 9.1477e-41
2.6 2.1 1.46 9.1477e-41
2.65 2.1 1.48 9.1477e-41
2.69 2.1 1.46 9.1477e-41
2.73 2.1 1.47 9.1477e-41
2.77 2.1 1.46 9.1477e-41
2.8 2.1 1.45 9.1477e-41
2.85 2.1 1.46 9.1477e-41
2.88 2.1 1.45 9.1477e-41
2.92 2.1 1.44 9.1477e-41
2.96 2.1 1.44 9.1477e-41
3 2.1 1.42 9.1477e-41
3.03 2.1 1.39 9.1477e-41
2.94 2.1 0.85 9.1477e-41
2.98 2.1 0.84 9.1477e-41
3.08 2.1 1.08 9.1477e-41
3.11 2.1 1.05 9.1477e-41
3.15 2.1 1.03 9.1477e-41
3.19 2.1 1 9.1477e-41
3.22 2.1 0.97 9.1477e-41
3.25 2.1 0.91 9.1477e-41
3.29 2.1 0.85 9.1477e-41
3.3 2.1 0.63 9.1477e-41
1.9 2.17 1.45 9.1477e-41
1.95 2.17 1.47 9.1477e-41
2 2.17 1.48 9.1477e-41
2.05 2.17 1.48 9.1477e-41
2.09 2.17 1.48 9.1477e-41
2.14 2.17 1.48 9.1477e-41
2.19 2.17 1.49 9.1477e-41
2.23 2.17 1.49 9.1477e-41
2.27 2.17 1.48 9.1477e-41
2.32 2.17 1.5 9.1477e-41
2.36 2.17 1.49 9.1477e-41
2.41 2.17 1.49 9.1477e-41
2.44 2.17 1.48 9.1477e-41
2.49 2.17 1.48 9.1477e-41
2.53 2.17 1.48 9.1477e-41
2.57 2.17 1.47 9.1477e-41
2.61 2.17 1.48 9.1477e-41
2.65 2.17 1.48 9.1477e-41
2.69 2.17 1.47 9.1477e-41
2.73 2.17 1.47 9.1477e-41
2.77 2.17 1.48 9.1477e-41
2.81 2.17 1.47 9.1477e-41
2.85 2.17 1.47 9.1477e-41
2.89 2.17 1.46 9.1477e-41
2.92 2.17 1.44 9.1477e-41
2.96 2.17 1.44 9.1477e-41
3 2.17 1.42 9.1477e-41
3.03 2.17 1.4 9.1477e-41
3.05 2.17 1.4 3.57e-43
2.98 2.17 1.4 3.57e-43
3.08 2.17 1.4 3.57e-43
3.11 2.17 1.4 3.57e-43
3.15 2.17 1.03 9.1477e-41
3.19 2.17 1 9.1477e-41
3.22 2.17 0.97 9.1477e-41
3.25 2.17 0.9 9.1477e-41
3.28 2.17 0.82 9.1477e-41
3.28 2.17 0.52 9.1477e-41
1.91 2.24 1.47 9.1477e-41
1.95 2.24 1.47 9.1477e-41
2 2.24 1.48 9.1477e-41
2.05 2.24 1.48 9.1477e-41
2.09 2.24 1.48 9.1477e-41
2.15 2.24 1.5 9.1477e-41
2.18 2.24 1.48 9.1477e-41
2.23 2.24 1.49 9.1477e-41
2.28 2.24 1.49 9.1477e-41
2.32 2.24 1.5 9.1477e-41
2.36 2.24 1.49 9.1477e-41
2.4 2.24 1.48 9.1477e-41
2.45 2.24 1.49 9.1477e-41
2.49 2.24 1.49 9.1477e-41
2.53 2.24 1.48 9.1477e-41
2.57 2.24 1.48 9.1477e-41
2.61 2.24 1.48 9.1477e-41
2.65 2.24 1.49 9.1477e-41
2.69 2.24 1.48 9.1477e-41
2.73 2.24 1.48 9.1477e-41
2.77 2.24 1.47 9.1477e-41
2.81 2.24 1.47 9.1477e-41
2.85 2.24 1.47 9.1477e-41
2.88 2.24 1.46 9.1477e-41
2.92 2.24 1.45 9.1477e-41
2.96 2.24 1.45 9.1477e-41
3 2.24 1.42 9.1477e-41
3.03 2.24 1.42 3.57e-43
3.05 2.24 1.42 3.57e-43
2.98 2.24 1.42 3.57e-43
3.08 2.24 1.42 3.57e-43
3.11 2.24 1.42 3.57e-43
3.15 2.24 1.03 9.1477e-41
3.19 2.24 1 9.1477e-41
3.22 2.24 0.98 9.1477e-41
3.26 2.24 0.92 9.1477e-41
3.28 2.24 0.82 9.1477e-41
3.28 2.24 0.54 9.1477e-41
1.91 2.31 1.47 9.1477e-41
1.95 2.31 1.47 9.1477e-41
2 2.31 1.48 9.1477e-41
2.05 2.31 1.49 9.1477e-41
2.1 2.31 1.49 9.1477e-41
2.14 2.31 1.48 9.1477e-41
2.19 2.31 1.49 9.1477e-41
2.23 2.31 1.49 9.1477e-41
2.28 2.31 1.49 9.1477e-41
2.32 2.31 1.5 9.1477e-41
2.36 2.31 1.49 9.1477e-41
2.41 2.31 1.49 9.1477e-41
2.45 2.31 1.5 9.1477e-41
2.49 2.31 1.5 9.1477e-41
2.53 2.31 1.5 9.1477e-41
2.57 2.31 1.48 9.1477e-41
2.61 2.31 1.49 9.1477e-41
2.65 2.31 1.48 9.1477e-41
2.69 2.31 1.48 9.1477e-41
2.73 2.31 1.47 9.1477e-41
2.77 2.31 1.48 9.1477e-41
2.81 2.31 1.48 9.1477e-41
2.85 2.31 1.47 9.1477e-41
2.89 2.31 1.46 9.1477e-41
2.93 2.31 1.46 9.1477e-41
2.97 2.31 1.46 9.1477e-41
3 2.31 1.42 9.1477e-41
3.03 2.31 1.42 3.57e-43
3.05 2.31 1.42 3.57e-43
2.98 2.31 1.42 3.57e-43
3.08 2.31 1.42 3.57e-43
3.11 2.31 1.42 3.57e-43
3.15 2.31 1.03 9.1477e-41
3.19 2.31 1 9.1477e-41
3.22 2.31 0.98 9.1477e-41
3.25 2.31 0.91 9.1477e-41
3.28 2.31 0.82 9.1477e-41
3.27 2.31 0.47 9.1477e-41
1.91 2.38 1.47 9.1477e-41
1.96 2.38 1.48 9.1477e-41
2.01 2.38 1.49 9.1477e-41
2.05 2.38 1.49 9.1477e-41
2.1 2.38 1.5 9.1477e-41
2.14 2.38 1.49 9.1477e-41
2.19 2.38 1.5 9.1477e-41
2.23 2.38 1.49 9.1477e-41
2.28 2.38 1.5 9.1477e-41
2.32 2.38 1.49 9.1477e-41
2.37 2.38 1.5 9.1477e-41
2.41 2.38 1.49 9.1477e-41
2.45 2.38 1.49 9.1477e-41
2.49 2.38 1.49 9.1477e-41
2.53 2.38 1.49 9.1477e-41
2.57 2.38 1.49 9.1477e-41
2.61 2.38 1.47 9.1477e-41
2.65 2.38 1.48 9.1477e-41
2.69 2.38 1.47 9.1477e-41
2.73 2.38 1.48 9.1477e-41
2.77 2.38 1.48 9.1477e-41
2.81 2.38 1.47 9.1477e-41
2.85 2.38 1.48 9.1477e-41
2.89 2.38 1.46 9.1477e-41
2.93 2.38 1.46 9.1477e-41
2.97 2.38 1.47 9.1477e-41
3 2.38 1.43 9.1477e-41
3.03 2.38 1.43 3.57e-43
3.05 2.38 1.43 3.57e-43
2.98 2.38 1.43 3.57e-43
3.08 2.38 1.43 3.57e-43
3.11 2.38 1.43 3.57e-43
3.15 2.38 1.03 9.1477e-41
3.19 2.38 1 9.1477e-41
3.22 2.38 0.97 9.1477e-41
3.26 2.38 0.92 9.1477e-41
3.28 2.38 0.92 3.57e-43
3.27 2.38 0.47 9.1477e-41
1.91 2.45 1.47 9.1477e-41
1.96 2.45 1.49 9.1477e-41
2 2.45 1.48 9.1477e-41
2.05 2.45 1.49 9.1477e-41
2.1 2.45 1.49 9.1477e-41
2.15 2.45 1.5 9.1477e-41
2.19 2.45 1.5 9.1477e-41
2.24 2.45 1.5 9.1477e-41
2.28 2.45 1.49 9.1477e-41
2.32 2.45 1.5 9.1477e-41
2.37 2.45 1.5 9.1477e-41
2.41 2.45 1.49 9.1477e-41
2.45 2.45 1.5 9.1477e-41
2.49 2.45 1.49 9.1477e-41
2.53 2.45 1.5 9.1477e-41
2.57 2.45 1.48 9.1477e-41
2.61 2.45 1.49 9.1477e-41
2.65 2.45 1.49 9.1477e-41
2.69 2.45 1.48 9.1477e-41
2.74 2.45 1.49 9.1477e-41
2.77 2.45 1.48 9.1477e-41
2.81 2.45 1.48 9.1477e-41
2.85 2.45 1.48 9.1477e-41
2.89 2.45 1.46 9.1477e-41
2.93 2.45 1.46 9.1477e-41
2.97 2.45 1.46 9.1477e-41
3 2.45 1.43 9.1477e-41
3.03 2.45 1.43 3.57e-43
3.05 2.45 1.43 3.57e-43
2.98 2.45 1.43 3.57e-43
3.08 2.45 1.43 3.57e-43
3.11 2.45 1.43 3.57e-43
3.15 2.45 1.03 9.1477e-41
3.19 2.45 1 9.1477e-41
3.22 2.45 0.97 9.1477e-41
3.25 2.45 0.91 9.1477e-41
3.28 2.45 0.91 3.57e-43
3.27 2.45 0.47 9.1477e-41
1.91 2.52 1.48 9.1477e-41
1.96 2.52 1.48 9.1477e-41
2.01 2.52 1.49 9.1477e-41
2.06 2.52 1.5 9.1477e-41
2.1 2.52 1.5 9.1477e-41
2.15 2.52 1.5 9.1477e-41
2.19 2.52 1.5 9.1477e-41
2.24 2.52 1.5 9.1477e-41
2.28 2.52 1.5 9.1477e-41
2.32 2.52 1.5 9.1477e-41
2.37 2.52 1.5 9.1477e-41
2.41 2.52 1.49 9.1477e-41
2.45 2.52 1.51 9.1477e-41
2.49 2.52 1.49 9.1477e-41
2.53 2.52 1.5 9.1477e-41
2.57 2.52 1.49 9.1477e-41
2.61 2.52 1.49 9.1477e-41
2.66 2.52 1.5 9.1477e-41
2.69 2.52 1.48 9.1477e-41
2.74 2.52 1.49 9.1477e-41
2.77 2.52 1.48 9.1477e-41
2.81 2.52 1.48 9.1477e-41
2.85 2.52 1.48 9.1477e-41
2.89 2.52 1.47 9.1477e-41
2.93 2.52 1.46 9.1477e-41
2.97 2.52 1.47 9.1477e-41
3 2.52 1.47 3.57e-43
3.03 2.52 1.47 3.57e-43
3.05 2.52 1.47 3.57e-43
2.98 2.52 1.47 3.57e-43
3.08 2.52 1.47 3.57e-43
3.11 2.52 1.47 3.57e-43
3.15 2.52 1.03 9.1477e-41
3.19 2.52 1 9.1477e-41
3.22 2.52 0.97 9.1477e-41
3.25 2.52 0.91 9.1477e-41
3.28 2.52 0.81 9.1477e-41
1.91 2.59 1.48 9.1477e-41
1.96 2.59 1.48 9.1477e-41
2.01 2.59 1.49 9.1477e-41
2.06 2.59 1.5 9.1477e-41
2.1 2.59 1.5 9.1477e-41
2.15 2.59 1.5 9.1477e-41
2.19 2.59 1.5 9.1477e-41
2.24 2.59 1.5 9.1477e-41
2.28 2.59 1.5 9.1477e-41
2.32 2.59 1.5 9.1477e-41
2.37 2.59 1.5 9.1477e-41
2.4 2.59 1.48 9.1477e-41
2.45 2.59 1.5 9.1477e-41
2.49 2.59 1.49 9.1477e-41
2.53 2.59 1.5 9.1477e-41
2.57 2.59 1.48 9.1477e-41
2.61 2.59 1.49 9.1477e-41
2.66 2.59 1.5 9.1477e-41
2.69 2.59 1.48 9.1477e-41
2.74 2.59 1.49 9.1477e-41
2.77 2.59 1.49 9.1477e-41
2.81 2.59 1.48 9.1477e-41
2.85 2.59 1.48 9.1477e-41
2.89 2.59 1.46 9.1477e-41
2.93 2.59 1.47 9.1477e-41
2.97 2.59 1.46 9.1477e-41
3 2.59 1.46 3.57e-43
3.03 2.59 1.46 3.57e-43
3.05 2.59 1.46 3.57e-43
2.98 2.59 1.46 3.57e-43
3.08 2.59 1.46 3.57e-43
3.11 2.59 1.46 3.57e-43
3.15 2.59 1.03 9.1477e-41
3.19 2.59 1 9.1477e-41
3.22 2.59 0.97 9.1477e-41
3.26 2.59 0.92 9.1477e-41
3.28 2.59 0.8 9.1477e-41
1.91 2.66 1.48 9.1477e-41
1.96 2.66 1.48 9.1477e-41
2 2.66 1.48 9.1477e-41
2.05 2.66 1.49 9.1477e-41
2.1 2.66 1.49 9.1477e-41
2.15 2.66 1.5 9.1477e-41
2.19 2.66 1.5 9.1477e-41
2.24 2.66 1.5 9.1477e-41
2.28 2.66 1.49 9.1477e-41
2.32 2.66 1.51 9.1477e-41
2.37 2.66 1.5 9.1477e-41
2.41 2.66 1.5 9.1477e-41
2.45 2.66 1.5 9.1477e-41
2.49 2.66 1.49 9.1477e-41
2.53 2.66 1.49 9.1477e-41
2.57 2.66 1.48 9.1477e-41
2.61 2.66 1.48 9.1477e-41
2.65 2.66 1.49 9.1477e-41
2.69 2.66 1.48 9.1477e-41
2.74 2.66 1.49 9.1477e-41
2.77 2.66 1.48 9.1477e-41
2.81 2.66 1.48 9.1477e-41
2.85 2.66 1.48 9.1477e-41
2.89 2.66 1.47 9.1477e-41
2.93 2.66 1.46 9.1477e-41
2.97 2.66 1.46 9.1477e-41
3 2.66 1.46 3.57e-43
3.03 2.66 1.46 3.57e-43
3.05 2.66 1.46 3.57e-43
2.98 2.66 1.46 3.57e-43
3.08 2.66 1.46 3.57e-43
3.11 2.66 1.46 3.57e-43
3.15 2.66 1.03 9.1477e-41
3.19 2.66 1.01 9.1477e-41
3.22 2.66 0.96 9.1477e-41
3.26 2.66 0.92 9.1477e-41
3.28 2.66 0.78 9.1477e-41
1.91 2.73 1.48 9.1477e-41
1.95 2.73 1.47 9.1477e-41
2.01 2.73 1.49 9.1477e-41
2.05 2.73 1.49 9.1477e-41
2.1 2.73 1.5 9.1477e-41
2.15 2.73 1.5 9.1477e-41
2.19 2.73 1.49 9.1477e-41
2.23 2.73 1.49 9.1477e-41
2.28 2.73 1.5 9.1477e-41
2.32 2.73 1.5 9.1477e-41
2.36 2.73 1.49 9.1477e-41
2.4 2.73 1.48 9.1477e-41
2.45 2.73 1.49 9.1477e-41
2.49 2.73 1.49 9.1477e-41
2.53 2.73 1.5 9.1477e-41
2.57 2.73 1.49 9.1477e-41
2.61 2.73 1.49 9.1477e-41
2.65 2.73 1.49 9.1477e-41
2.69 2.73 1.48 9.1477e-41
2.73 2.73 1.48 9.1477e-41
2.77 2.73 1.49 9.1477e-41
2.81 2.73 1.48 9.1477e-41
2.85 2.73 1.47 9.1477e-41
2.88 2.73 1.46 9.1477e-41
2.93 2.73 1.47 9.1477e-41
2.97 2.73 1.46 9.1477e-41
3 2.73 1.46 3.57e-43
3.03 2.73 1.46 3.57e-43
3.05 2.73 1.46 3.57e-43
2.98 2.73 1.46 3.57e-43
3.08 2.73 1.46 3.57e-43
3.11 2.73 1.05 9.1477e-41
3.15 2.73 1.03 9.1477e-41
3.19 2.73 1.01 9.1477e-41
3.22 2.73 0.96 9.1477e-41
3.25 2.73 0.9 9.1477e-41
3.28 2.73 0.83 9.1477e-41
1.91 2.8 1.48 9.1477e-41
1.95 2.8 1.47 9.1477e-41
2.01 2.8 1.49 9.1477e-41
2.05 2.8 1.49 9.1477e-41
2.1 2.8 1.5 9.1477e-41
2.14 2.8 1.49 9.1477e-41
2.19 2.8 1.5 9.1477e-41
2.23 2.8 1.49 9.1477e-41
2.28 2.8 1.49 9.1477e-41
2.32 2.8 1.5 9.1477e-41
2.37 2.8 1.5 9.1477e-41
2.41 2.8 1.49 9.1477e-41
2.45 2.8 1.49 9.1477e-41
2.49 2.8 1.5 9.1477e-41
2.53 2.8 1.5 9.1477e-41
2.57 2.8 1.49 9.1477e-41
2.61 2.8 1.48 9.1477e-41
2.65 2.8 1.49 9.1477e-41
2.7 2.8 1.49 9.1477e-41
2.73 2.8 1.48 9.1477e-41
2.77 2.8 1.49 9.1477e-41
2.81 2.8 1.48 9.1477e-41
2.85 2.8 1.47 9.1477e-41
2.89 2.8 1.47 9.1477e-41
2.93 2.8 1.46 9.1477e-41
2.96 2.8 1.45 9.1477e-41
2.99 2.8 1.45 3.57e-43
3.03 2.8 1.45 3.57e-43
3.05 2.8 1.45 3.57e-43
2.98 2.8 1.45 3.57e-43
3.08 2.8 1.45 3.57e-43
3.11 2.8 1.05 9.1477e-41
3.15 2.8 1.04 9.1477e-41
3.19 2.8 1 9.1477e-41
3.22 2.8 0.97 9.1477e-41
3.25 2.8 0.89 9.1477e-41
3.29 2.8 0.86 9.1477e-41
1.91 2.87 1.48 9.1477e-41
1.96 2.87 1.48 9.1477e-41
2 2.87 1.48 9.1477e-41
2.05 2.87 1.49 9.1477e-41
2.1 2.87 1.49 9.1477e-41
2.14 2.87 1.49 9.1477e-41
2.19 2.87 1.49 9.1477e-41
2.24 2.87 1.5 9.1477e-41
2.27 2.87 1.48 9.1477e-41
2.32 2.87 1.5 9.1477e-41
2.36 2.87 1.49 9.1477e-41
2.41 2.87 1.49 9.1477e-41
2.45 2.87 1.49 9.1477e-41
2.49 2.87 1.49 9.1477e-41
2.53 2.87 1.49 9.1477e-41
2.57 2.87 1.48 9.1477e-41
2.61 2.87 1.48 9.1477e-41
2.65 2.87 1.49 9.1477e-41
2.69 2.87 1.48 9.1477e-41
2.73 2.87 1.48 9.1477e-41
2.77 2.87 1.47 9.1477e-41
2.81 2.87 1.48 9.1477e-41
2.85 2.87 1.48 9.1477e-41
2.89 2.87 1.47 9.1477e-41
2.93 2.87 1.46 9.1477e-41
2.97 2.87 1.47 9.1477e-41
2.99 2.87 1.47 3.57e-43
3.03 2.87 1.47 3.57e-43
3.05 2.87 1.47 3.57e-43
2.98 2.87 1.47 3.57e-43
3.08 2.87 1.47 3.57e-43
3.11 2.87 1.05 9.1477e-41
3.15 2.87 1.03 9.1477e-41
3.19 2.87 1 9.1477e-41
3.22 2.87 0.95 9.1477e-41
3.25 2.87 0.91 9.1477e-41
3.29 2.87 0.87 9.1477e-41
1.91 2.94 1.47 9.1477e-41
1.95 2.94 1.47 9.1477e-41
2 2.94 1.48 9.1477e-41
2.05 2.94 1.49 9.1477e-41
2.09 2.94 1.48 9.1477e-41
2.14 2.94 1.48 9.1477e-41
2.19 2.94 1.49 9.1477e-41
2.23 2.94 1.49 9.1477e-41
2.28 2.94 1.49 9.1477e-41
2.32 2.94 1.49 9.1477e-41
2.36 2.94 1.49 9.1477e-41
2.4 2.94 1.48 9.1477e-41
2.45 2.94 1.49 9.1477e-41
2.49 2.94 1.49 9.1477e-41
2.53 2.94 1.48 9.1477e-41
2.57 2.94 1.48 9.1477e-41
2.61 2.94 1.48 9.1477e-41
2.65 2.94 1.48 9.1477e-41
2.69 2.94 1.48 9.1477e-41
2.73 2.94 1.47 9.1477e-41
2.77 2.94 1.48 9.1477e-41
2.81 2.94 1.47 9.1477e-41
2.85 2.94 1.47 9.1477e-41
2.89 2.94 1.46 9.1477e-41
2.94 2.94 1.49 9.1477e-41
2.97 2.94 1.46 9.1477e-41
2.99 2.94 1.46 3.57e-43
3.03 2.94 1.46 3.57e-43
3.05 2.94 1.46 3.57e-43
2.98 2.94 1.46 3.57e-43
3.08 2.94 1.46 3.57e-43
3.11 2.94 1.05 9.1477e-41
3.15 2.94 1.04 9.1477e-41
3.19 2.94 1 9.1477e-41
3.22 2.94 0.95 9.1477e-41
3.25 2.94 0.88 9.1477e-41
3.27 2.94 0.74 9.1477e-41
3.26 2.94 0.41 9.1477e-41
1.9 3.01 1.45 9.1477e-41
1.95 3.01 1.46 9.1477e-41
2 3.01 1.47 9.1477e-41
2.05 3.01 1.48 9.1477e-41
2.09 3.01 1.48 9.1477e-41
2.14 3.01 1.48 9.1477e-41
2.19 3.01 1.49 9.1477e-41
2.23 3.01 1.48 9.1477e-41
2.27 3.01 1.48 9.1477e-41
2.32 3.01 1.49 9.1477e-41
2.36 3.01 1.49 9.1477e-41
2.4 3.01 1.48 9.1477e-41
2.45 3.01 1.49 9.1477e-41
2.48 3.01 1.47 9.1477e-41
2.53 3.01 1.49 9.1477e-41
2.57 3.01 1.48 9.1477e-41
2.61 3.01 1.47 9.1477e-41
2.65 3.01 1.48 9.1477e-41
2.69 3.01 1.47 9.1477e-41
2.73 3.01 1.47 9.1477e-41
2.77 3.01 1.48 9.1477e-41
2.81 3.01 1.46 9.1477e-41
2.85 3.01 1.47 9.1477e-41
2.88 3.01 1.46 9.1477e-41
2.93 3.01 1.46 9.1477e-41
2.96 3.01 1.44 9.1477e-41
2.99 3.01 1.41 9.1477e-41
3.02 3.01 1.41 3.57e-43
3.05 3.01 1.41 3.57e-43
2.98 3.01 1.41 3.57e-43
3.08 3.01 1.41 3.57e-43
3.11 3.01 1.05 9.1477e-41
3.15 3.01 1.03 9.1477e-41
3.19 3.01 1 9.1477e-41
3.22 3.01 0.96 9.1477e-41
3.25 3.01 0.88 9.1477e-41
3.27 3.01 0.74 9.1477e-41
3.26 3.01 0.4 9.1477e-41
1.89 3.08 1.44 9.1477e-41
1.95 3.08 1.46 9.1477e-41
2 3.08 1.47 9.1477e-41
2.04 3.08 1.47 9.1477e-41
2.09 3.08 1.48 9.1477e-41
2.14 3.08 1.48 9.1477e-41
2.18 3.08 1.48 9.1477e-41
2.23 3.08 1.48 9.1477e-41
2.27 3.08 1.48 9.1477e-41
2.31 3.08 1.48 9.1477e-41
2.36 3.08 1.48 9.1477e-41
2.4 3.08 1.48 9.1477e-41
2.45 3.08 1.49 9.1477e-41
2.49 3.08 1.48 9.1477e-41
2.52 3.08 1.47 9.1477e-41
2.56 3.08 1.47 9.1477e-41
2.6 3.08 1.46 9.1477e-41
2.65 3.08 1.48 9.1477e-41
2.69 3.08 1.46 9.1477e-41
2.73 3.08 1.48 9.1477e-41
2.77 3.08 1.47 9.1477e-41
2.81 3.08 1.46 9.1477e-41
2.85 3.08 1.47 9.1477e-41
2.88 3.08 1.46 9.1477e-41
2.92 3.08 1.45 9.1477e-41
2.96 3.08 1.43 9.1477e-41
2.99 3.08 1.4 9.1477e-41
3.02 3.08 1.37 9.1477e-41
3.05 3.08 1.31 9.1477e-41
3.07 3.08 1.25 9.1477e-41
3.1 3.08 1.25 3.57e-43
3.11 3.08 1.05 9.1477e-41
3.15 3.08 1.05 9.1477e-41
3.18 3.08 0.99 9.1477e-41
3.22 3.08 0.96 9.1477e-41
3.25 3.08 0.86 9.1477e-41
3.27 3.08 0.76 9.1477e-41
1.89 3.15 1.44 9.1477e-41
1.95 3.15 1.46 9.1477e-41
1.99 3.15 1.46 9.1477e-41
2.04 3.15 1.46 9.1477e-41
2.09 3.15 1.47 9.1477e-41
2.13 3.15 1.47 9.1477e-41
2.18 3.15 1.47 9.1477e-41
2.22 3.15 1.47 9.1477e-41
2.27 3.15 1.48 9.1477e-41
2.31 3.15 1.48 9.1477e-41
2.36 3.15 1.48 9.1477e-41
2.4 3.15 1.48 9.1477e-41
2.44 3.15 1.48 9.1477e-41
2.48 3.15 1.47 9.1477e-41
2.53 3.15 1.48 9.1477e-41
2.56 3.15 1.47 9.1477e-41
2.61 3.15 1.48 9.1477e-41
2.64 3.15 1.46 9.1477e-41
2.69 3.15 1.46 9.1477e-41
2.72 3.15 1.45 9.1477e-41
2.77 3.15 1.46 9.1477e-41
2.81 3.15 1.46 9.1477e-41
2.85 3.15 1.46 9.1477e-41
2.88 3.15 1.45 9.1477e-41
2.92 3.15 1.44 9.1477e-41
2.95 3.15 1.41 9.1477e-41
2.99 3.15 1.4 9.1477e-41
3.02 3.15 1.35 9.1477e-41
3.04 3.15 1.3 9.1477e-41
3.07 3.15 1.24 9.1477e-41
3.1 3.15 1.18 9.1477e-41
3.13 3.15 1.13 9.1477e-41
3.15 3.15 1.05 9.1477e-41
3.18 3.15 0.98 9.1477e-41
3.22 3.15 0.95 9.1477e-41
3.24 3.15 0.85 9.1477e-41
3.27 3.15 0.72 9.1477e-41
1.94 3.22 1.45 9.1477e-41
1.99 3.22 1.46 9.1477e-41
2.04 3.22 1.46 9.1477e-41
2.08 3.22 1.45 9.1477e-41
2.13 3.22 1.45 9.1477e-41
2.17 3.22 1.46 9.1477e-41
2.22 3.22 1.46 9.1477e-41
2.27 3.22 1.47 9.1477e-41
2.31 3.22 1.46 9.1477e-41
2.35 3.22 1.46 9.1477e-41
2.39 3.22 1.47 9.1477e-41
2.44 3.22 1.47 9.1477e-41
2.48 3.22 1.46 9.1477e-41
2.52 3.22 1.46 9.1477e-41
2.56 3.22 1.47 9.1477e-41
2.6 3.22 1.46 9.1477e-41
2.65 3.22 1.47 9.1477e-41
2.68 3.22 1.45 9.1477e-41
2.73 3.22 1.46 9.1477e-41
2.77 3.22 1.46 9.1477e-41
2.8 3.22 1.45 9.1477e-41
2.84 3.22 1.45 9.1477e-41
2.88 3.22 1.45 9.1477e-41
2.92 3.22 1.45 9.1477e-41
2.95 3.22 1.4 9.1477e-41
2.98 3.22 1.38 9.1477e-41
3.01 3.22 1.34 9.1477e-41
3.04 3.22 1.29 9.1477e-41
3.07 3.22 1.23 9.1477e-41
3.1 3.22 1.16 9.1477e-41
3.12 3.22 1.11 9.1477e-41
3.15 3.22 1.03 9.1477e-41
3.18 3.22 0.98 9.1477e-41
3.22 3.22 0.94 9.1477e-41
3.24 3.22 0.84 9.1477e-41
3.27 3.22 0.72 9.1477e-41
1.94 3.29 1.44 9.1477e-41
1.98 3.29 1.43 9.1477e-41
2.03 3.29 1.44 9.1477e-41
2.08 3.29 1.45 9.1477e-41
2.13 3.29 1.45 9.1477e-41
2.17 3.29 1.46 9.1477e-41
2.22 3.29 1.46 9.1477e-41
2.26 3.29 1.46 9.1477e-41
2.31 3.29 1.46 9.1477e-41
2.35 3.29 1.46 9.1477e-41
2.39 3.29 1.47 9.1477e-41
2.43 3.29 1.46 9.1477e-41
2.48 3.29 1.46 9.1477e-41
2.52 3.29 1.46 9.1477e-41
2.56 3.29 1.47 9.1477e-41
2.6 3.29 1.45 9.1477e-41
2.64 3.29 1.46 9.1477e-41
2.68 3.29 1.45 9.1477e-41
2.72 3.29 1.44 9.1477e-41
2.76 3.29 1.45 9.1477e-41
2.8 3.29 1.44 9.1477e-41
2.84 3.29 1.45 9.1477e-41
2.88 3.29 1.43 9.1477e-41
2.92 3.29 1.44 9.1477e-41
2.95 3.29 1.41 9.1477e-41
2.98 3.29 1.37 9.1477e-41
3.01 3.29 1.32 9.1477e-41
3.04 3.29 1.27 9.1477e-41
3.06 3.29 1.21 9.1477e-41
3.09 3.29 1.14 9.1477e-41
3.12 3.29 1.09 9.1477e-41
3.15 3.29 1.03 9.1477e-41
3.18 3.29 0.98 9.1477e-41
3.22 3.29 0.94 9.1477e-41
3.24 3.29 0.82 9.1477e-41
3.26 3.29 0.69 9.1477e-41
1.94 3.36 1.43 3.57e-43
2.03 3.36 1.43 9.1477e-41
2.08 3.36 1.44 9.1477e-41
2.12 3.36 1.44 9.1477e-41
2.17 3.36 1.44 9.1477e-41
2.21 3.36 1.45 9.1477e-41
2.26 3.36 1.45 9.1477e-41
2.3 3.36 1.45 9.1477e-41
2.35 3.36 1.45 9.1477e-41
2.39 3.36 1.46 9.1477e-41
2.43 3.36 1.45 9.1477e-41
2.48 3.36 1.46 9.1477e-41
2.51 3.36 1.44 9.1477e-41
2.56 3.36 1.45 9.1477e-41
2.59 3.36 1.43 9.1477e-41
2.64 3.36 1.44 9.1477e-41
2.68 3.36 1.44 9.1477e-41
2.72 3.36 1.43 9.1477e-41
2.76 3.36 1.44 9.1477e-41
2.8 3.36 1.43 9.1477e-41
2.84 3.36 1.43 9.1477e-41
2.87 3.36 1.41 9.1477e-41
2.91 3.36 1.4 9.1477e-41
2.94 3.36 1.4 3.57e-43
2.98 3.36 1.4 3.57e-43
3.01 3.36 1.32 9.1477e-41
3.03 3.36 1.24 9.1477e-41
3.06 3.36 1.19 9.1477e-41
3.09 3.36 1.14 9.1477e-41
3.12 3.36 1.07 9.1477e-41
3.15 3.36 1.02 9.1477e-41
3.18 3.36 0.96 9.1477e-41
3.21 3.36 0.93 9.1477e-41
3.23 3.36 0.77 9.1477e-41
3.26 3.36 0.69 9.1477e-41
3.26 3.36 0.43 9.1477e-41
1.94 3.43 1.46 3.57e-43
2.37 3.43 1.28 9.1477e-41
2.41 3.43 1.29 9.1477e-41
2.45 3.43 1.28 9.1477e-41
2.48 3.43 1.28 3.57e-43
2.59 3.43 1.28 3.57e-43
2.64 3.43 1.28 3.57e-43
2.68 3.43 1.28 3.57e-43
2.72 3.43 1.28 3.57e-43
2.76 3.43 1.28 3.57e-43
2.8 3.43 1.28 3.57e-43
2.84 3.43 1.28 3.57e-43
2.87 3.43 1.28 3.57e-43
2.91 3.43 1.28 3.57e-43
2.94 3.43 1.28 3.57e-43
2.98 3.43 1.28 3.57e-43
3.01 3.43 1.28 3.57e-43
3.03 3.43 1.24 9.1477e-41
3.05 3.43 1.16 9.1477e-41
3.08 3.43 1.12 9.1477e-41
3.11 3.43 1.06 9.1477e-41
3.15 3.43 1.01 9.1477e-41
3.18 3.43 0.96 9.1477e-41
3.2 3.43 0.85 9.1477e-41
3.23 3.43 0.76 9.1477e-41
3.25 3.43 0.64 9.1477e-41
3.03 3.5 1.06 3.57e-43
3.07 3.5 1.07 9.1477e-41
3.11 3.5 1.04 9.1477e-41
3.14 3.5 0.98 9.1477e-41
3.16 3.5 0.86 9.1477e-41
3.2 3.5 0.84 9.1477e-41
3.21 3.5 0.67 9.1477e-41
3.22 3.5 0.47 9.1477e-41
1.83 3.57 1.03 9.1477e-41
1.9 3.57 1.06 9.1477e-41
1.96 3.57 1.06 3.57e-43
2.17 3.57 1.06 3.57e-43
2.21 3.57 1.06 3.57e-43
2.26 3.57 1.06 3.57e-43
2.3 3.57 1.06 3.57e-43
2.35 3.57 1.06 3.57e-43
2.39 3.57 1.06 3.57e-43
2.37 3.57 1.06 3.57e-43
2.41 3.57 1.06 3.57e-43
2.45 3.57 1.06 3.57e-43
2.48 3.57 1.06 3.57e-43
2.59 3.57 1.06 3.57e-43
2.64 3.57 1.06 3.57e-43
2.68 3.57 1.06 3.57e-43
2.72 3.57 1.06 3.57e-43
2.76 3.57 1.06 3.57e-43
2.8 3.57 1.06 3.57e-43
2.84 3.57 1.06 3.57e-43
2.87 3.57 1.06 3.57e-43
2.91 3.57 1.06 3.57e-43
2.94 3.57 1.06 3.57e-43
2.98 3.57 1.06 3.57e-43
3.01 3.57 1.06 3.57e-43
3.03 3.57 1.24 9.1477e-41
3.03 3.57 1.06 9.1477e-41
3.06 3.57 1.02 9.1477e-41
3.08 3.57 0.9 9.1477e-41
3.12 3.57 0.86 9.1477e-41
3.15 3.57 0.82 9.1477e-41
3.17 3.57 0.69 9.1477e-41
3.19 3.57 0.54 9.1477e-41
1.92 3.64 0.91 9.1477e-41
2.01 3.64 1 9.1477e-41
2.05 3.64 0.98 9.1477e-41
2.13 3.64 1.05 9.1477e-41
2.19 3.64 1.08 9.1477e-41
2.25 3.64 1.1 9.1477e-41
2.29 3.64 1.1 9.1477e-41
2.34 3.64 1.1 9.1477e-41
2.39 3.64 1.12 9.1477e-41
2.44 3.64 1.12 9.1477e-41
2.46 3.64 1.07 9.1477e-41
2.51 3.64 1.07 9.1477e-41
2.56 3.64 1.08 9.1477e-41
2.6 3.64 1.07 9.1477e-41
2.64 3.64 1.06 9.1477e-41
2.69 3.64 1.07 9.1477e-41
2.73 3.64 1.05 9.1477e-41
2.77 3.64 1.05 9.1477e-41
2.81 3.64 1.05 9.1477e-41
2.86 3.64 1.05 9.1477e-41
2.9 3.64 1.04 9.1477e-41
2.93 3.64 1 9.1477e-41
2.97 3.64 0.98 9.1477e-41
2.99 3.64 0.9 9.1477e-41
3.01 3.64 0.79 9.1477e-41
3.05 3.64 0.75 9.1477e-41
3.08 3.64 0.68 9.1477e-41
3.12 3.64 0.67 9.1477e-41
3.13 3.64 0.48 9.1477e-41
1.97 3.71 0.67 9.1477e-41
2.02 3.71 0.67 9.1477e-41
2.08 3.71 0.68 9.1477e-41
2.13 3.71 0.68 9.1477e-41
2.18 3.71 0.69 9.1477e-41
2.23 3.71 0.69 9.1477e-41
2.29 3.71 0.72 9.1477e-41
2.37 3.71 0.79 9.1477e-41
2.4 3.71 0.75 9.1477e-41
2.44 3.71 0.72 9.1477e-41
2.49 3.71 0.72 9.1477e-41
2.53 3.71 0.72 9.1477e-41
2.57 3.71 0.7 9.1477e-41
2.62 3.71 0.71 9.1477e-41
2.66 3.71 0.69 9.1477e-41
2.71 3.71 0.66 9.1477e-41
2.75 3.71 0.66 9.1477e-41
2.8 3.71 0.66 9.1477e-41
2.85 3.71 0.67 9.1477e-41
2.89 3.71 0.66 9.1477e-41
2.94 3.71 0.67 9.1477e-41
2.98 3.71 0.65 9.1477e-41
3.02 3.71 0.61 9.1477e-41
