# .PCD v.7 - Point Cloud Data file format
VERSION .7
FIELDS x y z rgb
SIZE 4 4 4 4
TYPE F F F F
WIDTH 1960
HEIGHT 1
POINTS 1960
DATA ascii
1.37 1.29 1.01 3.57e-43
1.4 1.29 1.01 3.57e-43
1.45 1.29 1.01 3.57e-43
1.49 1.29 1.01 3.57e-43
1.55 1.29 1.01 3.57e-43
1.61 1.29 1.01 3.57e-43
1.65 1.29 0.98 3.57e-43
1.7 1.29 0.98 3.57e-43
1.73 1.29 0.98 3.57e-43
1.73 1.29 0.82 9.1477e-41
1.81 1.29 0.82 3.57e-43
1.75 1.29 0.64 9.1477e-41
1.78 1.29 0.6 9.1477e-41
1.78 1.29 0.47 9.1477e-41
0.37 1.3 1.03 3.57e-43
0.25 1.3 1.03 3.57e-43
0.71 1.3 1.03 3.57e-43
0.77 1.3 1.03 3.57e-43
0.84 1.3 1.03 3.57e-43
0.88 1.3 1.03 3.57e-43
0.94 1.3 1.03 3.57e-43
1 1.3 1.03 3.57e-43
1.07 1.3 1.01 9.1477e-41
1.01 1.3 1.01 3.57e-43
1.23 1.3 1.01 3.57e-43
1.28 1.3 1.01 3.57e-43
1.33 1.3 1.01 3.57e-43
1.37 1.3 1.01 3.57e-43
1.4 1.3 1.01 3.57e-43
1.45 1.3 1.01 3.57e-43
1.49 1.3 1.01 3.57e-43
1.55 1.3 1.01 3.57e-43
1.61 1.3 1.01 3.57e-43
1.65 1.3 0.98 9.1477e-41
1.7 1.3 0.98 3.57e-43
1.73 1.3 0.98 3.57e-43
1.73 1.3 0.98 3.57e-43
1.81 1.3 0.98 3.57e-43
1.75 1.3 0.64 9.1477e-41
1.79 1.3 0.62 9.1477e-41
1.77 1.3 0.46 9.1477e-41
0.37 1.31 1.03 3.57e-43
0.25 1.31 1.03 3.57e-43
0.71 1.31 1.03 3.57e-43
0.77 1.31 1.03 3.57e-43
0.84 1.31 1.03 3.57e-43
0.88 1.31 1.03 3.57e-43
0.94 1.31 1.03 3.57e-43
1 1.31 1.03 3.57e-43
1.07 1.31 1.01 9.1477e-41
0.98 1.31 1.01 3.57e-43
1.23 1.31 1.01 3.57e-43
1.28 1.31 1.01 3.57e-43
1.33 1.31 1.01 3.57e-43
1.37 1.31 1.01 3.57e-43
1.4 1.31 1.01 3.57e-43
1.45 1.31 1.01 3.57e-43
1.49 1.31 1.01 3.57e-43
1.55 1.31 0.98 9.1477e-41
1.64 1.31 1.07 9.1477e-41
1.65 1.31 0.97 9.1477e-41
1.69 1.31 0.96 9.1477e-41
1.77 1.31 1 9.1477e-41
1.84 1.31 1.06 9.1477e-41
1.88 1.31 1.06 3.57e-43
1.75 1.31 0.64 9.1477e-41
1.79 1.31 0.62 9.1477e-41
1.78 1.31 0.47 9.1477e-41
0.37 1.32 1.03 3.57e-43
0.25 1.32 1.03 3.57e-43
0.71 1.32 1.03 3.57e-43
0.77 1.32 1.03 3.57e-43
0.84 1.32 1.03 3.57e-43
0.88 1.32 1.03 3.57e-43
0.94 1.32 1.03 3.57e-43
1 1.32 1.03 3.57e-43
1.07 1.32 1.01 9.1477e-41
0.97 1.32 1.01 3.57e-43
1.23 1.32 1.01 3.57e-43
1.28 1.32 1.01 3.57e-43
1.33 1.32 1.01 3.57e-43
1.37 1.32 1.01 3.57e-43
1.4 1.32 1.01 3.57e-43
1.45 1.32 0.99 9.1477e-41
1.62 1.32 1.21 9.1477e-41
1.64 1.32 1.16 9.1477e-41
1.57 1.32 0.93 9.1477e-41
1.53 1.32 0.74 9.1477e-41
1.67 1.32 0.92 9.1477e-41
1.76 1.32 0.99 9.1477e-41
1.84 1.32 1.05 9.1477e-41
1.88 1.32 1.05 3.57e-43
1.75 1.32 1.05 3.57e-43
1.79 1.32 0.62 9.1477e-41
1.78 1.32 0.47 9.1477e-41
1.45 1.33 0.99 3.57e-43
1.62 1.33 1.21 9.1477e-41
1.54 1.33 0.97 9.1477e-41
1.49 1.33 0.77 9.1477e-41
1.5 1.33 0.68 9.1477e-41
1.67 1.33 0.91 9.1477e-41
1.73 1.33 0.94 9.1477e-41
1.84 1.33 1.05 9.1477e-41
1.88 1.33 1.03 9.1477e-41
1.91 1.33 1.03 3.57e-43
1.79 1.33 0.62 9.1477e-41
1.77 1.33 0.46 9.1477e-41
0.34 1.34 1 3.57e-43
0.52 1.34 1 3.57e-43
1.07 1.34 1 3.57e-43
0.97 1.34 1 3.57e-43
1.23 1.34 1 3.57e-43
1.28 1.34 1 3.57e-43
1.33 1.34 1 3.57e-43
1.37 1.34 1.05 9.1477e-41
1.56 1.34 1.05 3.57e-43
1.45 1.34 0.99 9.1477e-41
1.55 1.34 1.09 9.1477e-41
1.45 1.34 0.81 9.1477e-41
1.47 1.34 0.74 9.1477e-41
1.5 1.34 0.69 9.1477e-41
1.67 1.34 0.91 9.1477e-41
1.73 1.34 0.91 3.57e-43
1.84 1.34 1.05 9.1477e-41
1.88 1.34 1.04 9.1477e-41
1.91 1.34 1.04 3.57e-43
1.79 1.34 0.62 9.1477e-41
1.77 1.34 0.46 9.1477e-41
0.77 1.35 1.05 3.57e-43
1.57 1.35 1.05 3.57e-43
1.45 1.35 0.99 9.1477e-41
1.43 1.35 0.87 9.1477e-41
1.44 1.35 0.78 9.1477e-41
1.47 1.35 0.74 9.1477e-41
1.5 1.35 0.68 9.1477e-41
1.67 1.35 0.92 9.1477e-41
1.73 1.35 0.92 3.57e-43
1.84 1.35 0.92 3.57e-43
1.88 1.35 1.04 9.1477e-41
1.91 1.35 1.04 3.57e-43
1.79 1.35 0.62 9.1477e-41
1.77 1.35 0.46 9.1477e-41
0.77 1.36 1.05 3.57e-43
1.57 1.36 1.05 3.57e-43
1.45 1.36 0.99 9.1477e-41
1.4 1.36 0.82 9.1477e-41
1.44 1.36 0.78 9.1477e-41
1.48 1.36 0.75 9.1477e-41
1.5 1.36 0.68 9.1477e-41
1.67 1.36 0.92 9.1477e-41
1.73 1.36 0.92 3.57e-43
1.84 1.36 0.92 3.57e-43
1.88 1.36 0.92 3.57e-43
1.91 1.36 0.92 3.57e-43
1.79 1.36 0.62 9.1477e-41
1.77 1.36 0.45 9.1477e-41
1.45 1.37 0.99 3.57e-43
1.39 1.37 0.8 9.1477e-41
1.43 1.37 0.77 9.1477e-41
1.48 1.37 0.76 9.1477e-41
1.5 1.37 0.69 9.1477e-41
1.67 1.37 0.92 9.1477e-41
1.73 1.37 0.92 3.57e-43
1.84 1.37 0.92 3.57e-43
1.88 1.37 0.92 3.57e-43
1.91 1.37 0.98 9.1477e-41
1.79 1.37 0.61 9.1477e-41
1.78 1.37 0.47 9.1477e-41
0.37 1.38 1.06 3.57e-43
0.74 1.38 1.06 3.57e-43
0.53 1.38 1.06 3.57e-43
0.6 1.38 1.06 3.57e-43
0.25 1.38 1.06 3.57e-43
0.71 1.38 1.06 3.57e-43
0.77 1.38 1.06 3.57e-43
0.84 1.38 1.06 3.57e-43
0.32 1.38 1 3.57e-43
0.94 1.38 1 9.1477e-41
0.74 1.38 1 3.57e-43
1.07 1.38 1 3.57e-43
0.97 1.38 1 3.57e-43
1.23 1.38 1 3.57e-43
1.28 1.38 1 3.57e-43
1.33 1.38 1 3.57e-43
1.37 1.38 1 3.57e-43
1.57 1.38 1 3.57e-43
1.45 1.38 0.99 9.1477e-41
1.4 1.38 0.82 9.1477e-41
1.44 1.38 0.78 9.1477e-41
1.48 1.38 0.76 9.1477e-41
1.5 1.38 0.7 9.1477e-41
1.68 1.38 0.93 9.1477e-41
1.73 1.38 0.93 3.57e-43
1.84 1.38 0.93 3.57e-43
1.88 1.38 0.93 3.57e-43
1.91 1.38 0.93 3.57e-43
1.79 1.38 0.61 9.1477e-41
1.77 1.38 0.45 9.1477e-41
0.32 1.39 1 3.57e-43
0.7 1.39 0.63 9.1477e-41
0.75 1.39 0.63 3.57e-43
1.07 1.39 0.63 3.57e-43
0.97 1.39 0.63 3.57e-43
1.23 1.39 0.63 3.57e-43
1.28 1.39 0.63 3.57e-43
1.33 1.39 0.63 3.57e-43
1.37 1.39 0.63 3.57e-43
1.57 1.39 0.63 3.57e-43
1.45 1.39 0.99 9.1477e-41
1.43 1.39 0.86 9.1477e-41
1.44 1.39 0.78 9.1477e-41
1.48 1.39 0.75 9.1477e-41
1.51 1.39 0.71 9.1477e-41
1.68 1.39 0.93 9.1477e-41
1.72 1.39 0.93 3.57e-43
1.84 1.39 0.93 3.57e-43
1.88 1.39 0.93 3.57e-43
1.91 1.39 0.93 3.57e-43
1.79 1.39 0.61 9.1477e-41
1.77 1.39 0.45 9.1477e-41
0.32 1.4 1 3.57e-43
0.7 1.4 0.63 9.1477e-41
0.74 1.4 0.61 9.1477e-41
0.81 1.4 0.61 3.57e-43
0.97 1.4 0.61 3.57e-43
1.23 1.4 0.61 3.57e-43
1.28 1.4 0.61 3.57e-43
1.33 1.4 0.61 3.57e-43
1.37 1.4 0.61 3.57e-43
1.57 1.4 1.3 9.1477e-41
1.54 1.4 1.17 9.1477e-41
1.45 1.4 0.9 9.1477e-41
1.44 1.4 0.78 9.1477e-41
1.48 1.4 0.76 9.1477e-41
1.51 1.4 0.71 9.1477e-41
1.68 1.4 0.94 9.1477e-41
1.73 1.4 0.94 3.57e-43
1.84 1.4 0.94 3.57e-43
1.88 1.4 0.94 3.57e-43
1.91 1.4 0.98 9.1477e-41
1.79 1.4 0.61 9.1477e-41
1.77 1.4 0.45 9.1477e-41
0.32 1.41 1 3.57e-43
0.68 1.41 0.62 9.1477e-41
0.74 1.41 0.61 9.1477e-41
0.81 1.41 0.61 3.57e-43
0.97 1.41 0.61 3.57e-43
1.23 1.41 0.61 3.57e-43
1.28 1.41 0.61 3.57e-43
1.33 1.41 1.08 9.1477e-41
1.55 1.41 1.08 3.57e-43
1.57 1.41 1.3 9.1477e-41
1.49 1.41 1.06 9.1477e-41
1.46 1.41 0.93 9.1477e-41
1.45 1.41 0.8 9.1477e-41
1.48 1.41 0.76 9.1477e-41
1.51 1.41 0.71 9.1477e-41
1.67 1.41 0.92 9.1477e-41
1.73 1.41 0.92 3.57e-43
1.84 1.41 0.92 3.57e-43
1.88 1.41 0.92 3.57e-43
1.91 1.41 0.92 3.57e-43
1.79 1.41 0.61 9.1477e-41
1.76 1.41 0.44 9.1477e-41
1.51 1.42 1.37 3.57e-43
1.55 1.42 1.37 3.57e-43
1.57 1.42 1.3 9.1477e-41
1.45 1.42 0.99 9.1477e-41
1.45 1.42 0.91 9.1477e-41
1.44 1.42 0.79 9.1477e-41
1.48 1.42 0.76 9.1477e-41
1.51 1.42 0.71 9.1477e-41
1.67 1.42 0.92 9.1477e-41
1.73 1.42 0.92 3.57e-43
1.84 1.42 0.92 3.57e-43
1.88 1.42 0.92 3.57e-43
1.91 1.42 0.98 9.1477e-41
1.79 1.42 0.62 9.1477e-41
1.77 1.42 0.45 9.1477e-41
1.51 1.43 1.37 3.57e-43
1.55 1.43 1.37 3.57e-43
1.57 1.43 1.3 9.1477e-41
1.4 1.43 0.91 9.1477e-41
1.45 1.43 0.9 9.1477e-41
1.44 1.43 0.78 9.1477e-41
1.48 1.43 0.76 9.1477e-41
1.51 1.43 0.72 9.1477e-41
1.68 1.43 0.93 9.1477e-41
1.73 1.43 0.93 3.57e-43
1.84 1.43 0.93 3.57e-43
1.88 1.43 0.93 3.57e-43
1.91 1.43 0.98 9.1477e-41
1.79 1.43 0.62 9.1477e-41
1.77 1.43 0.45 9.1477e-41
1.48 1.44 1.4 3.57e-43
1.51 1.44 1.37 9.1477e-41
1.55 1.44 1.37 3.57e-43
1.57 1.44 1.3 9.1477e-41
1.34 1.44 0.81 9.1477e-41
1.44 1.44 0.89 9.1477e-41
1.44 1.44 0.78 9.1477e-41
1.48 1.44 0.75 9.1477e-41
1.51 1.44 0.71 9.1477e-41
1.68 1.44 0.93 9.1477e-41
1.73 1.44 0.93 3.57e-43
1.84 1.44 0.93 3.57e-43
1.88 1.44 0.93 3.57e-43
1.91 1.44 0.98 9.1477e-41
1.79 1.44 0.61 9.1477e-41
1.76 1.44 0.44 9.1477e-41
1.48 1.45 1.4 3.57e-43
1.51 1.45 1.38 9.1477e-41
1.56 1.45 1.37 9.1477e-41
1.21 1.45 0.67 9.1477e-41
1.3 1.45 0.74 9.1477e-41
1.43 1.45 0.87 9.1477e-41
1.44 1.45 0.78 9.1477e-41
1.48 1.45 0.75 9.1477e-41
1.51 1.45 0.72 9.1477e-41
1.68 1.45 0.93 9.1477e-41
1.73 1.45 0.93 3.57e-43
1.84 1.45 0.93 3.57e-43
1.88 1.45 0.93 3.57e-43
1.91 1.45 0.98 9.1477e-41
1.79 1.45 0.61 9.1477e-41
1.77 1.45 0.45 9.1477e-41
1.45 1.46 1.43 3.57e-43
1.48 1.46 1.4 9.1477e-41
1.52 1.46 1.39 9.1477e-41
1.55 1.46 1.36 9.1477e-41
1.21 1.46 0.68 9.1477e-41
1.28 1.46 0.7 9.1477e-41
1.43 1.46 0.87 9.1477e-41
1.44 1.46 0.79 9.1477e-41
1.48 1.46 0.75 9.1477e-41
1.51 1.46 0.72 9.1477e-41
1.68 1.46 0.93 9.1477e-41
1.73 1.46 0.93 3.57e-43
1.84 1.46 0.93 3.57e-43
1.88 1.46 0.93 3.57e-43
1.91 1.46 0.93 3.57e-43
1.79 1.46 0.61 9.1477e-41
1.76 1.46 0.44 9.1477e-41
1.45 1.47 1.43 3.57e-43
1.48 1.47 1.41 9.1477e-41
1.52 1.47 1.4 9.1477e-41
1.56 1.47 1.37 9.1477e-41
1.21 1.47 0.68 9.1477e-41
1.28 1.47 0.71 9.1477e-41
1.42 1.47 0.86 9.1477e-41
1.46 1.47 0.82 9.1477e-41
1.47 1.47 0.74 9.1477e-41
1.51 1.47 0.71 9.1477e-41
1.68 1.47 0.93 9.1477e-41
1.73 1.47 0.93 3.57e-43
1.84 1.47 0.93 3.57e-43
1.88 1.47 0.93 3.57e-43
1.91 1.47 0.93 3.57e-43
1.79 1.47 0.61 9.1477e-41
1.77 1.47 0.46 9.1477e-41
1.45 1.48 1.43 3.57e-43
1.48 1.48 1.41 9.1477e-41
1.52 1.48 1.41 3.57e-43
1.56 1.48 1.37 9.1477e-41
1.22 1.48 0.69 9.1477e-41
1.29 1.48 0.71 9.1477e-41
1.41 1.48 0.83 9.1477e-41
1.47 1.48 0.83 9.1477e-41
1.48 1.48 0.75 9.1477e-41
1.51 1.48 0.72 9.1477e-41
1.68 1.48 0.93 9.1477e-41
1.73 1.48 0.93 3.57e-43
1.84 1.48 0.93 3.57e-43
1.88 1.48 0.93 3.57e-43
1.91 1.48 0.93 3.57e-43
1.79 1.48 0.61 9.1477e-41
1.77 1.48 0.45 9.1477e-41
1.45 1.49 1.43 3.57e-43
1.49 1.49 1.42 9.1477e-41
1.53 1.49 1.42 3.57e-43
1.56 1.49 1.37 9.1477e-41
1.23 1.49 0.71 9.1477e-41
1.3 1.49 0.73 9.1477e-41
1.39 1.49 0.79 9.1477e-41
1.48 1.49 0.86 9.1477e-41
1.48 1.49 0.76 9.1477e-41
1.51 1.49 0.71 9.1477e-41
1.69 1.49 0.95 9.1477e-41
1.73 1.49 0.95 3.57e-43
1.84 1.49 0.95 3.57e-43
1.88 1.49 0.95 3.57e-43
1.91 1.49 0.98 9.1477e-41
1.79 1.49 0.62 9.1477e-41
1.76 1.49 0.43 9.1477e-41
1.45 1.5 1.43 3.57e-43
1.49 1.5 1.43 9.1477e-41
1.53 1.5 1.43 3.57e-43
1.56 1.5 1.37 9.1477e-41
1.24 1.5 0.72 9.1477e-41
1.3 1.5 0.73 9.1477e-41
1.38 1.5 0.77 9.1477e-41
1.47 1.5 0.84 9.1477e-41
1.49 1.5 0.78 9.1477e-41
1.51 1.5 0.71 9.1477e-41
1.69 1.5 0.95 9.1477e-41
1.73 1.5 0.95 3.57e-43
1.84 1.5 0.95 3.57e-43
1.88 1.5 0.95 3.57e-43
1.91 1.5 0.95 3.57e-43
1.79 1.5 0.62 9.1477e-41
1.77 1.5 0.45 9.1477e-41
1.45 1.51 1.43 3.57e-43
1.49 1.51 1.43 9.1477e-41
1.53 1.51 1.43 3.57e-43
1.56 1.51 1.37 9.1477e-41
1.26 1.51 0.76 9.1477e-41
1.32 1.51 0.77 9.1477e-41
1.37 1.51 0.75 9.1477e-41
1.48 1.51 0.85 9.1477e-41
1.5 1.51 0.8 9.1477e-41
1.51 1.51 0.71 9.1477e-41
1.69 1.51 0.96 9.1477e-41
1.73 1.51 0.96 3.57e-43
1.84 1.51 0.96 3.57e-43
1.88 1.51 0.96 3.57e-43
1.91 1.51 0.98 9.1477e-41
1.79 1.51 0.62 9.1477e-41
1.76 1.51 0.44 9.1477e-41
1.42 1.52 1.47 3.57e-43
1.45 1.52 1.43 9.1477e-41
1.49 1.52 1.42 9.1477e-41
1.52 1.52 1.42 3.57e-43
1.56 1.52 1.37 9.1477e-41
1.29 1.52 0.82 9.1477e-41
1.33 1.52 0.79 9.1477e-41
1.37 1.52 0.76 9.1477e-41
1.47 1.52 0.84 9.1477e-41
1.51 1.52 0.82 9.1477e-41
1.51 1.52 0.71 9.1477e-41
1.69 1.52 0.96 9.1477e-41
1.73 1.52 0.96 3.57e-43
1.84 1.52 0.96 3.57e-43
1.88 1.52 0.96 3.57e-43
1.91 1.52 0.98 9.1477e-41
1.79 1.52 0.62 9.1477e-41
1.76 1.52 0.44 9.1477e-41
1.42 1.53 1.47 3.57e-43
1.45 1.53 1.44 9.1477e-41
1.5 1.53 1.44 9.1477e-41
1.53 1.53 1.44 3.57e-43
1.56 1.53 1.37 9.1477e-41
1.31 1.53 0.84 9.1477e-41
1.36 1.53 0.84 9.1477e-41
1.38 1.53 0.79 9.1477e-41
1.47 1.53 0.83 9.1477e-41
1.52 1.53 0.83 9.1477e-41
1.52 1.53 0.73 9.1477e-41
1.7 1.53 0.97 9.1477e-41
1.73 1.53 0.97 3.57e-43
1.84 1.53 0.97 3.57e-43
1.88 1.53 0.97 3.57e-43
1.91 1.53 0.98 9.1477e-41
1.79 1.53 0.62 9.1477e-41
1.77 1.53 0.45 9.1477e-41
1.42 1.54 1.47 3.57e-43
1.46 1.54 1.45 9.1477e-41
1.5 1.54 1.44 9.1477e-41
1.53 1.54 1.41 9.1477e-41
1.26 1.54 0.87 9.1477e-41
1.32 1.54 0.86 9.1477e-41
1.36 1.54 0.84 9.1477e-41
1.39 1.54 0.8 9.1477e-41
1.46 1.54 0.82 9.1477e-41
1.52 1.54 0.83 9.1477e-41
1.53 1.54 0.75 9.1477e-41
1.7 1.54 0.97 9.1477e-41
1.74 1.54 0.97 3.57e-43
1.84 1.54 0.97 3.57e-43
1.88 1.54 0.97 3.57e-43
1.91 1.54 0.97 3.57e-43
1.79 1.54 0.62 9.1477e-41
1.76 1.54 0.44 9.1477e-41
1.42 1.55 1.47 3.57e-43
1.46 1.55 1.45 9.1477e-41
1.49 1.55 1.43 9.1477e-41
1.53 1.55 1.41 9.1477e-41
1.29 1.55 0.91 9.1477e-41
1.33 1.55 0.88 9.1477e-41
1.36 1.55 0.84 9.1477e-41
1.4 1.55 0.81 9.1477e-41
1.47 1.55 0.84 9.1477e-41
1.51 1.55 0.82 9.1477e-41
1.55 1.55 0.78 9.1477e-41
1.7 1.55 0.97 9.1477e-41
1.74 1.55 0.97 3.57e-43
1.84 1.55 0.97 3.57e-43
1.88 1.55 0.97 3.57e-43
1.91 1.55 0.98 9.1477e-41
1.79 1.55 0.62 9.1477e-41
1.76 1.55 0.43 9.1477e-41
1.42 1.56 1.47 3.57e-43
1.45 1.56 1.43 9.1477e-41
1.49 1.56 1.43 9.1477e-41
1.53 1.56 1.41 9.1477e-41
1.33 1.56 0.98 9.1477e-41
1.36 1.56 0.93 9.1477e-41
1.38 1.56 0.88 9.1477e-41
1.43 1.56 0.86 9.1477e-41
1.49 1.56 0.89 9.1477e-41
1.52 1.56 0.84 9.1477e-41
1.54 1.56 0.77 9.1477e-41
1.69 1.56 0.96 9.1477e-41
1.74 1.56 0.96 3.57e-43
1.84 1.56 0.96 3.57e-43
1.88 1.56 0.96 3.57e-43
1.91 1.56 0.96 3.57e-43
1.79 1.56 0.62 9.1477e-41
1.76 1.56 0.44 9.1477e-41
1.42 1.57 1.47 3.57e-43
1.46 1.57 1.45 9.1477e-41
1.5 1.57 1.44 9.1477e-41
1.54 1.57 1.41 9.1477e-41
1.36 1.57 1.03 9.1477e-41
1.38 1.57 0.97 9.1477e-41
1.41 1.57 0.93 9.1477e-41
1.46 1.57 0.93 9.1477e-41
1.5 1.57 0.89 9.1477e-41
1.53 1.57 0.85 9.1477e-41
1.52 1.57 0.73 9.1477e-41
1.7 1.57 0.97 9.1477e-41
1.74 1.57 0.97 3.57e-43
1.84 1.57 0.97 3.57e-43
1.88 1.57 1.04 9.1477e-41
1.82 1.57 1.04 3.57e-43
1.79 1.57 0.62 9.1477e-41
1.77 1.57 0.45 9.1477e-41
1.42 1.58 1.47 3.57e-43
1.46 1.58 1.45 9.1477e-41
1.5 1.58 1.44 9.1477e-41
1.53 1.58 1.41 9.1477e-41
1.38 1.58 1.07 9.1477e-41
1.4 1.58 1.01 9.1477e-41
1.45 1.58 0.99 9.1477e-41
1.48 1.58 0.96 9.1477e-41
1.51 1.58 0.91 9.1477e-41
1.53 1.58 0.85 9.1477e-41
1.5 1.58 0.69 9.1477e-41
1.7 1.58 0.98 9.1477e-41
1.74 1.58 0.98 3.57e-43
1.84 1.58 0.98 3.57e-43
1.88 1.58 1.04 9.1477e-41
1.83 1.58 0.81 9.1477e-41
1.79 1.58 0.62 9.1477e-41
1.76 1.58 0.44 9.1477e-41
0.81 1.59 0.61 3.57e-43
1.42 1.59 1.47 9.1477e-41
1.46 1.59 1.45 9.1477e-41
1.5 1.59 1.44 9.1477e-41
1.53 1.59 1.41 9.1477e-41
1.4 1.59 1.1 9.1477e-41
1.42 1.59 1.04 9.1477e-41
1.47 1.59 1.03 9.1477e-41
1.49 1.59 0.97 9.1477e-41
1.52 1.59 0.93 9.1477e-41
1.51 1.59 0.81 9.1477e-41
1.5 1.59 0.68 9.1477e-41
1.7 1.59 0.98 9.1477e-41
1.73 1.59 0.98 3.57e-43
1.84 1.59 0.98 3.57e-43
1.88 1.59 1.04 9.1477e-41
1.82 1.59 1.04 3.57e-43
1.79 1.59 0.62 9.1477e-41
1.76 1.59 0.44 9.1477e-41
0.81 1.6 0.61 3.57e-43
1.42 1.6 1.48 9.1477e-41
1.45 1.6 1.44 9.1477e-41
1.5 1.6 1.45 9.1477e-41
1.54 1.6 1.41 9.1477e-41
1.41 1.6 1.11 9.1477e-41
1.44 1.6 1.07 9.1477e-41
1.48 1.6 1.04 9.1477e-41
1.5 1.6 0.99 9.1477e-41
1.52 1.6 0.93 9.1477e-41
1.5 1.6 0.8 9.1477e-41
1.53 1.6 0.75 9.1477e-41
1.7 1.6 0.97 9.1477e-41
1.73 1.6 0.97 3.57e-43
1.84 1.6 0.97 3.57e-43
1.88 1.6 0.97 3.57e-43
1.82 1.6 0.97 3.57e-43
1.79 1.6 0.62 9.1477e-41
1.77 1.6 0.45 9.1477e-41
0.81 1.61 0.61 3.57e-43
1.42 1.61 1.47 9.1477e-41
1.46 1.61 1.46 9.1477e-41
1.5 1.61 1.45 9.1477e-41
1.54 1.61 1.41 9.1477e-41
1.42 1.61 1.13 9.1477e-41
1.44 1.61 1.08 9.1477e-41
1.48 1.61 1.04 9.1477e-41
1.51 1.61 1 9.1477e-41
1.52 1.61 0.94 9.1477e-41
1.51 1.61 0.81 9.1477e-41
1.63 1.61 0.94 9.1477e-41
1.7 1.61 0.98 9.1477e-41
1.74 1.61 0.98 3.57e-43
1.84 1.61 0.98 3.57e-43
1.88 1.61 0.98 3.57e-43
1.82 1.61 0.98 3.57e-43
1.79 1.61 0.98 3.57e-43
1.77 1.61 0.45 9.1477e-41
0.81 1.62 0.61 3.57e-43
1.42 1.62 1.48 9.1477e-41
1.47 1.62 1.47 9.1477e-41
1.5 1.62 1.44 9.1477e-41
1.53 1.62 1.41 9.1477e-41
1.42 1.62 1.13 9.1477e-41
1.45 1.62 1.09 9.1477e-41
1.48 1.62 1.04 9.1477e-41
1.51 1.62 1 9.1477e-41
1.52 1.62 0.94 9.1477e-41
1.61 1.62 1 9.1477e-41
1.68 1.62 1.04 9.1477e-41
1.71 1.62 1.04 3.57e-43
1.74 1.62 1.04 3.57e-43
1.84 1.62 1.04 3.57e-43
1.88 1.62 1.04 3.57e-43
1.82 1.62 1.04 3.57e-43
1.79 1.62 0.62 9.1477e-41
1.76 1.62 0.43 9.1477e-41
0.81 1.63 0.61 3.57e-43
1.41 1.63 1.47 9.1477e-41
1.46 1.63 1.46 9.1477e-41
1.5 1.63 1.44 9.1477e-41
1.54 1.63 1.41 9.1477e-41
1.42 1.63 1.13 9.1477e-41
1.45 1.63 1.09 9.1477e-41
1.48 1.63 1.04 9.1477e-41
1.52 1.63 1.02 9.1477e-41
1.58 1.63 1.03 9.1477e-41
1.66 1.63 1.09 9.1477e-41
1.69 1.63 1.09 3.57e-43
1.71 1.63 1.09 3.57e-43
1.74 1.63 1.09 3.57e-43
1.84 1.63 1.09 3.57e-43
1.88 1.63 1.09 3.57e-43
1.82 1.63 0.8 9.1477e-41
1.79 1.63 0.62 9.1477e-41
1.76 1.63 0.44 9.1477e-41
0.81 1.64 0.61 3.57e-43
1.42 1.64 1.47 9.1477e-41
1.47 1.64 1.47 9.1477e-41
1.5 1.64 1.45 9.1477e-41
1.54 1.64 1.41 9.1477e-41
1.44 1.64 1.16 9.1477e-41
1.46 1.64 1.1 9.1477e-41
1.5 1.64 1.1 9.1477e-41
1.56 1.64 1.1 9.1477e-41
1.64 1.64 1.15 9.1477e-41
1.67 1.64 1.15 3.57e-43
1.69 1.64 1.15 3.57e-43
1.71 1.64 1.15 3.57e-43
1.74 1.64 1.15 3.57e-43
1.84 1.64 1.15 3.57e-43
1.88 1.64 1.15 3.57e-43
1.82 1.64 0.8 9.1477e-41
1.79 1.64 0.62 9.1477e-41
1.76 1.64 0.44 9.1477e-41
0.81 1.65 0.61 3.57e-43
1.42 1.65 1.47 9.1477e-41
1.47 1.65 1.47 9.1477e-41
1.5 1.65 1.44 9.1477e-41
1.54 1.65 1.41 9.1477e-41
1.48 1.65 1.24 9.1477e-41
1.5 1.65 1.18 9.1477e-41
1.55 1.65 1.18 9.1477e-41
1.63 1.65 1.18 3.57e-43
1.64 1.65 1.18 3.57e-43
1.67 1.65 1.18 3.57e-43
1.69 1.65 1.18 3.57e-43
1.71 1.65 1.18 3.57e-43
1.74 1.65 1.18 3.57e-43
1.84 1.65 1.18 3.57e-43
1.88 1.65 1.18 3.57e-43
1.82 1.65 1.18 3.57e-43
1.79 1.65 1.18 3.57e-43
1.76 1.65 0.44 9.1477e-41
0.81 1.66 0.61 3.57e-43
1.42 1.66 1.47 9.1477e-41
1.46 1.66 1.46 9.1477e-41
1.5 1.66 1.45 9.1477e-41
1.53 1.66 1.41 9.1477e-41
1.53 1.66 1.32 9.1477e-41
1.58 1.66 1.32 3.57e-43
1.55 1.66 1.32 3.57e-43
1.63 1.66 1.32 3.57e-43
1.64 1.66 1.32 3.57e-43
1.67 1.66 1.32 3.57e-43
1.69 1.66 1.32 3.57e-43
1.71 1.66 1.32 3.57e-43
1.74 1.66 1.32 3.57e-43
1.84 1.66 1.32 3.57e-43
1.88 1.66 1.32 3.57e-43
1.82 1.66 1.32 3.57e-43
1.79 1.66 1.32 3.57e-43
1.76 1.66 0.44 9.1477e-41
0.81 1.67 0.61 3.57e-43
1.42 1.67 1.47 9.1477e-41
1.46 1.67 1.46 9.1477e-41
1.5 1.67 1.45 9.1477e-41
1.52 1.67 1.45 3.57e-43
1.53 1.67 1.45 3.57e-43
1.58 1.67 1.45 3.57e-43
1.55 1.67 1.45 3.57e-43
1.63 1.67 1.45 3.57e-43
1.64 1.67 1.45 3.57e-43
1.67 1.67 1.45 3.57e-43
1.69 1.67 1.45 3.57e-43
1.71 1.67 1.45 3.57e-43
1.74 1.67 1.45 3.57e-43
1.84 1.67 1.45 3.57e-43
1.88 1.67 1.45 3.57e-43
1.82 1.67 0.8 9.1477e-41
1.79 1.67 0.8 3.57e-43
1.76 1.67 0.44 9.1477e-41
0.81 1.68 0.61 3.57e-43
1.41 1.68 1.47 9.1477e-41
1.46 1.68 1.46 9.1477e-41
1.49 1.68 1.43 9.1477e-41
1.52 1.68 1.43 3.57e-43
1.53 1.68 1.43 3.57e-43
1.58 1.68 1.43 3.57e-43
1.55 1.68 1.43 3.57e-43
1.63 1.68 1.43 3.57e-43
1.64 1.68 1.43 3.57e-43
1.67 1.68 1.43 3.57e-43
1.69 1.68 1.43 3.57e-43
1.71 1.68 1.43 3.57e-43
1.74 1.68 1.43 3.57e-43
1.84 1.68 1.43 3.57e-43
1.88 1.68 1.43 3.57e-43
1.82 1.68 0.8 9.1477e-41
1.79 1.68 0.8 3.57e-43
1.76 1.68 0.44 9.1477e-41
0.81 1.69 0.61 3.57e-43
1.42 1.69 1.47 9.1477e-41
1.46 1.69 1.46 9.1477e-41
1.5 1.69 1.45 9.1477e-41
1.52 1.69 1.45 3.57e-43
1.53 1.69 1.45 3.57e-43
1.58 1.69 1.45 3.57e-43
1.55 1.69 1.45 3.57e-43
1.63 1.69 1.45 3.57e-43
1.64 1.69 1.45 3.57e-43
1.67 1.69 1.45 3.57e-43
1.69 1.69 1.05 9.1477e-41
1.71 1.69 1.05 3.57e-43
1.74 1.69 1.05 3.57e-43
1.84 1.69 1.05 3.57e-43
1.88 1.69 1.05 3.57e-43
1.82 1.69 0.8 9.1477e-41
1.79 1.69 0.8 3.57e-43
1.76 1.69 0.44 9.1477e-41
0.81 1.7 0.61 3.57e-43
1.42 1.7 1.47 9.1477e-41
1.47 1.7 1.47 9.1477e-41
1.5 1.7 1.45 9.1477e-41
1.52 1.7 1.45 3.57e-43
1.53 1.7 1.45 3.57e-43
1.58 1.7 1.45 3.57e-43
1.55 1.7 1.45 3.57e-43
1.63 1.7 1.45 3.57e-43
1.64 1.7 1.45 3.57e-43
1.67 1.7 1.45 3.57e-43
1.69 1.7 1.05 9.1477e-41
1.71 1.7 1.05 3.57e-43
1.74 1.7 1.05 3.57e-43
1.84 1.7 1.05 3.57e-43
1.88 1.7 1.05 3.57e-43
1.82 1.7 0.8 9.1477e-41
1.79 1.7 0.8 3.57e-43
1.76 1.7 0.44 9.1477e-41
0.81 1.71 0.61 3.57e-43
1.42 1.71 1.47 9.1477e-41
1.47 1.71 1.47 9.1477e-41
1.51 1.71 1.45 9.1477e-41
1.52 1.71 1.45 3.57e-43
1.53 1.71 1.32 9.1477e-41
1.59 1.71 1.32 3.57e-43
1.55 1.71 1.32 3.57e-43
1.63 1.71 1.32 3.57e-43
1.64 1.71 1.32 3.57e-43
1.67 1.71 1.32 3.57e-43
1.69 1.71 1.05 9.1477e-41
1.71 1.71 1.05 3.57e-43
1.74 1.71 1.05 3.57e-43
1.84 1.71 1.05 3.57e-43
1.88 1.71 1.05 3.57e-43
1.82 1.71 0.8 9.1477e-41
1.79 1.71 0.8 3.57e-43
1.76 1.71 0.44 9.1477e-41
0.81 1.72 0.61 3.57e-43
1.41 1.72 1.47 9.1477e-41
1.47 1.72 1.48 9.1477e-41
1.51 1.72 1.48 3.57e-43
1.52 1.72 1.48 3.57e-43
1.53 1.72 1.48 3.57e-43
1.59 1.72 1.48 3.57e-43
1.55 1.72 1.48 3.57e-43
1.63 1.72 1.48 3.57e-43
1.64 1.72 1.48 3.57e-43
1.67 1.72 1.48 3.57e-43
1.69 1.72 1.05 9.1477e-41
1.71 1.72 1.05 3.57e-43
1.74 1.72 1.05 3.57e-43
1.84 1.72 1.05 3.57e-43
1.88 1.72 1.05 3.57e-43
1.82 1.72 1.05 3.57e-43
1.79 1.72 1.05 3.57e-43
1.76 1.72 0.44 9.1477e-41
0.81 1.73 0.61 3.57e-43
1.42 1.73 1.48 9.1477e-41
1.46 1.73 1.46 9.1477e-41
1.5 1.73 1.44 9.1477e-41
1.52 1.73 1.44 3.57e-43
1.53 1.73 1.44 3.57e-43
1.59 1.73 1.44 3.57e-43
1.55 1.73 1.44 3.57e-43
1.63 1.73 1.44 3.57e-43
1.64 1.73 1.44 3.57e-43
1.67 1.73 1.44 3.57e-43
1.69 1.73 1.05 9.1477e-41
1.71 1.73 1.05 3.57e-43
1.74 1.73 1.05 3.57e-43
1.84 1.73 1.05 3.57e-43
1.88 1.73 1.05 3.57e-43
1.82 1.73 0.8 9.1477e-41
1.79 1.73 0.8 3.57e-43
1.76 1.73 0.44 9.1477e-41
0.81 1.74 0.61 3.57e-43
1.42 1.74 1.47 9.1477e-41
1.46 1.74 1.46 9.1477e-41
1.51 1.74 1.46 9.1477e-41
1.52 1.74 1.46 3.57e-43
1.53 1.74 1.32 9.1477e-41
1.05 1.74 0.4 9.1477e-41
1.1 1.74 0.4 3.57e-43
1.63 1.74 0.4 3.57e-43
1.64 1.74 0.4 3.57e-43
1.67 1.74 0.4 3.57e-43
1.69 1.74 1.05 9.1477e-41
1.71 1.74 1.05 3.57e-43
1.74 1.74 1.05 3.57e-43
1.84 1.74 1.05 3.57e-43
1.88 1.74 1.05 3.57e-43
1.82 1.74 0.8 9.1477e-41
1.8 1.74 0.8 3.57e-43
1.76 1.74 0.44 9.1477e-41
0.81 1.75 0.61 3.57e-43
1.42 1.75 1.47 9.1477e-41
1.46 1.75 1.46 9.1477e-41
1.5 1.75 1.44 9.1477e-41
1.52 1.75 1.44 3.57e-43
1.53 1.75 1.32 9.1477e-41
1.06 1.75 0.41 9.1477e-41
1.1 1.75 0.41 3.57e-43
1.63 1.75 0.41 3.57e-43
1.64 1.75 0.41 3.57e-43
1.67 1.75 0.41 3.57e-43
1.69 1.75 1.05 9.1477e-41
1.71 1.75 1.05 3.57e-43
1.74 1.75 1.05 3.57e-43
1.84 1.75 1.05 3.57e-43
1.88 1.75 1.05 3.57e-43
1.82 1.75 0.8 9.1477e-41
1.79 1.75 0.8 3.57e-43
1.76 1.75 0.44 9.1477e-41
0.81 1.76 0.61 3.57e-43
1.42 1.76 1.47 9.1477e-41
1.46 1.76 1.46 9.1477e-41
1.5 1.76 1.45 9.1477e-41
1.52 1.76 1.45 3.57e-43
1.53 1.76 1.32 9.1477e-41
1.06 1.76 1.32 3.57e-43
1.1 1.76 1.32 3.57e-43
1.63 1.76 1.32 3.57e-43
1.64 1.76 1.32 3.57e-43
1.67 1.76 1.32 3.57e-43
1.69 1.76 1.05 9.1477e-41
1.71 1.76 1.05 3.57e-43
1.74 1.76 1.05 3.57e-43
1.84 1.76 1.05 3.57e-43
1.88 1.76 1.05 3.57e-43
1.82 1.76 1.05 3.57e-43
1.79 1.76 1.05 3.57e-43
1.76 1.76 0.44 9.1477e-41
0.81 1.77 0.61 3.57e-43
1.42 1.77 1.47 9.1477e-41
1.47 1.77 1.47 9.1477e-41
1.5 1.77 1.45 9.1477e-41
1.53 1.77 1.45 3.57e-43
1.53 1.77 1.45 3.57e-43
1.06 1.77 1.45 3.57e-43
1.1 1.77 1.45 3.57e-43
1.63 1.77 1.45 3.57e-43
1.64 1.77 1.45 3.57e-43
1.67 1.77 1.45 3.57e-43
1.69 1.77 1.05 9.1477e-41
1.71 1.77 1.05 3.57e-43
1.74 1.77 1.05 3.57e-43
1.84 1.77 1.05 3.57e-43
1.88 1.77 1.05 3.57e-43
1.82 1.77 0.8 9.1477e-41
1.79 1.77 0.8 3.57e-43
1.76 1.77 0.44 9.1477e-41
0.81 1.78 0.61 3.57e-43
1.42 1.78 1.48 9.1477e-41
1.47 1.78 1.47 9.1477e-41
1.5 1.78 1.44 9.1477e-41
1.53 1.78 1.44 3.57e-43
1.53 1.78 1.44 3.57e-43
1.06 1.78 1.44 3.57e-43
1.1 1.78 1.44 3.57e-43
1.63 1.78 1.44 3.57e-43
1.64 1.78 1.44 3.57e-43
1.67 1.78 1.44 3.57e-43
1.69 1.78 1.05 9.1477e-41
1.72 1.78 1.05 3.57e-43
1.74 1.78 1.05 3.57e-43
1.84 1.78 1.05 3.57e-43
1.88 1.78 1.05 3.57e-43
1.82 1.78 1.05 3.57e-43
1.79 1.78 1.05 3.57e-43
1.76 1.78 0.44 9.1477e-41
0.81 1.79 0.61 3.57e-43
1.41 1.79 1.47 9.1477e-41
1.46 1.79 1.45 9.1477e-41
1.5 1.79 1.45 3.57e-43
1.53 1.79 1.45 3.57e-43
1.53 1.79 1.45 3.57e-43
1.06 1.79 1.45 3.57e-43
1.1 1.79 1.45 3.57e-43
1.63 1.79 1.45 3.57e-43
1.64 1.79 1.45 3.57e-43
1.67 1.79 1.45 3.57e-43
1.69 1.79 1.05 9.1477e-41
1.72 1.79 1.05 3.57e-43
1.74 1.79 1.05 3.57e-43
1.84 1.79 1.05 3.57e-43
1.88 1.79 1.05 3.57e-43
1.82 1.79 1.05 3.57e-43
1.79 1.79 1.05 3.57e-43
1.76 1.79 0.44 9.1477e-41
0.81 1.8 0.61 3.57e-43
1.42 1.8 1.48 9.1477e-41
1.46 1.8 1.46 9.1477e-41
1.5 1.8 1.46 3.57e-43
1.53 1.8 1.46 3.57e-43
1.53 1.8 1.46 3.57e-43
1.06 1.8 1.46 3.57e-43
1.1 1.8 1.46 3.57e-43
1.63 1.8 1.46 3.57e-43
1.64 1.8 1.46 3.57e-43
1.67 1.8 1.46 3.57e-43
1.69 1.8 1.05 9.1477e-41
1.71 1.8 1.05 3.57e-43
1.74 1.8 1.05 3.57e-43
1.84 1.8 1.05 3.57e-43
1.88 1.8 1.05 3.57e-43
1.82 1.8 0.8 9.1477e-41
1.79 1.8 0.8 3.57e-43
1.76 1.8 0.44 9.1477e-41
0.81 1.81 0.61 3.57e-43
1.42 1.81 1.48 9.1477e-41
1.46 1.81 1.46 9.1477e-41
1.5 1.81 1.46 3.57e-43
1.53 1.81 1.46 3.57e-43
1.53 1.81 1.46 3.57e-43
1.06 1.81 1.46 3.57e-43
1.1 1.81 1.46 3.57e-43
1.63 1.81 1.46 3.57e-43
1.64 1.81 1.46 3.57e-43
1.67 1.81 1.46 3.57e-43
1.69 1.81 1.05 9.1477e-41
1.72 1.81 1.05 3.57e-43
1.74 1.81 1.05 3.57e-43
1.84 1.81 1.05 3.57e-43
1.88 1.81 1.05 3.57e-43
1.82 1.81 1.05 3.57e-43
1.79 1.81 1.05 3.57e-43
1.76 1.81 0.44 9.1477e-41
0.81 1.82 0.61 3.57e-43
1.41 1.82 1.47 9.1477e-41
1.47 1.82 1.47 9.1477e-41
1.49 1.82 1.47 3.57e-43
1.53 1.82 1.47 3.57e-43
1.53 1.82 1.47 3.57e-43
1.06 1.82 1.47 3.57e-43
1.1 1.82 1.47 3.57e-43
1.63 1.82 1.47 3.57e-43
1.64 1.82 1.47 3.57e-43
1.67 1.82 1.47 3.57e-43
1.69 1.82 1.05 9.1477e-41
1.72 1.82 1.05 3.57e-43
1.74 1.82 1.05 3.57e-43
1.84 1.82 1.05 3.57e-43
1.88 1.82 1.05 3.57e-43
1.82 1.82 1.05 3.57e-43
1.79 1.82 1.05 3.57e-43
1.76 1.82 0.44 9.1477e-41
0.81 1.83 0.61 3.57e-43
1.42 1.83 1.47 9.1477e-41
1.46 1.83 1.45 9.1477e-41
1.5 1.83 1.45 3.57e-43
1.53 1.83 1.45 3.57e-43
1.53 1.83 1.45 3.57e-43
1.06 1.83 1.45 3.57e-43
1.1 1.83 1.45 3.57e-43
1.63 1.83 1.45 3.57e-43
1.64 1.83 1.45 3.57e-43
1.67 1.83 1.45 3.57e-43
1.69 1.83 1.05 9.1477e-41
1.72 1.83 1.05 3.57e-43
1.74 1.83 1.05 3.57e-43
1.84 1.83 1.05 3.57e-43
1.88 1.83 1.05 3.57e-43
1.82 1.83 0.8 9.1477e-41
1.79 1.83 0.8 3.57e-43
1.76 1.83 0.44 9.1477e-41
0.81 1.84 0.61 3.57e-43
1.41 1.84 1.47 9.1477e-41
1.47 1.84 1.47 9.1477e-41
1.5 1.84 1.44 9.1477e-41
1.52 1.84 1.44 3.57e-43
1.53 1.84 1.44 3.57e-43
1.06 1.84 1.44 3.57e-43
1.1 1.84 1.44 3.57e-43
1.63 1.84 1.44 3.57e-43
1.64 1.84 1.44 3.57e-43
1.67 1.84 1.44 3.57e-43
1.69 1.84 1.05 9.1477e-41
1.72 1.84 1.05 3.57e-43
1.74 1.84 1.05 3.57e-43
1.84 1.84 1.05 3.57e-43
1.88 1.84 1.05 3.57e-43
1.82 1.84 0.8 9.1477e-41
1.79 1.84 0.8 3.57e-43
1.76 1.84 0.44 9.1477e-41
0.81 1.85 0.61 3.57e-43
1.42 1.85 1.47 9.1477e-41
1.46 1.85 1.45 9.1477e-41
1.49 1.85 1.45 3.57e-43
1.52 1.85 1.45 3.57e-43
1.53 1.85 1.45 3.57e-43
1.06 1.85 1.45 3.57e-43
1.1 1.85 1.45 3.57e-43
1.63 1.85 1.45 3.57e-43
1.64 1.85 1.45 3.57e-43
1.67 1.85 1.45 3.57e-43
1.69 1.85 1.05 9.1477e-41
1.72 1.85 1.05 3.57e-43
1.74 1.85 1.05 3.57e-43
1.84 1.85 1.05 3.57e-43
1.88 1.85 1.05 3.57e-43
1.82 1.85 0.8 9.1477e-41
1.79 1.85 0.8 3.57e-43
1.76 1.85 0.44 9.1477e-41
0.81 1.86 0.61 3.57e-43
1.41 1.86 1.47 9.1477e-41
1.46 1.86 1.46 9.1477e-41
1.5 1.86 1.46 3.57e-43
1.52 1.86 1.46 3.57e-43
1.53 1.86 1.46 3.57e-43
1.06 1.86 1.46 3.57e-43
1.1 1.86 1.46 3.57e-43
1.63 1.86 1.46 3.57e-43
1.64 1.86 1.46 3.57e-43
1.67 1.86 1.46 3.57e-43
1.69 1.86 1.05 9.1477e-41
1.72 1.86 1.05 3.57e-43
1.74 1.86 1.05 3.57e-43
1.84 1.86 1.05 3.57e-43
1.88 1.86 1.05 3.57e-43
1.82 1.86 0.8 9.1477e-41
1.8 1.86 0.8 3.57e-43
1.76 1.86 0.44 9.1477e-41
0.81 1.87 0.61 3.57e-43
1.41 1.87 1.47 9.1477e-41
1.46 1.87 1.45 9.1477e-41
1.49 1.87 1.43 9.1477e-41
1.52 1.87 1.43 3.57e-43
1.53 1.87 1.43 3.57e-43
1.06 1.87 1.43 3.57e-43
1.1 1.87 1.43 3.57e-43
1.63 1.87 1.43 3.57e-43
1.64 1.87 1.43 3.57e-43
1.67 1.87 1.43 3.57e-43
1.69 1.87 1.05 9.1477e-41
1.72 1.87 1.05 3.57e-43
1.74 1.87 1.05 3.57e-43
1.84 1.87 1.05 3.57e-43
1.88 1.87 1.05 3.57e-43
1.82 1.87 0.8 9.1477e-41
1.79 1.87 0.8 3.57e-43
1.76 1.87 0.44 9.1477e-41
0.81 1.88 0.61 3.57e-43
1.41 1.88 1.47 9.1477e-41
1.45 1.88 1.44 9.1477e-41
1.49 1.88 1.43 9.1477e-41
1.52 1.88 1.43 3.57e-43
1.53 1.88 1.43 3.57e-43
1.06 1.88 1.43 3.57e-43
1.1 1.88 1.43 3.57e-43
1.63 1.88 1.43 3.57e-43
1.64 1.88 1.43 3.57e-43
1.67 1.88 1.12 9.1477e-41
1.68 1.88 1.04 9.1477e-41
1.72 1.88 1.04 3.57e-43
1.74 1.88 1.04 3.57e-43
1.84 1.88 1.04 3.57e-43
1.88 1.88 1.04 3.57e-43
1.82 1.88 0.8 9.1477e-41
1.79 1.88 0.8 3.57e-43
1.76 1.88 0.44 9.1477e-41
0.81 1.89 0.61 3.57e-43
1.41 1.89 1.47 9.1477e-41
1.45 1.89 1.44 9.1477e-41
1.49 1.89 1.42 9.1477e-41
1.52 1.89 1.42 3.57e-43
1.53 1.89 1.42 3.57e-43
1.06 1.89 1.42 3.57e-43
1.1 1.89 1.42 3.57e-43
1.63 1.89 1.42 3.57e-43
1.64 1.89 1.42 3.57e-43
1.67 1.89 1.12 9.1477e-41
1.68 1.89 1.04 9.1477e-41
1.72 1.89 1.04 3.57e-43
1.74 1.89 1.04 3.57e-43
1.84 1.89 1.04 3.57e-43
1.88 1.89 1.04 3.57e-43
1.82 1.89 0.8 9.1477e-41
1.8 1.89 0.8 3.57e-43
1.76 1.89 0.44 9.1477e-41
0.81 1.9 0.61 3.57e-43
1.41 1.9 1.47 9.1477e-41
1.46 1.9 1.45 9.1477e-41
1.49 1.9 1.43 9.1477e-41
1.52 1.9 1.43 3.57e-43
1.53 1.9 1.43 3.57e-43
1.06 1.9 1.43 3.57e-43
1.1 1.9 1.43 3.57e-43
1.63 1.9 1.43 3.57e-43
1.64 1.9 1.43 3.57e-43
1.67 1.9 1.12 9.1477e-41
1.68 1.9 1.04 9.1477e-41
1.72 1.9 1.04 3.57e-43
1.74 1.9 1.04 3.57e-43
1.84 1.9 1.04 3.57e-43
1.88 1.9 1.04 3.57e-43
1.82 1.9 0.8 9.1477e-41
1.79 1.9 0.8 3.57e-43
1.76 1.9 0.44 9.1477e-41
0.81 1.91 0.61 3.57e-43
1.41 1.91 1.46 9.1477e-41
1.45 1.91 1.43 9.1477e-41
1.49 1.91 1.42 9.1477e-41
1.51 1.91 1.42 3.57e-43
1.53 1.91 1.42 3.57e-43
1.06 1.91 1.42 3.57e-43
1.1 1.91 1.42 3.57e-43
1.63 1.91 1.42 3.57e-43
1.64 1.91 1.42 3.57e-43
1.67 1.91 1.12 9.1477e-41
1.68 1.91 1.12 3.57e-43
1.72 1.91 1.12 3.57e-43
1.74 1.91 1.12 3.57e-43
1.84 1.91 1.12 3.57e-43
1.88 1.91 1.12 3.57e-43
1.82 1.91 0.8 9.1477e-41
1.8 1.91 0.8 3.57e-43
1.76 1.91 0.44 9.1477e-41
0.81 1.92 0.61 3.57e-43
1.41 1.92 1.47 9.1477e-41
1.45 1.92 1.44 9.1477e-41
1.49 1.92 1.43 9.1477e-41
1.52 1.92 1.43 3.57e-43
1.53 1.92 1.43 3.57e-43
1.06 1.92 1.43 3.57e-43
1.1 1.92 1.43 3.57e-43
1.63 1.92 1.43 3.57e-43
1.64 1.92 1.43 3.57e-43
1.67 1.92 1.12 9.1477e-41
1.68 1.92 1.12 3.57e-43
1.72 1.92 1.12 3.57e-43
1.74 1.92 1.12 3.57e-43
1.84 1.92 1.12 3.57e-43
1.88 1.92 1.12 3.57e-43
1.82 1.92 0.8 9.1477e-41
1.79 1.92 0.8 3.57e-43
1.76 1.92 0.44 9.1477e-41
0.81 1.93 0.61 3.57e-43
1.4 1.93 1.45 9.1477e-41
1.45 1.93 1.44 9.1477e-41
1.49 1.93 1.43 9.1477e-41
1.52 1.93 1.43 3.57e-43
1.53 1.93 1.43 3.57e-43
1.06 1.93 1.43 3.57e-43
1.1 1.93 1.43 3.57e-43
1.63 1.93 1.43 3.57e-43
1.64 1.93 1.43 3.57e-43
1.67 1.93 1.12 9.1477e-41
1.68 1.93 1.12 3.57e-43
1.72 1.93 1.12 3.57e-43
1.74 1.93 1.12 3.57e-43
1.84 1.93 1.12 3.57e-43
1.88 1.93 1.12 3.57e-43
1.82 1.93 0.8 9.1477e-41
1.8 1.93 0.8 3.57e-43
1.76 1.93 0.44 9.1477e-41
0.81 1.94 0.61 3.57e-43
1.41 1.94 1.47 9.1477e-41
1.45 1.94 1.44 9.1477e-41
1.49 1.94 1.44 3.57e-43
1.52 1.94 1.44 3.57e-43
1.53 1.94 1.44 3.57e-43
1.06 1.94 1.44 3.57e-43
1.1 1.94 1.44 3.57e-43
1.63 1.94 1.44 3.57e-43
1.64 1.94 1.44 3.57e-43
1.67 1.94 1.12 9.1477e-41
1.69 1.94 1.12 3.57e-43
1.72 1.94 1.12 3.57e-43
1.74 1.94 1.12 3.57e-43
1.84 1.94 1.12 3.57e-43
1.88 1.94 1.12 3.57e-43
1.82 1.94 0.8 9.1477e-41
1.79 1.94 0.8 3.57e-43
1.76 1.94 0.44 9.1477e-41
0.81 1.95 0.61 3.57e-43
1.4 1.95 1.45 9.1477e-41
1.45 1.95 1.43 9.1477e-41
1.49 1.95 1.42 9.1477e-41
1.51 1.95 1.42 3.57e-43
1.53 1.95 1.42 3.57e-43
1.06 1.95 1.42 3.57e-43
1.1 1.95 1.42 3.57e-43
1.63 1.95 1.42 3.57e-43
1.64 1.95 1.42 3.57e-43
1.67 1.95 1.12 9.1477e-41
1.69 1.95 1.12 3.57e-43
1.72 1.95 1.12 3.57e-43
1.74 1.95 1.12 3.57e-43
1.84 1.95 1.12 3.57e-43
1.88 1.95 1.12 3.57e-43
1.82 1.95 0.8 9.1477e-41
1.8 1.95 0.8 3.57e-43
1.76 1.95 0.44 9.1477e-41
0.81 1.96 0.61 3.57e-43
1.4 1.96 1.45 9.1477e-41
1.45 1.96 1.44 9.1477e-41
1.48 1.96 1.41 9.1477e-41
1.52 1.96 1.41 3.57e-43
1.53 1.96 1.41 3.57e-43
1.06 1.96 1.41 3.57e-43
1.1 1.96 1.41 3.57e-43
1.63 1.96 1.41 3.57e-43
1.64 1.96 1.41 3.57e-43
1.67 1.96 1.12 9.1477e-41
1.69 1.96 1.12 3.57e-43
1.72 1.96 1.12 3.57e-43
1.74 1.96 1.12 3.57e-43
1.84 1.96 1.12 3.57e-43
1.88 1.96 1.12 3.57e-43
1.82 1.96 0.8 9.1477e-41
1.79 1.96 0.8 3.57e-43
1.76 1.96 0.44 9.1477e-41
0.81 1.97 0.61 3.57e-43
1.4 1.97 1.45 9.1477e-41
1.45 1.97 1.43 9.1477e-41
1.49 1.97 1.43 3.57e-43
1.52 1.97 1.43 3.57e-43
1.53 1.97 1.43 3.57e-43
1.06 1.97 1.43 3.57e-43
1.1 1.97 1.43 3.57e-43
1.63 1.97 1.43 3.57e-43
1.64 1.97 1.43 3.57e-43
1.67 1.97 1.12 9.1477e-41
1.69 1.97 1.12 3.57e-43
1.72 1.97 1.12 3.57e-43
1.74 1.97 1.12 3.57e-43
1.84 1.97 1.05 9.1477e-41
1.8 1.97 1.05 3.57e-43
1.82 1.97 1.05 3.57e-43
1.79 1.97 1.05 3.57e-43
1.76 1.97 0.44 9.1477e-41
0.81 1.98 0.61 3.57e-43
1.4 1.98 1.44 9.1477e-41
1.45 1.98 1.44 9.1477e-41
1.48 1.98 1.4 9.1477e-41
1.52 1.98 1.4 3.57e-43
1.53 1.98 1.4 3.57e-43
1.06 1.98 1.4 3.57e-43
1.1 1.98 1.4 3.57e-43
1.63 1.98 1.4 3.57e-43
1.64 1.98 1.4 3.57e-43
1.67 1.98 1.4 3.57e-43
1.69 1.98 1.4 3.57e-43
1.72 1.98 1.4 3.57e-43
1.74 1.98 1.4 3.57e-43
1.84 1.98 1.05 9.1477e-41
1.8 1.98 1.05 3.57e-43
1.82 1.98 1.05 3.57e-43
1.79 1.98 0.62 9.1477e-41
0.95 1.99 1.5 3.57e-43
0.98 1.99 1.5 3.57e-43
0.71 1.99 1.5 3.57e-43
0.77 1.99 1.5 3.57e-43
0.84 1.99 1.5 3.57e-43
0.88 1.99 1.5 3.57e-43
0.68 1.99 1.5 3.57e-43
0.74 1.99 1.5 3.57e-43
0.81 1.99 0.61 9.1477e-41
1.4 1.99 1.44 9.1477e-41
1.45 1.99 1.43 9.1477e-41
1.49 1.99 1.43 3.57e-43
1.52 1.99 1.43 3.57e-43
1.53 1.99 1.43 3.57e-43
1.06 1.99 1.43 3.57e-43
1.1 1.99 1.43 3.57e-43
1.63 1.99 1.43 3.57e-43
1.64 1.99 1.43 3.57e-43
1.67 1.99 1.43 3.57e-43
1.69 1.99 1.43 3.57e-43
1.72 1.99 1.43 3.57e-43
1.74 1.99 1.43 3.57e-43
1.84 1.99 1.05 9.1477e-41
1.8 1.99 1.05 3.57e-43
1.82 1.99 1.05 3.57e-43
1.79 1.99 0.62 9.1477e-41
0.95 2 1.5 3.57e-43
0.98 2 1.5 3.57e-43
0.71 2 1.5 3.57e-43
0.77 2 1.5 3.57e-43
0.84 2 1.5 3.57e-43
0.88 2 1.5 3.57e-43
0.68 2 1.5 3.57e-43
0.74 2 1.5 3.57e-43
0.81 2 0.61 9.1477e-41
1.4 2 1.44 9.1477e-41
1.45 2 1.43 9.1477e-41
1.48 2 1.41 9.1477e-41
1.51 2 1.41 3.57e-43
1.53 2 1.41 3.57e-43
1.06 2 1.41 3.57e-43
1.1 2 1.41 3.57e-43
1.63 2 1.41 3.57e-43
1.64 2 1.41 3.57e-43
1.67 2 1.41 3.57e-43
1.69 2 1.41 3.57e-43
1.72 2 1.41 3.57e-43
1.74 2 1.41 3.57e-43
1.84 2 1.41 3.57e-43
1.8 2 1.41 3.57e-43
1.82 2 1.41 3.57e-43
1.79 2 0.62 9.1477e-41
0.46 2.01 1.03 3.57e-43
0.95 2.01 1.5 9.1477e-41
0.98 2.01 1.5 3.57e-43
0.71 2.01 1.5 3.57e-43
0.77 2.01 1.5 3.57e-43
0.84 2.01 1.5 3.57e-43
0.88 2.01 1.5 3.57e-43
0.68 2.01 1.5 3.57e-43
0.74 2.01 1.5 3.57e-43
0.81 2.01 0.61 9.1477e-41
1.39 2.01 1.43 9.1477e-41
1.44 2.01 1.43 9.1477e-41
1.48 2.01 1.4 9.1477e-41
1.52 2.01 1.4 3.57e-43
1.53 2.01 1.4 3.57e-43
1.06 2.01 1.4 3.57e-43
1.1 2.01 1.4 3.57e-43
1.63 2.01 1.4 3.57e-43
1.64 2.01 1.4 3.57e-43
1.67 2.01 1.4 3.57e-43
1.69 2.01 1.4 3.57e-43
1.72 2.01 1.4 3.57e-43
1.74 2.01 1.4 3.57e-43
1.84 2.01 1.4 3.57e-43
1.8 2.01 1.4 3.57e-43
1.82 2.01 0.8 9.1477e-41
1.74 2.01 0.5 9.1477e-41
1.75 2.01 0.4 9.1477e-41
0.46 2.02 1.5 3.57e-43
0.98 2.02 1.5 3.57e-43
0.71 2.02 1.5 3.57e-43
0.77 2.02 1.5 3.57e-43
0.84 2.02 1.5 3.57e-43
0.88 2.02 1.5 3.57e-43
0.68 2.02 1.5 3.57e-43
0.74 2.02 1.5 3.57e-43
0.74 2.02 0.61 3.57e-43
1.39 2.02 1.43 9.1477e-41
1.43 2.02 1.42 9.1477e-41
1.48 2.02 1.4 9.1477e-41
1.51 2.02 1.4 3.57e-43
1.53 2.02 1.4 3.57e-43
1.06 2.02 1.4 3.57e-43
1.1 2.02 1.4 3.57e-43
1.63 2.02 1.4 3.57e-43
1.64 2.02 1.4 3.57e-43
1.67 2.02 1.4 3.57e-43
1.69 2.02 1.4 3.57e-43
1.72 2.02 1.4 3.57e-43
1.74 2.02 1.4 3.57e-43
1.84 2.02 1.4 3.57e-43
1.8 2.02 1.4 3.57e-43
1.82 2.02 0.8 9.1477e-41
1.74 2.02 0.5 9.1477e-41
1.75 2.02 0.41 9.1477e-41
0.74 2.03 0.61 3.57e-43
1.4 2.03 1.44 9.1477e-41
1.43 2.03 1.42 9.1477e-41
1.47 2.03 1.39 9.1477e-41
1.51 2.03 1.39 3.57e-43
1.53 2.03 1.39 3.57e-43
1.06 2.03 1.39 3.57e-43
1.1 2.03 1.39 3.57e-43
1.63 2.03 1.39 3.57e-43
1.64 2.03 1.39 3.57e-43
1.67 2.03 1.39 3.57e-43
1.69 2.03 1.39 3.57e-43
1.72 2.03 1.39 3.57e-43
1.74 2.03 1.39 3.57e-43
1.84 2.03 1.39 3.57e-43
1.8 2.03 1.39 3.57e-43
1.82 2.03 0.8 9.1477e-41
1.74 2.03 0.52 9.1477e-41
1.76 2.03 0.42 9.1477e-41
0.74 2.04 0.61 3.57e-43
1.39 2.04 1.43 9.1477e-41
1.43 2.04 1.42 9.1477e-41
1.48 2.04 1.42 3.57e-43
1.51 2.04 1.42 3.57e-43
1.53 2.04 1.42 3.57e-43
1.06 2.04 1.42 3.57e-43
1.1 2.04 1.42 3.57e-43
1.63 2.04 1.42 3.57e-43
1.64 2.04 1.42 3.57e-43
1.67 2.04 1.42 3.57e-43
1.69 2.04 1.42 3.57e-43
1.72 2.04 1.42 3.57e-43
1.74 2.04 1.42 3.57e-43
1.84 2.04 1.42 3.57e-43
1.8 2.04 1.42 3.57e-43
1.82 2.04 0.8 9.1477e-41
1.75 2.04 0.52 9.1477e-41
1.76 2.04 0.44 9.1477e-41
1.38 2.05 1.41 3.57e-43
1.43 2.05 1.42 9.1477e-41
1.48 2.05 1.42 3.57e-43
1.51 2.05 1.42 3.57e-43
1.53 2.05 1.42 3.57e-43
1.06 2.05 1.42 3.57e-43
1.1 2.05 1.42 3.57e-43
1.63 2.05 1.42 3.57e-43
1.64 2.05 1.42 3.57e-43
1.67 2.05 1.42 3.57e-43
1.69 2.05 1.06 9.1477e-41
1.71 2.05 1.06 3.57e-43
1.74 2.05 1.06 3.57e-43
1.84 2.05 1.06 3.57e-43
1.8 2.05 1.06 3.57e-43
1.82 2.05 0.8 9.1477e-41
1.75 2.05 0.53 9.1477e-41
1.76 2.05 0.43 9.1477e-41
1.38 2.06 1.41 3.57e-43
1.43 2.06 1.41 9.1477e-41
1.48 2.06 1.41 3.57e-43
1.51 2.06 1.41 3.57e-43
1.53 2.06 1.41 3.57e-43
1.06 2.06 1.41 3.57e-43
1.1 2.06 1.41 3.57e-43
1.63 2.06 1.41 3.57e-43
1.64 2.06 1.41 3.57e-43
1.67 2.06 1.41 3.57e-43
1.69 2.06 1.06 9.1477e-41
1.71 2.06 1.06 3.57e-43
1.74 2.06 1.06 3.57e-43
1.84 2.06 1.06 3.57e-43
1.8 2.06 1.06 3.57e-43
1.82 2.06 0.8 9.1477e-41
1.76 2.06 0.54 9.1477e-41
1.75 2.06 0.4 9.1477e-41
1.38 2.07 1.41 3.57e-43
1.42 2.07 1.4 9.1477e-41
1.47 2.07 1.4 3.57e-43
1.51 2.07 1.4 3.57e-43
1.53 2.07 1.4 3.57e-43
1.06 2.07 1.4 3.57e-43
1.1 2.07 1.4 3.57e-43
1.63 2.07 1.4 3.57e-43
1.64 2.07 1.4 3.57e-43
1.67 2.07 1.4 3.57e-43
1.69 2.07 1.06 9.1477e-41
1.7 2.07 1.06 3.57e-43
1.74 2.07 1.06 3.57e-43
1.84 2.07 1.06 3.57e-43
1.8 2.07 1.06 3.57e-43
1.82 2.07 0.8 9.1477e-41
1.75 2.07 0.52 9.1477e-41
1.75 2.07 0.4 9.1477e-41
1.32 2.08 1.4 3.57e-43
1.38 2.08 1.41 9.1477e-41
1.43 2.08 1.41 9.1477e-41
1.47 2.08 1.41 3.57e-43
1.51 2.08 1.41 3.57e-43
1.53 2.08 1.41 3.57e-43
1.06 2.08 1.41 3.57e-43
1.1 2.08 1.41 3.57e-43
1.63 2.08 1.41 3.57e-43
1.64 2.08 1.41 3.57e-43
1.67 2.08 1.41 3.57e-43
1.69 2.08 1.06 9.1477e-41
1.71 2.08 1.06 3.57e-43
1.74 2.08 1.06 3.57e-43
1.84 2.08 1.06 3.57e-43
1.8 2.08 1.06 3.57e-43
1.82 2.08 0.8 9.1477e-41
1.76 2.08 0.54 9.1477e-41
0.32 2.09 1 3.57e-43
1.22 2.09 1 3.57e-43
0.74 2.09 0.61 9.1477e-41
1.32 2.09 1.4 9.1477e-41
1.37 2.09 1.4 9.1477e-41
1.42 2.09 1.39 9.1477e-41
1.47 2.09 1.39 9.1477e-41
1.5 2.09 1.39 3.57e-43
1.53 2.09 1.39 3.57e-43
1.06 2.09 1.39 3.57e-43
1.1 2.09 1.39 3.57e-43
1.63 2.09 1.39 3.57e-43
1.64 2.09 1.39 3.57e-43
1.67 2.09 1.39 3.57e-43
1.69 2.09 1.06 9.1477e-41
1.71 2.09 1.06 3.57e-43
1.74 2.09 1.06 3.57e-43
1.84 2.09 1.06 3.57e-43
1.8 2.09 1.06 3.57e-43
1.82 2.09 0.8 9.1477e-41
1.75 2.09 0.53 9.1477e-41
1.75 2.09 0.4 9.1477e-41
1.42 2.1 1.33 3.57e-43
1.47 2.1 1.39 9.1477e-41
1.5 2.1 1.39 3.57e-43
1.53 2.1 1.39 3.57e-43
1.06 2.1 1.39 3.57e-43
1.1 2.1 1.39 3.57e-43
1.63 2.1 1.39 3.57e-43
1.64 2.1 1.39 3.57e-43
1.67 2.1 1.39 3.57e-43
1.69 2.1 1.06 9.1477e-41
1.68 2.1 1.06 3.57e-43
1.74 2.1 1.06 3.57e-43
1.84 2.1 1.06 3.57e-43
1.8 2.1 1.06 3.57e-43
1.82 2.1 0.8 9.1477e-41
1.75 2.1 0.52 9.1477e-41
1.42 2.11 1.33 3.57e-43
1.46 2.11 1.38 9.1477e-41
1.49 2.11 1.38 3.57e-43
1.53 2.11 1.38 3.57e-43
1.06 2.11 1.38 3.57e-43
1.1 2.11 1.38 3.57e-43
1.63 2.11 1.38 3.57e-43
1.64 2.11 1.38 3.57e-43
1.67 2.11 1.38 3.57e-43
1.69 2.11 1.06 9.1477e-41
1.69 2.11 1.06 3.57e-43
1.74 2.11 1.06 3.57e-43
1.84 2.11 1.06 3.57e-43
1.8 2.11 1.06 3.57e-43
1.82 2.11 0.8 9.1477e-41
1.75 2.11 0.52 9.1477e-41
1.42 2.12 1.33 3.57e-43
1.46 2.12 1.33 3.57e-43
1.49 2.12 1.33 3.57e-43
1.53 2.12 1.33 3.57e-43
1.06 2.12 1.33 3.57e-43
1.1 2.12 1.33 3.57e-43
1.63 2.12 1.33 3.57e-43
1.64 2.12 1.33 3.57e-43
1.67 2.12 1.12 3.57e-43
1.69 2.12 1.06 9.1477e-41
1.69 2.12 1.06 3.57e-43
1.74 2.12 1.06 3.57e-43
1.84 2.12 1.06 3.57e-43
1.8 2.12 0.86 9.1477e-41
1.75 2.12 0.65 9.1477e-41
1.75 2.12 0.53 9.1477e-41
0.37 2.13 1.04 3.57e-43
0.66 2.13 1.04 3.57e-43
0.74 2.13 1.04 3.57e-43
0.32 2.13 1.03 3.57e-43
0.85 2.13 1.36 3.57e-43
0.89 2.13 1.34 3.57e-43
0.94 2.13 1.33 3.57e-43
0.99 2.13 1.33 3.57e-43
0.84 2.13 1.33 3.57e-43
0.88 2.13 1.33 3.57e-43
1.22 2.13 1.33 3.57e-43
0.74 2.13 1.33 3.57e-43
1.32 2.13 1.33 3.57e-43
1.37 2.13 1.33 3.57e-43
1.42 2.13 1.33 3.57e-43
1.46 2.13 1.33 3.57e-43
1.49 2.13 1.33 3.57e-43
1.53 2.13 1.33 3.57e-43
1.06 2.13 1.33 3.57e-43
1.1 2.13 1.33 3.57e-43
1.63 2.13 1.33 3.57e-43
1.64 2.13 1.33 3.57e-43
1.67 2.13 1.12 9.1477e-41
1.68 2.13 1.04 9.1477e-41
1.71 2.13 1.04 3.57e-43
1.74 2.13 1.04 3.57e-43
1.84 2.13 1.04 3.57e-43
1.8 2.13 0.86 9.1477e-41
1.76 2.13 0.66 9.1477e-41
1.74 2.13 0.52 9.1477e-41
0.32 2.14 1.03 3.57e-43
0.85 2.14 1.36 9.1477e-41
0.89 2.14 1.34 9.1477e-41
0.94 2.14 1.33 9.1477e-41
0.99 2.14 1.33 3.57e-43
0.84 2.14 1.33 3.57e-43
0.88 2.14 1.33 3.57e-43
1.22 2.14 1.33 3.57e-43
0.74 2.14 1.33 3.57e-43
1.32 2.14 1.33 3.57e-43
1.37 2.14 1.33 3.57e-43
1.42 2.14 1.33 3.57e-43
1.46 2.14 1.33 3.57e-43
1.49 2.14 1.33 3.57e-43
1.53 2.14 1.33 3.57e-43
1.06 2.14 1.33 3.57e-43
1.1 2.14 1.33 3.57e-43
1.63 2.14 1.33 3.57e-43
1.64 2.14 1.33 3.57e-43
1.67 2.14 1.12 9.1477e-41
1.68 2.14 1.04 9.1477e-41
1.71 2.14 1.04 3.57e-43
1.74 2.14 1.04 3.57e-43
1.84 2.14 1.04 3.57e-43
1.8 2.14 0.86 9.1477e-41
1.75 2.14 0.65 9.1477e-41
1.75 2.14 0.52 9.1477e-41
0.32 2.15 1.36 3.57e-43
0.88 2.15 1.33 9.1477e-41
0.94 2.15 1.33 9.1477e-41
0.98 2.15 1.31 9.1477e-41
1.03 2.15 1.31 3.57e-43
0.88 2.15 1.31 3.57e-43
1.22 2.15 1.31 3.57e-43
0.74 2.15 1.31 3.57e-43
1.32 2.15 1.31 3.57e-43
1.37 2.15 1.31 3.57e-43
1.42 2.15 1.31 3.57e-43
1.46 2.15 1.31 3.57e-43
1.49 2.15 1.31 3.57e-43
1.53 2.15 1.31 3.57e-43
1.06 2.15 1.31 3.57e-43
1.1 2.15 1.31 3.57e-43
1.63 2.15 1.31 3.57e-43
1.64 2.15 1.31 3.57e-43
1.67 2.15 1.12 9.1477e-41
1.68 2.15 1.12 3.57e-43
1.71 2.15 1.12 3.57e-43
1.74 2.15 1.12 3.57e-43
1.84 2.15 1.12 3.57e-43
1.8 2.15 0.86 9.1477e-41
1.76 2.15 0.66 9.1477e-41
1.75 2.15 0.53 9.1477e-41
0.32 2.16 1.36 3.57e-43
0.87 2.16 1.31 9.1477e-41
0.93 2.16 1.31 9.1477e-41
0.97 2.16 1.3 9.1477e-41
1.03 2.16 1.3 3.57e-43
0.88 2.16 1.3 3.57e-43
1.22 2.16 1.3 3.57e-43
0.74 2.16 1.3 3.57e-43
1.32 2.16 1.3 3.57e-43
1.37 2.16 1.3 3.57e-43
1.42 2.16 1.3 3.57e-43
1.46 2.16 1.3 3.57e-43
1.49 2.16 1.3 3.57e-43
1.53 2.16 1.3 3.57e-43
1.06 2.16 1.3 3.57e-43
1.1 2.16 1.3 3.57e-43
1.63 2.16 1.3 3.57e-43
1.64 2.16 1.3 3.57e-43
1.67 2.16 1.12 9.1477e-41
1.68 2.16 1.12 3.57e-43
1.71 2.16 1.12 3.57e-43
1.74 2.16 1.12 3.57e-43
1.84 2.16 1.12 3.57e-43
1.8 2.16 0.86 9.1477e-41
1.76 2.16 0.66 9.1477e-41
1.75 2.16 0.52 9.1477e-41
0.32 2.17 1.36 3.57e-43
0.86 2.17 1.3 9.1477e-41
0.91 2.17 1.29 9.1477e-41
0.96 2.17 1.28 9.1477e-41
1.02 2.17 1.28 9.1477e-41
1.08 2.17 1.28 3.57e-43
1.22 2.17 1.28 3.57e-43
0.74 2.17 1.28 3.57e-43
1.32 2.17 1.28 3.57e-43
1.37 2.17 1.28 3.57e-43
1.42 2.17 1.28 3.57e-43
1.46 2.17 1.28 3.57e-43
1.49 2.17 1.28 3.57e-43
1.53 2.17 1.28 3.57e-43
1.06 2.17 1.28 3.57e-43
1.1 2.17 1.28 3.57e-43
1.63 2.17 1.28 3.57e-43
1.64 2.17 1.28 3.57e-43
1.67 2.17 1.12 9.1477e-41
1.68 2.17 1.12 3.57e-43
1.71 2.17 1.12 3.57e-43
1.74 2.17 1.12 3.57e-43
1.84 2.17 1.12 3.57e-43
1.8 2.17 0.86 9.1477e-41
1.76 2.17 0.67 9.1477e-41
1.75 2.17 0.52 9.1477e-41
1.75 2.17 0.4 9.1477e-41
0.32 2.18 1.36 3.57e-43
0.84 2.18 1.28 9.1477e-41
0.89 2.18 1.27 9.1477e-41
0.95 2.18 1.26 9.1477e-41
1.01 2.18 1.28 9.1477e-41
1.07 2.18 1.28 3.57e-43
1.22 2.18 1.28 3.57e-43
0.74 2.18 1.28 3.57e-43
1.32 2.18 1.28 3.57e-43
1.37 2.18 1.28 3.57e-43
1.42 2.18 1.28 3.57e-43
1.46 2.18 1.28 3.57e-43
1.49 2.18 1.28 3.57e-43
1.53 2.18 1.28 3.57e-43
1.06 2.18 1.28 3.57e-43
1.1 2.18 1.28 3.57e-43
1.63 2.18 1.28 3.57e-43
1.64 2.18 1.28 3.57e-43
1.67 2.18 1.12 9.1477e-41
1.67 2.18 1.12 3.57e-43
1.71 2.18 1.12 3.57e-43
1.74 2.18 1.12 3.57e-43
1.84 2.18 1.12 3.57e-43
1.8 2.18 0.86 9.1477e-41
1.76 2.18 0.66 9.1477e-41
1.75 2.18 0.53 9.1477e-41
1.75 2.18 0.4 9.1477e-41
0.32 2.19 1.28 3.57e-43
0.89 2.19 1.26 9.1477e-41
0.94 2.19 1.25 9.1477e-41
1 2.19 1.25 3.57e-43
1.07 2.19 1.25 3.57e-43
1.22 2.19 1.25 3.57e-43
0.74 2.19 1.25 3.57e-43
1.32 2.19 1.25 3.57e-43
1.37 2.19 1.25 3.57e-43
1.42 2.19 1.25 3.57e-43
1.46 2.19 1.25 3.57e-43
1.49 2.19 1.25 3.57e-43
1.53 2.19 1.25 3.57e-43
1.06 2.19 1.25 3.57e-43
1.1 2.19 1.25 3.57e-43
1.63 2.19 1.25 3.57e-43
1.64 2.19 1.25 3.57e-43
1.67 2.19 1.12 9.1477e-41
1.68 2.19 1.12 3.57e-43
1.71 2.19 1 9.1477e-41
1.73 2.19 1 3.57e-43
1.84 2.19 1 3.57e-43
1.8 2.19 0.86 9.1477e-41
1.76 2.19 0.66 9.1477e-41
1.75 2.19 0.53 9.1477e-41
0.32 2.2 1.26 3.57e-43
0.92 2.2 1.26 3.57e-43
1 2.2 1.26 3.57e-43
1.07 2.2 1.26 3.57e-43
1.22 2.2 1.26 3.57e-43
0.74 2.2 1.26 3.57e-43
1.32 2.2 1.26 3.57e-43
1.37 2.2 1.26 3.57e-43
1.42 2.2 1.26 3.57e-43
1.46 2.2 1.26 3.57e-43
1.49 2.2 1.26 3.57e-43
1.53 2.2 1.26 3.57e-43
1.06 2.2 1.26 3.57e-43
1.1 2.2 1.26 3.57e-43
1.63 2.2 1.26 3.57e-43
1.64 2.2 1.26 3.57e-43
1.67 2.2 1.12 9.1477e-41
1.68 2.2 1.03 9.1477e-41
1.71 2.2 0.99 9.1477e-41
1.73 2.2 0.99 3.57e-43
1.84 2.2 0.99 3.57e-43
1.8 2.2 0.86 9.1477e-41
1.76 2.2 0.66 9.1477e-41
1.76 2.2 0.55 9.1477e-41
1.63 2.21 1.03 3.57e-43
1.67 2.21 1.02 9.1477e-41
1.7 2.21 0.98 9.1477e-41
1.72 2.21 0.98 3.57e-43
1.84 2.21 0.98 3.57e-43
1.8 2.21 0.86 9.1477e-41
1.76 2.21 0.67 9.1477e-41
1.76 2.21 0.55 9.1477e-41
1.63 2.22 1.03 3.57e-43
1.68 2.22 1.03 9.1477e-41
1.7 2.22 0.98 9.1477e-41
1.73 2.22 0.98 3.57e-43
1.84 2.22 0.98 3.57e-43
1.8 2.22 0.98 3.57e-43
1.76 2.22 0.67 9.1477e-41
1.75 2.22 0.53 9.1477e-41
1.76 2.22 0.42 9.1477e-41
1.64 2.23 1.15 3.57e-43
1.63 2.23 1.03 9.1477e-41
1.67 2.23 1.02 9.1477e-41
1.7 2.23 0.97 9.1477e-41
1.72 2.23 0.91 9.1477e-41
1.75 2.23 0.91 3.57e-43
1.8 2.23 0.91 3.57e-43
1.76 2.23 0.67 9.1477e-41
1.75 2.23 0.52 9.1477e-41
1.76 2.23 0.44 9.1477e-41
1.64 2.24 1.15 3.57e-43
1.62 2.24 1.02 9.1477e-41
1.67 2.24 1.01 9.1477e-41
1.69 2.24 0.96 9.1477e-41
1.72 2.24 0.91 9.1477e-41
1.74 2.24 0.91 3.57e-43
1.8 2.24 0.91 3.57e-43
1.76 2.24 0.67 9.1477e-41
1.74 2.24 0.52 9.1477e-41
1.76 2.24 0.42 9.1477e-41
0.52 2.25 1.1 3.57e-43
0.6 2.25 1.1 3.57e-43
0.85 2.25 1.1 3.57e-43
0.84 2.25 1.1 3.57e-43
0.89 2.25 1.1 3.57e-43
0.92 2.25 1.1 3.57e-43
1 2.25 1.1 3.57e-43
1.07 2.25 1.1 3.57e-43
1.22 2.25 1.1 3.57e-43
0.74 2.25 1.1 3.57e-43
1.32 2.25 1.1 3.57e-43
1.37 2.25 1.1 3.57e-43
1.42 2.25 1.1 3.57e-43
1.46 2.25 1.1 3.57e-43
1.49 2.25 1.1 3.57e-43
1.53 2.25 1.1 3.57e-43
1.06 2.25 1.1 3.57e-43
1.1 2.25 1.1 3.57e-43
1.63 2.25 1.1 3.57e-43
1.64 2.25 1.15 3.57e-43
1.62 2.25 1.02 9.1477e-41
1.67 2.25 1.01 9.1477e-41
1.69 2.25 0.96 9.1477e-41
1.71 2.25 0.9 9.1477e-41
1.73 2.25 0.9 3.57e-43
1.8 2.25 0.9 3.57e-43
1.76 2.25 0.67 9.1477e-41
1.75 2.25 0.52 9.1477e-41
1.76 2.25 0.42 9.1477e-41
0.44 2.26 1.08 3.57e-43
0.52 2.26 1.1 9.1477e-41
0.6 2.26 1.1 3.57e-43
0.85 2.26 1.1 3.57e-43
0.84 2.26 1.1 3.57e-43
0.89 2.26 1.1 3.57e-43
0.92 2.26 1.1 3.57e-43
1 2.26 1.1 3.57e-43
1.07 2.26 1.1 3.57e-43
1.22 2.26 1.1 3.57e-43
0.74 2.26 1.1 3.57e-43
1.32 2.26 1.1 3.57e-43
1.37 2.26 1.1 3.57e-43
1.42 2.26 1.1 3.57e-43
1.46 2.26 1.1 3.57e-43
1.49 2.26 1.1 3.57e-43
1.53 2.26 1.1 3.57e-43
1.06 2.26 1.1 3.57e-43
1.1 2.26 1.1 3.57e-43
1.63 2.26 1.1 3.57e-43
1.64 2.26 1.15 9.1477e-41
1.62 2.26 1.01 9.1477e-41
1.66 2.26 0.99 9.1477e-41
1.68 2.26 0.93 9.1477e-41
1.7 2.26 0.88 9.1477e-41
1.73 2.26 0.88 3.57e-43
1.8 2.26 0.88 3.57e-43
1.76 2.26 0.67 9.1477e-41
1.74 2.26 0.51 9.1477e-41
0.34 2.27 1.04 9.1477e-41
0.44 2.27 1.08 9.1477e-41
0.5 2.27 1.07 9.1477e-41
0.59 2.27 1.11 9.1477e-41
0.65 2.27 1.11 3.57e-43
0.84 2.27 1.11 3.57e-43
0.89 2.27 1.11 3.57e-43
0.92 2.27 1.11 3.57e-43
1 2.27 1.11 3.57e-43
1.07 2.27 1.11 3.57e-43
1.22 2.27 1.11 3.57e-43
0.74 2.27 1.11 3.57e-43
1.32 2.27 1.11 3.57e-43
1.37 2.27 1.11 3.57e-43
1.42 2.27 1.11 3.57e-43
1.46 2.27 1.11 3.57e-43
1.49 2.27 1.11 3.57e-43
1.53 2.27 1.11 3.57e-43
1.06 2.27 1.11 3.57e-43
1.1 2.27 1.11 3.57e-43
1.63 2.27 1.11 3.57e-43
1.64 2.27 1.15 9.1477e-41
1.62 2.27 1.01 9.1477e-41
1.65 2.27 0.97 9.1477e-41
1.66 2.27 0.9 9.1477e-41
1.7 2.27 0.87 9.1477e-41
1.73 2.27 0.87 3.57e-43
1.8 2.27 0.87 3.57e-43
1.76 2.27 0.67 9.1477e-41
1.74 2.27 0.52 9.1477e-41
0.34 2.28 1.08 3.57e-43
0.51 2.28 1.09 9.1477e-41
0.57 2.28 1.08 9.1477e-41
0.63 2.28 1.08 9.1477e-41
0.71 2.28 1.08 3.57e-43
0.89 2.28 1.08 3.57e-43
0.92 2.28 1.08 3.57e-43
1 2.28 1.08 3.57e-43
1.07 2.28 1.08 3.57e-43
1.22 2.28 1.08 3.57e-43
0.74 2.28 1.08 3.57e-43
1.32 2.28 1.08 3.57e-43
1.37 2.28 1.08 3.57e-43
1.42 2.28 1.08 3.57e-43
1.46 2.28 1.08 3.57e-43
1.49 2.28 1.08 3.57e-43
1.53 2.28 1.08 3.57e-43
1.06 2.28 1.08 3.57e-43
1.1 2.28 1.08 3.57e-43
1.63 2.28 1.08 3.57e-43
1.64 2.28 1.08 3.57e-43
1.62 2.28 1.01 9.1477e-41
1.64 2.28 0.96 9.1477e-41
