# .PCD v.7 - Point Cloud Data file format
VERSION .7
FIELDS x y z rgb
SIZE 4 4 4 4
TYPE F F F F
WIDTH 405
HEIGHT 1
POINTS 405
DATA ascii
4.99 0 0.62 9.1477e-41
5.04 0 0.62 9.1477e-41
5.08 0 0.64 9.1477e-41
5.13 0 0.63 9.1477e-41
5.17 0 0.63 3.57e-43
5.37 0 0.63 3.57e-43
5.42 0 0.63 3.57e-43
5.47 0 0.63 3.57e-43
5.53 0 0.63 3.57e-43
5.58 0 0.63 3.57e-43
5.63 0 0.63 3.57e-43
5.69 0 0.63 3.57e-43
5.74 0 0.63 3.57e-43
5.8 0 0.63 3.57e-43
5.86 0 0.63 3.57e-43
5.91 0 0.63 3.57e-43
5.96 0 0.63 3.57e-43
6.02 0 0.63 3.57e-43
6.08 0 0.63 3.57e-43
6.14 0 0.63 3.57e-43
6.2 0 0.63 3.57e-43
6.06 0 0.65 9.1477e-41
6.12 0 0.62 9.1477e-41
6.17 0 0.62 3.57e-43
4.84 0.27 0.7 9.1477e-41
4.88 0.27 0.77 9.1477e-41
4.92 0.27 0.8 9.1477e-41
4.96 0.27 0.8 3.57e-43
5.04 0.27 0.8 3.57e-43
5.08 0.27 0.8 3.57e-43
5.13 0.27 0.8 3.57e-43
5.17 0.27 0.8 3.57e-43
5.37 0.27 0.8 3.57e-43
5.42 0.27 0.8 3.57e-43
5.47 0.27 0.8 3.57e-43
5.53 0.27 0.8 3.57e-43
5.58 0.27 0.8 3.57e-43
5.63 0.27 0.8 3.57e-43
5.69 0.27 0.8 3.57e-43
5.74 0.27 0.8 3.57e-43
5.8 0.27 0.8 3.57e-43
5.86 0.27 0.8 3.57e-43
5.91 0.27 0.8 3.57e-43
5.96 0.27 0.8 3.57e-43
6.02 0.27 0.8 3.57e-43
6.08 0.27 0.8 3.57e-43
6.14 0.27 0.8 3.57e-43
6.2 0.27 0.8 3.57e-43
6.25 0.27 0.8 3.57e-43
6.06 0.27 0.8 3.57e-43
6.12 0.27 0.8 3.57e-43
6.17 0.27 0.8 3.57e-43
6.49 0.27 0.8 3.57e-43
6.26 0.27 0.78 9.1477e-41
6.32 0.27 0.78 9.1477e-41
4.79 0.54 0.77 3.57e-43
4.9 0.54 0.77 3.57e-43
4.96 0.54 0.77 3.57e-43
5.04 0.54 0.7 3.57e-43
5.01 0.54 0.98 3.57e-43
5.13 0.54 0.62 3.57e-43
5.1 0.54 0.99 3.57e-43
5.14 0.54 0.99 3.57e-43
5.42 0.54 0.99 3.57e-43
5.29 0.54 0.95 9.1477e-41
5.33 0.54 0.93 9.1477e-41
5.38 0.54 0.94 9.1477e-41
5.43 0.54 0.93 9.1477e-41
5.47 0.54 0.94 9.1477e-41
5.52 0.54 0.94 9.1477e-41
5.56 0.54 0.94 9.1477e-41
5.61 0.54 0.94 9.1477e-41
5.66 0.54 0.93 9.1477e-41
5.7 0.54 0.94 9.1477e-41
5.75 0.54 0.93 9.1477e-41
5.8 0.54 0.93 3.57e-43
6.2 0.54 0.93 3.57e-43
6.25 0.54 0.93 3.57e-43
6.06 0.54 0.93 3.57e-43
6.12 0.54 0.93 3.57e-43
6.17 0.54 0.93 3.57e-43
6.49 0.54 0.93 3.57e-43
6.55 0.54 0.93 3.57e-43
6.26 0.54 0.93 3.57e-43
6.32 0.54 0.93 3.57e-43
5.04 0.81 0.7 3.57e-43
5.01 0.81 0.98 3.57e-43
5.13 0.81 0.62 9.1477e-41
5.1 0.81 0.99 9.1477e-41
5.14 0.81 0.99 3.57e-43
5.42 0.81 0.99 3.57e-43
5.47 0.81 0.99 3.57e-43
5.29 0.81 0.99 3.57e-43
5.33 0.81 0.99 3.57e-43
5.38 0.81 0.99 3.57e-43
5.43 0.81 0.99 3.57e-43
5.47 0.81 0.99 3.57e-43
5.52 0.81 0.99 3.57e-43
5.56 0.81 0.99 3.57e-43
5.61 0.81 0.99 3.57e-43
5.66 0.81 0.99 3.57e-43
5.7 0.81 0.99 3.57e-43
5.75 0.81 0.99 3.57e-43
5.8 0.81 0.99 3.57e-43
6.2 0.81 0.99 3.57e-43
6.25 0.81 0.99 3.57e-43
6.06 0.81 0.99 3.57e-43
6.12 0.81 0.99 3.57e-43
6.17 0.81 0.99 3.57e-43
6.49 0.81 0.99 3.57e-43
6.55 0.81 0.99 3.57e-43
6.26 0.81 0.99 3.57e-43
6.32 0.81 0.99 3.57e-43
6.36 0.81 0.91 9.1477e-41
4.77 1.08 0.7 3.57e-43
4.85 1.08 0.7 3.57e-43
4.9 1.08 0.7 3.57e-43
4.96 1.08 0.7 3.57e-43
5.04 1.08 0.7 3.57e-43
5.01 1.08 0.98 3.57e-43
5.15 1.08 0.98 3.57e-43
5.1 1.08 0.98 3.57e-43
5.14 1.08 0.99 3.57e-43
5.1 1.08 1.37 3.57e-43
5.14 1.08 1.38 3.57e-43
5.18 1.08 1.38 3.57e-43
5.21 1.08 1.38 3.57e-43
5.38 1.08 1.38 3.57e-43
5.43 1.08 1.38 3.57e-43
5.47 1.08 0.94 9.1477e-41
5.5 1.08 0.99 9.1477e-41
5.56 1.08 0.93 9.1477e-41
5.61 1.08 0.94 9.1477e-41
5.66 1.08 0.93 9.1477e-41
5.7 1.08 0.93 3.57e-43
5.75 1.08 0.93 3.57e-43
5.8 1.08 0.93 3.57e-43
6.2 1.08 0.93 3.57e-43
6.25 1.08 0.93 3.57e-43
6.06 1.08 0.93 3.57e-43
6.12 1.08 0.93 3.57e-43
6.17 1.08 0.93 3.57e-43
6.49 1.08 0.93 3.57e-43
6.55 1.08 0.93 3.57e-43
6.26 1.08 0.93 3.57e-43
6.32 1.08 0.93 3.57e-43
6.76 1.08 0.93 3.57e-43
6.36 1.08 0.91 9.1477e-41
4.77 1.35 0.7 3.57e-43
4.85 1.35 0.7 3.57e-43
4.9 1.35 0.7 3.57e-43
4.96 1.35 0.7 3.57e-43
5.04 1.35 0.7 3.57e-43
5.01 1.35 0.98 3.57e-43
5.15 1.35 0.98 3.57e-43
5.1 1.35 0.98 3.57e-43
5.14 1.35 0.99 3.57e-43
5.1 1.35 1.37 3.57e-43
5.14 1.35 1.38 3.57e-43
5.18 1.35 1.38 3.57e-43
5.21 1.35 1.38 3.57e-43
5.38 1.35 1.38 3.57e-43
5.43 1.35 1.38 3.57e-43
5.47 1.35 0.94 9.1477e-41
5.65 1.35 0.94 3.57e-43
5.56 1.35 0.94 3.57e-43
5.61 1.35 0.94 9.1477e-41
5.74 1.35 0.67 9.1477e-41
5.77 1.35 0.67 3.57e-43
5.75 1.35 0.67 3.57e-43
5.8 1.35 0.67 3.57e-43
6.2 1.35 0.67 3.57e-43
6.25 1.35 0.67 3.57e-43
6.06 1.35 0.67 3.57e-43
6.12 1.35 0.67 3.57e-43
6.17 1.35 0.67 3.57e-43
6.49 1.35 0.67 3.57e-43
6.55 1.35 0.67 3.57e-43
6.26 1.35 0.67 3.57e-43
6.32 1.35 0.67 3.57e-43
6.22 1.35 0.67 3.57e-43
6.6 1.35 0.87 9.1477e-41
4.77 1.62 0.7 3.57e-43
4.85 1.62 0.7 3.57e-43
4.9 1.62 0.7 3.57e-43
4.96 1.62 0.7 3.57e-43
5.04 1.62 0.7 3.57e-43
5.01 1.62 0.98 9.1477e-41
5.15 1.62 0.98 3.57e-43
5.1 1.62 0.98 3.57e-43
5.14 1.62 0.99 9.1477e-41
5.1 1.62 1.37 9.1477e-41
5.14 1.62 1.38 9.1477e-41
5.18 1.62 1.38 9.1477e-41
5.21 1.62 1.38 3.57e-43
5.38 1.62 1.38 3.57e-43
5.43 1.62 1.38 3.57e-43
5.47 1.62 1.38 3.57e-43
5.65 1.62 1.38 3.57e-43
5.56 1.62 1.38 3.57e-43
5.61 1.62 1.38 3.57e-43
5.74 1.62 1.38 3.57e-43
5.77 1.62 1.38 3.57e-43
5.75 1.62 1.38 3.57e-43
5.8 1.62 1.38 3.57e-43
6.2 1.62 1.38 3.57e-43
6.25 1.62 1.38 3.57e-43
6.06 1.62 1.38 3.57e-43
6.12 1.62 1.38 3.57e-43
6.17 1.62 1.38 3.57e-43
6.49 1.62 1.38 3.57e-43
6.55 1.62 1.38 3.57e-43
6.26 1.62 1.38 3.57e-43
6.32 1.62 1.38 3.57e-43
6.76 1.62 1.38 3.57e-43
6.22 1.62 1.23 9.1477e-41
6.2 1.62 1.35 9.1477e-41
5.1 1.89 1.37 3.57e-43
5.13 1.89 1.41 9.1477e-41
5.17 1.89 1.42 9.1477e-41
5.2 1.89 1.43 9.1477e-41
5.24 1.89 1.43 9.1477e-41
5.28 1.89 1.44 9.1477e-41
5.33 1.89 1.44 3.57e-43
5.65 1.89 1.44 3.57e-43
5.56 1.89 1.44 3.57e-43
5.61 1.89 1.44 3.57e-43
5.74 1.89 1.44 3.57e-43
5.77 1.89 1.44 3.57e-43
5.75 1.89 1.44 3.57e-43
5.8 1.89 1.44 3.57e-43
6.2 1.89 1.44 3.57e-43
6.25 1.89 1.44 3.57e-43
6.06 1.89 1.44 3.57e-43
6.12 1.89 1.44 3.57e-43
6.17 1.89 1.44 3.57e-43
6.49 1.89 1.44 3.57e-43
6.55 1.89 1.44 3.57e-43
6.26 1.89 1.44 3.57e-43
6.32 1.89 1.44 3.57e-43
6.12 1.89 1.42 9.1477e-41
6.17 1.89 1.4 9.1477e-41
4.77 2.16 0.7 3.57e-43
4.85 2.16 0.57 3.57e-43
4.88 2.16 1 3.57e-43
4.98 2.16 0.67 3.57e-43
5.03 2.16 0.67 3.57e-43
5.01 2.16 0.98 9.1477e-41
5.12 2.16 0.98 3.57e-43
5.1 2.16 0.98 3.57e-43
5.14 2.16 0.98 3.57e-43
5.1 2.16 1.37 9.1477e-41
5.12 2.16 1.43 9.1477e-41
5.16 2.16 1.43 9.1477e-41
5.2 2.16 1.43 9.1477e-41
5.24 2.16 1.44 9.1477e-41
5.28 2.16 1.44 3.57e-43
5.33 2.16 1.44 3.57e-43
5.65 2.16 1.44 3.57e-43
5.56 2.16 1.44 3.57e-43
5.61 2.16 1.44 3.57e-43
5.74 2.16 1.44 3.57e-43
5.77 2.16 1.44 3.57e-43
5.75 2.16 1.44 3.57e-43
5.8 2.16 1.44 3.57e-43
6.2 2.16 1.44 3.57e-43
6.25 2.16 1.44 3.57e-43
6.06 2.16 1.44 3.57e-43
6.12 2.16 1.44 3.57e-43
6.17 2.16 1.44 3.57e-43
6.49 2.16 1.44 3.57e-43
6.55 2.16 1.44 3.57e-43
6.26 2.16 1.44 3.57e-43
6.32 2.16 1.44 3.57e-43
6.12 2.16 1.43 9.1477e-41
6.18 2.16 1.39 9.1477e-41
4.85 2.43 0.57 3.57e-43
4.88 2.43 1 9.1477e-41
4.98 2.43 0.67 9.1477e-41
5.03 2.43 0.67 9.1477e-41
5.07 2.43 0.68 9.1477e-41
5.12 2.43 0.66 9.1477e-41
5.16 2.43 0.66 3.57e-43
5.14 2.43 0.66 3.57e-43
5.1 2.43 1.37 9.1477e-41
5.13 2.43 1.41 9.1477e-41
5.17 2.43 1.42 9.1477e-41
5.21 2.43 1.43 9.1477e-41
5.24 2.43 1.44 9.1477e-41
5.28 2.43 1.44 9.1477e-41
5.32 2.43 1.44 3.57e-43
5.65 2.43 1.44 3.57e-43
5.56 2.43 1.44 3.57e-43
5.61 2.43 1.44 3.57e-43
5.74 2.43 1.44 3.57e-43
5.77 2.43 1.44 3.57e-43
5.75 2.43 1.44 3.57e-43
5.8 2.43 1.44 3.57e-43
6.2 2.43 1.44 3.57e-43
6.25 2.43 1.44 3.57e-43
6.06 2.43 1.44 3.57e-43
6.12 2.43 1.44 3.57e-43
6.17 2.43 1.44 3.57e-43
6.49 2.43 1.44 3.57e-43
6.55 2.43 1.44 3.57e-43
6.26 2.43 1.44 3.57e-43
6.32 2.43 1.44 3.57e-43
6.12 2.43 1.44 3.57e-43
6.18 2.43 1.39 9.1477e-41
4.77 2.7 0.57 9.1477e-41
4.78 2.7 0.57 3.57e-43
4.84 2.7 0.57 3.57e-43
4.85 2.7 0.57 3.57e-43
4.88 2.7 0.57 3.57e-43
4.98 2.7 0.57 3.57e-43
5.03 2.7 0.57 3.57e-43
5.07 2.7 0.57 3.57e-43
5.12 2.7 0.57 3.57e-43
5.16 2.7 0.57 3.57e-43
5.14 2.7 0.57 3.57e-43
5.1 2.7 1.37 9.1477e-41
5.13 2.7 1.39 9.1477e-41
5.17 2.7 1.39 9.1477e-41
5.21 2.7 1.41 9.1477e-41
5.25 2.7 1.4 9.1477e-41
5.29 2.7 1.4 3.57e-43
5.32 2.7 1.4 3.57e-43
5.65 2.7 1.4 3.57e-43
5.56 2.7 1.4 3.57e-43
5.61 2.7 1.4 3.57e-43
5.74 2.7 1.4 3.57e-43
5.77 2.7 1.4 3.57e-43
5.75 2.7 0.93 9.1477e-41
5.62 2.7 1.43 9.1477e-41
5.66 2.7 1.43 3.57e-43
6.25 2.7 1.43 3.57e-43
6.06 2.7 1.43 3.57e-43
6.12 2.7 1.43 3.57e-43
6.17 2.7 1.43 3.57e-43
6.49 2.7 1.43 3.57e-43
6.55 2.7 1.43 3.57e-43
6.26 2.7 1.43 3.57e-43
6.32 2.7 0.78 9.1477e-41
6.09 2.7 1.38 9.1477e-41
6.13 2.7 1.39 9.1477e-41
4.79 2.97 0.83 3.57e-43
4.83 2.97 0.8 9.1477e-41
4.86 2.97 0.86 9.1477e-41
4.9 2.97 0.87 9.1477e-41
4.93 2.97 0.96 9.1477e-41
4.97 2.97 0.96 3.57e-43
5.07 2.97 0.96 3.57e-43
5.12 2.97 0.96 3.57e-43
5.16 2.97 0.96 3.57e-43
5.14 2.97 0.96 3.57e-43
5.1 2.97 0.96 3.57e-43
5.13 2.97 0.96 3.57e-43
5.17 2.97 0.96 3.57e-43
5.21 2.97 0.96 3.57e-43
5.25 2.97 0.96 3.57e-43
5.29 2.97 0.96 3.57e-43
5.32 2.97 0.96 3.57e-43
5.65 2.97 0.96 3.57e-43
5.56 2.97 0.96 3.57e-43
5.61 2.97 0.96 3.57e-43
5.74 2.97 0.96 3.57e-43
5.77 2.97 0.96 3.57e-43
5.75 2.97 0.96 3.57e-43
5.62 2.97 0.96 3.57e-43
5.66 2.97 0.96 3.57e-43
6.25 2.97 0.96 3.57e-43
6.06 2.97 0.96 3.57e-43
6.12 2.97 0.96 3.57e-43
6.17 2.97 0.96 3.57e-43
6.49 2.97 0.96 3.57e-43
6.55 2.97 0.96 3.57e-43
6.26 2.97 0.96 3.57e-43
6.32 2.97 0.96 3.57e-43
6.09 2.97 0.96 3.57e-43
6.13 2.97 1.39 9.1477e-41
5.01 3.24 0.5 9.1477e-41
5.06 3.24 0.5 3.57e-43
5.07 3.24 0.5 3.57e-43
5.12 3.24 0.5 3.57e-43
5.16 3.24 0.5 3.57e-43
5.14 3.24 0.99 9.1477e-41
5.27 3.24 0.62 9.1477e-41
5.32 3.24 0.63 9.1477e-41
5.35 3.24 0.69 9.1477e-41
5.39 3.24 0.7 9.1477e-41
5.44 3.24 0.69 9.1477e-41
5.49 3.24 0.7 9.1477e-41
5.54 3.24 0.7 9.1477e-41
5.59 3.24 0.68 9.1477e-41
5.64 3.24 0.69 9.1477e-41
5.69 3.24 0.69 9.1477e-41
5.74 3.24 0.69 9.1477e-41
5.78 3.24 0.69 3.57e-43
5.75 3.24 0.69 3.57e-43
5.62 3.24 1.43 9.1477e-41
5.94 3.24 0.68 9.1477e-41
5.99 3.24 0.7 9.1477e-41
6.04 3.24 0.7 3.57e-43
6.12 3.24 0.7 3.57e-43
6.17 3.24 0.63 9.1477e-41
