# .PCD v.7 - Point Cloud Data file format
VERSION .7
FIELDS x y z rgb
SIZE 4 4 4 4
TYPE F F F F
WIDTH 1886
HEIGHT 1
POINTS 1886
DATA ascii
2.19 0.82 3.2 3.57e-43
3.11 0.82 3.2 3.57e-43
3.14 0.82 3.2 3.57e-43
2.37 0.82 3.2 3.57e-43
2.42 0.82 3.2 3.57e-43
3.31 0.82 3.2 3.57e-43
3.3 0.82 3.2 3.57e-43
3.27 0.82 2.59 9.1477e-41
3.26 0.82 2.45 9.1477e-41
3.27 0.82 2.45 3.57e-43
2.74 0.82 2.45 3.57e-43
2.79 0.82 2.45 3.57e-43
2.84 0.82 2.45 3.57e-43
2.89 0.82 2.45 3.57e-43
3.25 0.82 2.45 3.57e-43
3.27 0.82 1.43 9.1477e-41
3.27 0.82 1.43 3.57e-43
3.24 0.82 1.43 3.57e-43
1.1 1.23 3.3 9.1477e-41
1.17 1.23 3.31 9.1477e-41
1.24 1.23 3.33 9.1477e-41
1.29 1.23 3.33 9.1477e-41
1.36 1.23 3.35 9.1477e-41
1.41 1.23 3.35 9.1477e-41
1.47 1.23 3.36 9.1477e-41
1.51 1.23 3.36 9.1477e-41
1.57 1.23 3.37 9.1477e-41
1.61 1.23 3.37 9.1477e-41
1.66 1.23 3.38 9.1477e-41
1.71 1.23 3.38 9.1477e-41
1.74 1.23 3.37 9.1477e-41
1.79 1.23 3.38 9.1477e-41
1.83 1.23 3.38 9.1477e-41
1.87 1.23 3.38 9.1477e-41
1.91 1.23 3.39 9.1477e-41
1.95 1.23 3.38 9.1477e-41
1.99 1.23 3.38 9.1477e-41
2.03 1.23 3.39 9.1477e-41
2.05 1.23 3.38 9.1477e-41
2.09 1.23 3.38 9.1477e-41
2.13 1.23 3.38 9.1477e-41
2.17 1.23 3.39 9.1477e-41
2.19 1.23 3.38 9.1477e-41
2.23 1.23 3.38 9.1477e-41
2.26 1.23 3.38 9.1477e-41
2.3 1.23 3.38 9.1477e-41
2.32 1.23 3.38 9.1477e-41
2.36 1.23 3.38 9.1477e-41
2.39 1.23 3.38 9.1477e-41
2.41 1.23 3.37 9.1477e-41
2.44 1.23 3.36 9.1477e-41
2.47 1.23 3.37 9.1477e-41
2.5 1.23 3.36 9.1477e-41
2.52 1.23 3.36 9.1477e-41
2.56 1.23 3.36 9.1477e-41
2.58 1.23 3.35 9.1477e-41
2.61 1.23 3.35 9.1477e-41
2.64 1.23 3.35 9.1477e-41
2.66 1.23 3.35 9.1477e-41
2.69 1.23 3.34 9.1477e-41
2.71 1.23 3.34 9.1477e-41
2.74 1.23 3.34 9.1477e-41
2.76 1.23 3.33 9.1477e-41
2.79 1.23 3.32 9.1477e-41
2.81 1.23 3.32 9.1477e-41
2.84 1.23 3.33 9.1477e-41
2.86 1.23 3.31 9.1477e-41
2.89 1.23 3.31 9.1477e-41
2.91 1.23 3.3 9.1477e-41
2.93 1.23 3.3 9.1477e-41
2.96 1.23 3.3 9.1477e-41
2.98 1.23 3.29 9.1477e-41
3 1.23 3.29 9.1477e-41
3.03 1.23 3.28 9.1477e-41
3.05 1.23 3.27 9.1477e-41
3.07 1.23 3.26 9.1477e-41
3.09 1.23 3.26 9.1477e-41
3.11 1.23 3.26 9.1477e-41
3.14 1.23 3.26 9.1477e-41
3.16 1.23 3.25 9.1477e-41
3.17 1.23 3.21 9.1477e-41
3.19 1.23 3.19 9.1477e-41
3.19 1.23 3.14 9.1477e-41
3.2 1.23 3.08 9.1477e-41
3.21 1.23 3.03 9.1477e-41
3.21 1.23 3.03 3.57e-43
3.14 1.23 3.03 3.57e-43
2.37 1.23 3.03 3.57e-43
2.42 1.23 3.03 3.57e-43
3.31 1.23 3.03 3.57e-43
3.3 1.23 3.03 3.57e-43
3.27 1.23 3.03 3.57e-43
3.26 1.23 3.03 3.57e-43
3.27 1.23 3.03 3.57e-43
3.26 1.23 2.08 9.1477e-41
3.29 1.23 2.08 3.57e-43
3.27 1.23 1.62 9.1477e-41
3.28 1.23 1.49 9.1477e-41
3.29 1.23 1.32 9.1477e-41
3.26 1.23 0.94 9.1477e-41
3.25 1.23 0.65 9.1477e-41
1.03 1.64 3.29 9.1477e-41
1.11 1.64 3.31 9.1477e-41
1.17 1.64 3.32 9.1477e-41
1.24 1.64 3.33 9.1477e-41
1.29 1.64 3.33 9.1477e-41
1.36 1.64 3.35 9.1477e-41
1.41 1.64 3.35 9.1477e-41
1.47 1.64 3.36 9.1477e-41
1.52 1.64 3.36 9.1477e-41
1.57 1.64 3.37 9.1477e-41
1.61 1.64 3.37 9.1477e-41
1.66 1.64 3.37 9.1477e-41
1.7 1.64 3.37 9.1477e-41
1.73 1.64 3.36 9.1477e-41
1.78 1.64 3.37 9.1477e-41
1.83 1.64 3.38 9.1477e-41
1.87 1.64 3.38 9.1477e-41
1.91 1.64 3.38 9.1477e-41
1.95 1.64 3.38 9.1477e-41
1.98 1.64 3.38 9.1477e-41
2.02 1.64 3.38 9.1477e-41
2.05 1.64 3.38 9.1477e-41
2.09 1.64 3.38 9.1477e-41
2.13 1.64 3.38 9.1477e-41
2.16 1.64 3.38 9.1477e-41
2.19 1.64 3.38 9.1477e-41
2.23 1.64 3.38 9.1477e-41
2.26 1.64 3.38 9.1477e-41
2.3 1.64 3.38 9.1477e-41
2.32 1.64 3.38 9.1477e-41
2.36 1.64 3.38 9.1477e-41
2.38 1.64 3.37 9.1477e-41
2.41 1.64 3.37 9.1477e-41
2.45 1.64 3.37 9.1477e-41
2.47 1.64 3.37 9.1477e-41
2.5 1.64 3.36 9.1477e-41
2.53 1.64 3.36 9.1477e-41
2.56 1.64 3.36 9.1477e-41
2.58 1.64 3.35 9.1477e-41
2.61 1.64 3.36 9.1477e-41
2.63 1.64 3.34 9.1477e-41
2.66 1.64 3.34 9.1477e-41
2.69 1.64 3.34 9.1477e-41
2.71 1.64 3.33 9.1477e-41
2.74 1.64 3.33 9.1477e-41
2.76 1.64 3.33 9.1477e-41
2.79 1.64 3.32 9.1477e-41
2.81 1.64 3.32 9.1477e-41
2.84 1.64 3.32 9.1477e-41
2.86 1.64 3.32 9.1477e-41
2.89 1.64 3.31 9.1477e-41
2.91 1.64 3.3 9.1477e-41
2.93 1.64 3.3 9.1477e-41
2.95 1.64 3.29 9.1477e-41
2.98 1.64 3.29 9.1477e-41
3 1.64 3.28 9.1477e-41
3.02 1.64 3.27 9.1477e-41
3.05 1.64 3.27 9.1477e-41
3.07 1.64 3.26 9.1477e-41
3.09 1.64 3.26 9.1477e-41
3.11 1.64 3.25 9.1477e-41
3.14 1.64 3.26 9.1477e-41
3.16 1.64 3.24 9.1477e-41
3.17 1.64 3.21 9.1477e-41
3.19 1.64 3.19 9.1477e-41
3.19 1.64 3.19 3.57e-43
3.2 1.64 3.19 3.57e-43
3.21 1.64 3.19 3.57e-43
3.21 1.64 3.19 3.57e-43
3.14 1.64 3.19 3.57e-43
2.37 1.64 3.19 3.57e-43
2.42 1.64 3.19 3.57e-43
3.31 1.64 3.19 3.57e-43
3.3 1.64 3.19 3.57e-43
3.27 1.64 3.19 3.57e-43
3.26 1.64 3.19 3.57e-43
3.27 1.64 3.19 3.57e-43
3.26 1.64 2.08 9.1477e-41
3.28 1.64 2.08 3.57e-43
2.89 1.64 2.08 3.57e-43
3.27 1.64 1.62 9.1477e-41
3.26 1.64 1.37 9.1477e-41
3.27 1.64 1.37 3.57e-43
3.26 1.64 1.37 3.57e-43
3.25 1.64 0.65 9.1477e-41
1.03 2.05 3.29 9.1477e-41
1.11 2.05 3.31 9.1477e-41
1.17 2.05 3.31 9.1477e-41
1.24 2.05 3.33 9.1477e-41
1.3 2.05 3.34 9.1477e-41
1.37 2.05 3.35 9.1477e-41
1.41 2.05 3.35 9.1477e-41
1.47 2.05 3.36 9.1477e-41
1.52 2.05 3.36 9.1477e-41
1.56 2.05 3.36 9.1477e-41
1.61 2.05 3.37 9.1477e-41
1.72 2.05 3.43 9.1477e-41
1.77 2.05 3.44 9.1477e-41
1.82 2.05 3.45 9.1477e-41
1.86 2.05 3.45 9.1477e-41
1.9 2.05 3.45 9.1477e-41
1.94 2.05 3.46 9.1477e-41
1.98 2.05 3.46 9.1477e-41
2.02 2.05 3.46 9.1477e-41
2.05 2.05 3.46 9.1477e-41
2.09 2.05 3.46 9.1477e-41
2.13 2.05 3.46 9.1477e-41
2.17 2.05 3.47 9.1477e-41
2.19 2.05 3.46 9.1477e-41
2.22 2.05 3.46 9.1477e-41
2.26 2.05 3.46 9.1477e-41
2.29 2.05 3.45 9.1477e-41
2.31 2.05 3.45 9.1477e-41
2.35 2.05 3.45 9.1477e-41
2.37 2.05 3.44 9.1477e-41
2.4 2.05 3.44 9.1477e-41
2.43 2.05 3.43 9.1477e-41
2.44 2.05 3.4 9.1477e-41
2.45 2.05 3.37 9.1477e-41
2.47 2.05 3.36 9.1477e-41
2.5 2.05 3.36 9.1477e-41
2.52 2.05 3.36 9.1477e-41
2.56 2.05 3.36 9.1477e-41
2.58 2.05 3.35 9.1477e-41
2.61 2.05 3.35 9.1477e-41
2.64 2.05 3.35 9.1477e-41
2.66 2.05 3.34 9.1477e-41
2.69 2.05 3.34 9.1477e-41
2.71 2.05 3.34 9.1477e-41
2.74 2.05 3.34 9.1477e-41
2.77 2.05 3.34 9.1477e-41
2.79 2.05 3.32 9.1477e-41
2.81 2.05 3.32 9.1477e-41
2.84 2.05 3.32 9.1477e-41
2.86 2.05 3.32 9.1477e-41
2.88 2.05 3.31 9.1477e-41
2.91 2.05 3.3 9.1477e-41
2.93 2.05 3.3 9.1477e-41
2.95 2.05 3.29 9.1477e-41
2.98 2.05 3.28 9.1477e-41
3 2.05 3.28 9.1477e-41
3.02 2.05 3.27 9.1477e-41
3.05 2.05 3.27 9.1477e-41
3.07 2.05 3.26 9.1477e-41
3.09 2.05 3.26 9.1477e-41
3.11 2.05 3.25 9.1477e-41
3.13 2.05 3.25 9.1477e-41
3.16 2.05 3.24 9.1477e-41
3.17 2.05 3.21 9.1477e-41
3.19 2.05 3.19 9.1477e-41
3.19 2.05 3.19 3.57e-43
3.2 2.05 3.19 3.57e-43
3.21 2.05 3.19 3.57e-43
3.21 2.05 3.19 3.57e-43
3.14 2.05 3.19 3.57e-43
2.37 2.05 3.19 3.57e-43
2.42 2.05 3.19 3.57e-43
3.31 2.05 3.19 3.57e-43
3.3 2.05 3.19 3.57e-43
3.27 2.05 3.19 3.57e-43
3.26 2.05 3.19 3.57e-43
3.27 2.05 3.19 3.57e-43
3.26 2.05 2.08 9.1477e-41
3.27 2.05 2.08 3.57e-43
2.89 2.05 2.08 3.57e-43
3.27 2.05 1.62 9.1477e-41
3.25 2.05 1.62 3.57e-43
3.27 2.05 1.21 9.1477e-41
3.26 2.05 0.95 9.1477e-41
1.03 2.46 3.29 9.1477e-41
1.1 2.46 3.3 9.1477e-41
1.17 2.46 3.31 9.1477e-41
1.23 2.46 3.33 9.1477e-41
1.29 2.46 3.33 9.1477e-41
1.35 2.46 3.34 9.1477e-41
1.42 2.46 3.36 9.1477e-41
1.47 2.46 3.36 9.1477e-41
1.52 2.46 3.36 9.1477e-41
1.55 2.46 3.35 9.1477e-41
1.62 2.46 3.38 9.1477e-41
1.72 2.46 3.43 9.1477e-41
1.77 2.46 3.44 9.1477e-41
1.81 2.46 3.44 9.1477e-41
1.85 2.46 3.44 9.1477e-41
1.9 2.46 3.45 9.1477e-41
1.94 2.46 3.46 9.1477e-41
1.97 2.46 3.45 9.1477e-41
2.01 2.46 3.45 9.1477e-41
2.05 2.46 3.46 9.1477e-41
2.09 2.46 3.46 9.1477e-41
2.13 2.46 3.46 9.1477e-41
2.16 2.46 3.46 9.1477e-41
2.19 2.46 3.45 9.1477e-41
2.22 2.46 3.46 9.1477e-41
2.25 2.46 3.45 9.1477e-41
2.29 2.46 3.45 9.1477e-41
2.31 2.46 3.44 9.1477e-41
2.35 2.46 3.45 9.1477e-41
2.37 2.46 3.44 9.1477e-41
2.4 2.46 3.43 9.1477e-41
2.43 2.46 3.43 9.1477e-41
2.43 2.46 3.39 9.1477e-41
2.44 2.46 3.36 9.1477e-41
2.47 2.46 3.36 9.1477e-41
2.5 2.46 3.37 9.1477e-41
2.52 2.46 3.36 9.1477e-41
2.56 2.46 3.36 9.1477e-41
2.58 2.46 3.35 9.1477e-41
2.62 2.46 3.37 9.1477e-41
2.63 2.46 3.34 9.1477e-41
2.66 2.46 3.34 9.1477e-41
2.69 2.46 3.34 9.1477e-41
2.71 2.46 3.34 9.1477e-41
2.74 2.46 3.33 9.1477e-41
2.77 2.46 3.34 9.1477e-41
2.79 2.46 3.33 9.1477e-41
2.81 2.46 3.32 9.1477e-41
2.84 2.46 3.32 9.1477e-41
2.86 2.46 3.32 9.1477e-41
2.88 2.46 3.31 9.1477e-41
2.91 2.46 3.3 9.1477e-41
2.93 2.46 3.3 9.1477e-41
2.95 2.46 3.29 9.1477e-41
2.98 2.46 3.28 9.1477e-41
3 2.46 3.28 9.1477e-41
3.02 2.46 3.26 9.1477e-41
3.05 2.46 3.27 9.1477e-41
3.07 2.46 3.26 9.1477e-41
3.09 2.46 3.26 9.1477e-41
3.11 2.46 3.25 9.1477e-41
3.14 2.46 3.26 9.1477e-41
3.16 2.46 3.24 9.1477e-41
3.17 2.46 3.2 9.1477e-41
3.19 2.46 3.2 3.57e-43
3.19 2.46 3.2 3.57e-43
3.2 2.46 3.2 3.57e-43
3.21 2.46 3.2 3.57e-43
3.21 2.46 3.2 3.57e-43
3.14 2.46 3.2 3.57e-43
2.37 2.46 3.2 3.57e-43
2.42 2.46 3.2 3.57e-43
3.31 2.46 3.2 3.57e-43
3.3 2.46 3.2 3.57e-43
3.27 2.46 3.2 3.57e-43
3.26 2.46 3.2 3.57e-43
3.27 2.46 3.2 3.57e-43
3.26 2.46 3.2 3.57e-43
3.27 2.46 3.2 3.57e-43
2.89 2.46 3.2 3.57e-43
3.27 2.46 1.62 9.1477e-41
3.25 2.46 1.36 9.1477e-41
3.25 2.46 1.15 9.1477e-41
3.21 2.46 0.65 9.1477e-41
3.23 2.46 0.52 9.1477e-41
1.02 2.87 3.28 9.1477e-41
1.1 2.87 3.3 9.1477e-41
1.17 2.87 3.31 9.1477e-41
1.24 2.87 3.33 9.1477e-41
1.3 2.87 3.34 9.1477e-41
1.36 2.87 3.35 9.1477e-41
1.42 2.87 3.36 9.1477e-41
1.47 2.87 3.36 9.1477e-41
1.5 2.87 3.35 9.1477e-41
1.56 2.87 3.36 9.1477e-41
1.6 2.87 3.36 9.1477e-41
1.64 2.87 3.36 9.1477e-41
1.69 2.87 3.36 9.1477e-41
1.73 2.87 3.36 9.1477e-41
1.78 2.87 3.37 9.1477e-41
1.81 2.87 3.36 9.1477e-41
1.85 2.87 3.36 9.1477e-41
1.89 2.87 3.36 9.1477e-41
1.95 2.87 3.39 9.1477e-41
2.04 2.87 3.44 9.1477e-41
2.08 2.87 3.45 9.1477e-41
2.11 2.87 3.44 9.1477e-41
2.13 2.87 3.42 9.1477e-41
2.15 2.87 3.41 9.1477e-41
2.17 2.87 3.39 9.1477e-41
2.19 2.87 3.37 9.1477e-41
2.22 2.87 3.37 9.1477e-41
2.25 2.87 3.36 9.1477e-41
2.28 2.87 3.37 9.1477e-41
2.32 2.87 3.37 9.1477e-41
2.35 2.87 3.37 9.1477e-41
2.39 2.87 3.38 9.1477e-41
2.42 2.87 3.38 9.1477e-41
2.45 2.87 3.38 9.1477e-41
2.47 2.87 3.36 9.1477e-41
2.5 2.87 3.37 9.1477e-41
2.53 2.87 3.36 9.1477e-41
2.56 2.87 3.36 9.1477e-41
2.58 2.87 3.35 9.1477e-41
2.61 2.87 3.36 9.1477e-41
2.64 2.87 3.35 9.1477e-41
2.66 2.87 3.35 9.1477e-41
2.69 2.87 3.35 9.1477e-41
2.72 2.87 3.35 9.1477e-41
2.74 2.87 3.34 9.1477e-41
2.76 2.87 3.33 9.1477e-41
2.79 2.87 3.32 9.1477e-41
2.81 2.87 3.31 9.1477e-41
2.83 2.87 3.31 9.1477e-41
2.86 2.87 3.31 9.1477e-41
2.88 2.87 3.31 9.1477e-41
2.9 2.87 3.3 9.1477e-41
2.93 2.87 3.3 9.1477e-41
2.95 2.87 3.29 9.1477e-41
2.98 2.87 3.29 9.1477e-41
3 2.87 3.28 9.1477e-41
3.02 2.87 3.26 9.1477e-41
3.05 2.87 3.27 9.1477e-41
3.07 2.87 3.26 9.1477e-41
3.09 2.87 3.26 9.1477e-41
3.12 2.87 3.27 9.1477e-41
3.13 2.87 3.25 9.1477e-41
3.15 2.87 3.22 9.1477e-41
3.17 2.87 3.2 9.1477e-41
3.19 2.87 3.2 3.57e-43
3.19 2.87 3.2 3.57e-43
3.2 2.87 3.2 3.57e-43
3.21 2.87 3.2 3.57e-43
3.21 2.87 3.2 3.57e-43
3.14 2.87 3.2 3.57e-43
2.37 2.87 3.2 3.57e-43
2.42 2.87 3.2 3.57e-43
3.31 2.87 3.2 3.57e-43
3.3 2.87 3.2 3.57e-43
3.27 2.87 3.2 3.57e-43
3.26 2.87 3.2 3.57e-43
3.27 2.87 3.2 3.57e-43
3.26 2.87 2.08 9.1477e-41
3.26 2.87 2.08 3.57e-43
2.89 2.87 2.08 3.57e-43
3.27 2.87 1.62 9.1477e-41
3.25 2.87 1.36 9.1477e-41
3.25 2.87 1.14 9.1477e-41
3.21 2.87 0.64 9.1477e-41
3.22 2.87 0.47 9.1477e-41
1.03 3.28 3.29 9.1477e-41
1.09 3.28 3.29 9.1477e-41
1.17 3.28 3.31 9.1477e-41
1.22 3.28 3.32 9.1477e-41
1.29 3.28 3.33 9.1477e-41
1.35 3.28 3.34 9.1477e-41
1.4 3.28 3.34 9.1477e-41
1.46 3.28 3.35 9.1477e-41
1.51 3.28 3.36 9.1477e-41
1.57 3.28 3.37 9.1477e-41
1.6 3.28 3.36 9.1477e-41
1.64 3.28 3.36 9.1477e-41
1.69 3.28 3.36 9.1477e-41
1.73 3.28 3.36 9.1477e-41
1.78 3.28 3.37 9.1477e-41
1.81 3.28 3.36 9.1477e-41
1.85 3.28 3.36 9.1477e-41
1.89 3.28 3.36 9.1477e-41
1.97 3.28 3.4 9.1477e-41
2.04 3.28 3.44 9.1477e-41
2.07 3.28 3.44 9.1477e-41
2.11 3.28 3.44 9.1477e-41
2.13 3.28 3.42 9.1477e-41
2.15 3.28 3.4 9.1477e-41
2.17 3.28 3.39 9.1477e-41
2.18 3.28 3.36 9.1477e-41
2.21 3.28 3.36 9.1477e-41
2.24 3.28 3.35 9.1477e-41
2.28 3.28 3.36 9.1477e-41
2.32 3.28 3.37 9.1477e-41
2.35 3.28 3.37 9.1477e-41
2.38 3.28 3.36 9.1477e-41
2.41 3.28 3.36 9.1477e-41
2.44 3.28 3.36 9.1477e-41
2.47 3.28 3.37 9.1477e-41
2.5 3.28 3.36 9.1477e-41
2.52 3.28 3.36 9.1477e-41
2.56 3.28 3.36 9.1477e-41
2.58 3.28 3.35 9.1477e-41
2.61 3.28 3.35 9.1477e-41
2.63 3.28 3.34 9.1477e-41
2.66 3.28 3.34 9.1477e-41
2.68 3.28 3.34 9.1477e-41
2.71 3.28 3.33 9.1477e-41
2.74 3.28 3.33 9.1477e-41
2.76 3.28 3.33 9.1477e-41
2.79 3.28 3.32 9.1477e-41
2.81 3.28 3.31 9.1477e-41
2.84 3.28 3.32 9.1477e-41
2.86 3.28 3.31 9.1477e-41
2.88 3.28 3.3 9.1477e-41
2.9 3.28 3.3 9.1477e-41
2.93 3.28 3.29 9.1477e-41
2.95 3.28 3.28 9.1477e-41
2.97 3.28 3.27 9.1477e-41
3 3.28 3.27 9.1477e-41
3.02 3.28 3.26 9.1477e-41
3.04 3.28 3.26 9.1477e-41
3.07 3.28 3.26 9.1477e-41
3.09 3.28 3.26 9.1477e-41
3.11 3.28 3.25 9.1477e-41
3.13 3.28 3.25 9.1477e-41
3.15 3.28 3.22 9.1477e-41
3.17 3.28 3.2 9.1477e-41
3.18 3.28 3.2 3.57e-43
3.19 3.28 3.2 3.57e-43
3.2 3.28 3.2 3.57e-43
3.21 3.28 3.2 3.57e-43
3.21 3.28 3.2 3.57e-43
3.14 3.28 3.2 3.57e-43
2.37 3.28 3.2 3.57e-43
2.42 3.28 3.2 3.57e-43
3.31 3.28 3.2 3.57e-43
3.3 3.28 3.2 3.57e-43
3.27 3.28 3.2 3.57e-43
3.26 3.28 3.2 3.57e-43
3.27 3.28 3.2 3.57e-43
3.26 3.28 3.2 3.57e-43
3.26 3.28 3.2 3.57e-43
2.89 3.28 3.2 3.57e-43
3.27 3.28 1.62 9.1477e-41
3.25 3.28 1.36 9.1477e-41
3.24 3.28 1.09 9.1477e-41
1.03 3.69 3.29 9.1477e-41
1.09 3.69 3.29 9.1477e-41
1.17 3.69 3.31 9.1477e-41
1.22 3.69 3.32 9.1477e-41
1.29 3.69 3.33 9.1477e-41
1.35 3.69 3.34 9.1477e-41
1.41 3.69 3.35 9.1477e-41
1.46 3.69 3.35 9.1477e-41
1.51 3.69 3.36 9.1477e-41
1.56 3.69 3.36 9.1477e-41
1.6 3.69 3.36 9.1477e-41
1.65 3.69 3.37 9.1477e-41
1.69 3.69 3.36 9.1477e-41
1.73 3.69 3.36 9.1477e-41
1.78 3.69 3.37 9.1477e-41
1.82 3.69 3.37 9.1477e-41
1.86 3.69 3.37 9.1477e-41
1.9 3.69 3.37 9.1477e-41
1.93 3.69 3.37 9.1477e-41
1.97 3.69 3.37 9.1477e-41
2.01 3.69 3.37 9.1477e-41
2.05 3.69 3.37 9.1477e-41
2.07 3.69 3.36 9.1477e-41
2.11 3.69 3.37 9.1477e-41
2.15 3.69 3.37 9.1477e-41
2.19 3.69 3.37 9.1477e-41
2.22 3.69 3.37 9.1477e-41
2.25 3.69 3.37 9.1477e-41
2.28 3.69 3.37 9.1477e-41
2.32 3.69 3.37 9.1477e-41
2.36 3.69 3.38 9.1477e-41
2.38 3.69 3.36 9.1477e-41
2.41 3.69 3.36 9.1477e-41
2.43 3.69 3.36 9.1477e-41
2.47 3.69 3.37 9.1477e-41
2.49 3.69 3.35 9.1477e-41
2.53 3.69 3.36 9.1477e-41
2.55 3.69 3.35 9.1477e-41
2.58 3.69 3.35 9.1477e-41
2.61 3.69 3.35 9.1477e-41
2.63 3.69 3.34 9.1477e-41
2.66 3.69 3.34 9.1477e-41
2.68 3.69 3.34 9.1477e-41
2.71 3.69 3.33 9.1477e-41
2.74 3.69 3.33 9.1477e-41
2.77 3.69 3.34 9.1477e-41
2.79 3.69 3.32 9.1477e-41
2.81 3.69 3.32 9.1477e-41
2.83 3.69 3.31 9.1477e-41
2.85 3.69 3.3 9.1477e-41
2.88 3.69 3.3 9.1477e-41
2.9 3.69 3.3 9.1477e-41
2.92 3.69 3.29 9.1477e-41
2.95 3.69 3.28 9.1477e-41
2.98 3.69 3.28 9.1477e-41
3 3.69 3.27 9.1477e-41
3.02 3.69 3.27 9.1477e-41
3.04 3.69 3.26 9.1477e-41
3.06 3.69 3.25 9.1477e-41
3.09 3.69 3.26 9.1477e-41
3.11 3.69 3.26 9.1477e-41
3.13 3.69 3.24 9.1477e-41
3.15 3.69 3.22 9.1477e-41
3.17 3.69 3.2 9.1477e-41
3.18 3.69 3.2 3.57e-43
3.19 3.69 3.2 3.57e-43
3.2 3.69 3.2 3.57e-43
3.21 3.69 3.2 3.57e-43
3.21 3.69 3.2 3.57e-43
3.14 3.69 3.2 3.57e-43
2.37 3.69 3.2 3.57e-43
2.42 3.69 3.2 3.57e-43
3.31 3.69 3.2 3.57e-43
3.3 3.69 3.2 3.57e-43
3.27 3.69 3.2 3.57e-43
3.26 3.69 3.2 3.57e-43
3.27 3.69 3.2 3.57e-43
3.26 3.69 3.2 3.57e-43
3.26 3.69 1.91 9.1477e-41
3.24 3.69 1.91 3.57e-43
3.27 3.69 1.62 9.1477e-41
3.25 3.69 1.62 3.57e-43
3.24 3.69 1.62 3.57e-43
1.03 4.1 3.29 9.1477e-41
1.1 4.1 3.3 9.1477e-41
1.17 4.1 3.31 9.1477e-41
1.23 4.1 3.33 9.1477e-41
1.28 4.1 3.33 9.1477e-41
1.36 4.1 3.35 9.1477e-41
1.42 4.1 3.36 9.1477e-41
1.47 4.1 3.36 9.1477e-41
1.51 4.1 3.36 9.1477e-41
1.56 4.1 3.36 9.1477e-41
1.61 4.1 3.37 9.1477e-41
1.65 4.1 3.37 9.1477e-41
1.7 4.1 3.37 9.1477e-41
1.74 4.1 3.37 9.1477e-41
1.78 4.1 3.37 9.1477e-41
1.82 4.1 3.37 9.1477e-41
1.86 4.1 3.37 9.1477e-41
1.9 4.1 3.37 9.1477e-41
1.94 4.1 3.37 9.1477e-41
1.97 4.1 3.37 9.1477e-41
2.01 4.1 3.37 9.1477e-41
2.05 4.1 3.37 9.1477e-41
2.09 4.1 3.38 9.1477e-41
2.12 4.1 3.37 9.1477e-41
2.15 4.1 3.37 9.1477e-41
2.19 4.1 3.37 9.1477e-41
2.23 4.1 3.38 9.1477e-41
2.25 4.1 3.37 9.1477e-41
2.28 4.1 3.37 9.1477e-41
2.32 4.1 3.37 9.1477e-41
2.34 4.1 3.36 9.1477e-41
2.38 4.1 3.36 9.1477e-41
2.41 4.1 3.36 9.1477e-41
2.44 4.1 3.36 9.1477e-41
2.47 4.1 3.36 9.1477e-41
2.49 4.1 3.35 9.1477e-41
2.52 4.1 3.36 9.1477e-41
2.55 4.1 3.35 9.1477e-41
2.57 4.1 3.34 9.1477e-41
2.6 4.1 3.34 9.1477e-41
2.63 4.1 3.34 9.1477e-41
2.65 4.1 3.33 9.1477e-41
2.68 4.1 3.33 9.1477e-41
2.71 4.1 3.33 9.1477e-41
2.73 4.1 3.32 9.1477e-41
2.76 4.1 3.32 9.1477e-41
2.78 4.1 3.31 9.1477e-41
2.8 4.1 3.3 9.1477e-41
2.83 4.1 3.31 9.1477e-41
2.86 4.1 3.31 9.1477e-41
2.88 4.1 3.3 9.1477e-41
2.91 4.1 3.3 9.1477e-41
2.93 4.1 3.29 9.1477e-41
2.95 4.1 3.28 9.1477e-41
2.98 4.1 3.28 9.1477e-41
2.99 4.1 3.26 9.1477e-41
3.02 4.1 3.27 9.1477e-41
3.04 4.1 3.26 9.1477e-41
3.07 4.1 3.26 9.1477e-41
3.08 4.1 3.25 9.1477e-41
3.11 4.1 3.25 9.1477e-41
3.13 4.1 3.24 9.1477e-41
3.15 4.1 3.21 9.1477e-41
3.16 4.1 3.19 9.1477e-41
3.17 4.1 3.15 9.1477e-41
3.18 4.1 3.09 9.1477e-41
3.18 4.1 3.04 9.1477e-41
3.19 4.1 2.99 9.1477e-41
3.2 4.1 2.93 9.1477e-41
3.21 4.1 2.87 9.1477e-41
3.21 4.1 2.81 9.1477e-41
3.22 4.1 2.74 9.1477e-41
3.23 4.1 2.67 9.1477e-41
3.24 4.1 2.6 9.1477e-41
3.24 4.1 2.51 9.1477e-41
3.25 4.1 2.42 9.1477e-41
3.26 4.1 2.32 9.1477e-41
3.26 4.1 2.19 9.1477e-41
3.26 4.1 2.07 9.1477e-41
3.24 4.1 2.07 3.57e-43
3.24 4.1 2.07 3.57e-43
3.27 4.1 1.62 9.1477e-41
3.25 4.1 1.62 3.57e-43
3.24 4.1 1.62 3.57e-43
1.02 4.51 3.28 9.1477e-41
1.1 4.51 3.3 9.1477e-41
1.16 4.51 3.31 9.1477e-41
1.22 4.51 3.31 9.1477e-41
1.28 4.51 3.33 9.1477e-41
1.34 4.51 3.33 9.1477e-41
1.39 4.51 3.34 9.1477e-41
1.45 4.51 3.35 9.1477e-41
1.51 4.51 3.36 9.1477e-41
1.55 4.51 3.35 9.1477e-41
1.61 4.51 3.37 9.1477e-41
1.65 4.51 3.37 9.1477e-41
1.69 4.51 3.36 9.1477e-41
1.73 4.51 3.36 9.1477e-41
1.78 4.51 3.37 9.1477e-41
1.82 4.51 3.37 9.1477e-41
1.85 4.51 3.36 9.1477e-41
1.9 4.51 3.37 9.1477e-41
1.93 4.51 3.37 9.1477e-41
1.97 4.51 3.36 9.1477e-41
2.01 4.51 3.37 9.1477e-41
2.04 4.51 3.36 9.1477e-41
2.07 4.51 3.36 9.1477e-41
2.11 4.51 3.37 9.1477e-41
2.15 4.51 3.36 9.1477e-41
2.19 4.51 3.37 9.1477e-41
2.22 4.51 3.37 9.1477e-41
2.25 4.51 3.36 9.1477e-41
2.28 4.51 3.37 9.1477e-41
2.31 4.51 3.36 9.1477e-41
2.35 4.51 3.37 9.1477e-41
2.38 4.51 3.36 9.1477e-41
2.41 4.51 3.36 9.1477e-41
2.43 4.51 3.36 9.1477e-41
2.46 4.51 3.35 9.1477e-41
2.49 4.51 3.35 9.1477e-41
2.52 4.51 3.35 9.1477e-41
2.54 4.51 3.34 9.1477e-41
2.58 4.51 3.35 9.1477e-41
2.6 4.51 3.34 9.1477e-41
2.63 4.51 3.34 9.1477e-41
2.66 4.51 3.34 9.1477e-41
2.68 4.51 3.33 9.1477e-41
2.71 4.51 3.33 9.1477e-41
2.73 4.51 3.32 9.1477e-41
2.76 4.51 3.33 9.1477e-41
2.78 4.51 3.31 9.1477e-41
2.81 4.51 3.31 9.1477e-41
2.83 4.51 3.31 9.1477e-41
2.86 4.51 3.31 9.1477e-41
2.88 4.51 3.3 9.1477e-41
2.9 4.51 3.3 9.1477e-41
2.92 4.51 3.29 9.1477e-41
2.95 4.51 3.28 9.1477e-41
2.97 4.51 3.27 9.1477e-41
3 4.51 3.27 9.1477e-41
3.02 4.51 3.26 9.1477e-41
3.04 4.51 3.25 9.1477e-41
3.06 4.51 3.25 9.1477e-41
3.09 4.51 3.26 9.1477e-41
3.11 4.51 3.25 9.1477e-41
3.13 4.51 3.23 9.1477e-41
3.14 4.51 3.2 9.1477e-41
3.16 4.51 3.19 9.1477e-41
3.17 4.51 3.19 3.57e-43
3.18 4.51 3.19 3.57e-43
3.18 4.51 3.04 9.1477e-41
3.04 4.51 3.04 3.57e-43
3.2 4.51 3.04 3.57e-43
3.21 4.51 3.04 3.57e-43
3.21 4.51 3.04 3.57e-43
3.22 4.51 3.04 3.57e-43
3.23 4.51 3.04 3.57e-43
3.24 4.51 3.04 3.57e-43
3.24 4.51 3.04 3.57e-43
3.25 4.51 3.04 3.57e-43
3.26 4.51 3.04 3.57e-43
3.26 4.51 2.19 9.1477e-41
3.26 4.51 2.07 9.1477e-41
3.24 4.51 2.07 3.57e-43
3.24 4.51 1.68 9.1477e-41
3.24 4.51 1.46 9.1477e-41
3.25 4.51 1.46 3.57e-43
3.24 4.51 1.46 3.57e-43
1.01 4.92 3.28 9.1477e-41
1.09 4.92 3.29 9.1477e-41
1.15 4.92 3.3 9.1477e-41
1.22 4.92 3.31 9.1477e-41
1.28 4.92 3.33 9.1477e-41
1.33 4.92 3.33 9.1477e-41
1.4 4.92 3.34 9.1477e-41
1.46 4.92 3.35 9.1477e-41
1.51 4.92 3.36 9.1477e-41
1.55 4.92 3.35 9.1477e-41
1.6 4.92 3.36 9.1477e-41
1.64 4.92 3.36 9.1477e-41
1.69 4.92 3.36 9.1477e-41
1.73 4.92 3.36 9.1477e-41
1.78 4.92 3.37 9.1477e-41
1.82 4.92 3.37 9.1477e-41
1.86 4.92 3.37 9.1477e-41
1.89 4.92 3.36 9.1477e-41
1.93 4.92 3.37 9.1477e-41
1.97 4.92 3.36 9.1477e-41
2.01 4.92 3.37 9.1477e-41
2.04 4.92 3.36 9.1477e-41
2.08 4.92 3.37 9.1477e-41
2.11 4.92 3.37 9.1477e-41
2.15 4.92 3.37 9.1477e-41
2.18 4.92 3.36 9.1477e-41
2.22 4.92 3.37 9.1477e-41
2.25 4.92 3.37 9.1477e-41
2.28 4.92 3.36 9.1477e-41
2.31 4.92 3.36 9.1477e-41
2.34 4.92 3.36 9.1477e-41
2.38 4.92 3.36 9.1477e-41
2.41 4.92 3.36 9.1477e-41
2.43 4.92 3.36 9.1477e-41
2.46 4.92 3.35 9.1477e-41
2.49 4.92 3.34 9.1477e-41
2.52 4.92 3.35 9.1477e-41
2.54 4.92 3.34 9.1477e-41
2.58 4.92 3.35 9.1477e-41
2.6 4.92 3.33 9.1477e-41
2.63 4.92 3.34 9.1477e-41
2.65 4.92 3.33 9.1477e-41
2.68 4.92 3.33 9.1477e-41
2.7 4.92 3.32 9.1477e-41
2.73 4.92 3.32 9.1477e-41
2.76 4.92 3.32 9.1477e-41
2.78 4.92 3.31 9.1477e-41
2.81 4.92 3.31 9.1477e-41
2.83 4.92 3.3 9.1477e-41
2.85 4.92 3.3 9.1477e-41
2.87 4.92 3.29 9.1477e-41
2.9 4.92 3.3 9.1477e-41
2.92 4.92 3.29 9.1477e-41
2.95 4.92 3.28 9.1477e-41
2.97 4.92 3.27 9.1477e-41
3 4.92 3.27 9.1477e-41
3.02 4.92 3.26 9.1477e-41
3.04 4.92 3.26 9.1477e-41
3.06 4.92 3.25 9.1477e-41
3.08 4.92 3.25 9.1477e-41
3.11 4.92 3.26 9.1477e-41
3.13 4.92 3.24 9.1477e-41
3.14 4.92 3.2 9.1477e-41
3.16 4.92 3.18 9.1477e-41
3.17 4.92 3.18 3.57e-43
3.18 4.92 3.18 3.57e-43
3.18 4.92 3.18 3.57e-43
3.04 4.92 3.18 3.57e-43
3.2 4.92 3.18 3.57e-43
3.21 4.92 3.18 3.57e-43
3.21 4.92 3.18 3.57e-43
3.22 4.92 3.18 3.57e-43
3.23 4.92 3.18 3.57e-43
3.24 4.92 3.18 3.57e-43
3.24 4.92 3.18 3.57e-43
3.25 4.92 3.18 3.57e-43
3.26 4.92 3.18 3.57e-43
3.26 4.92 2.19 9.1477e-41
3.26 4.92 2.07 9.1477e-41
3.24 4.92 2.07 3.57e-43
3.24 4.92 1.68 9.1477e-41
3.23 4.92 1.43 9.1477e-41
3.25 4.92 1.43 3.57e-43
3.24 4.92 1.43 3.57e-43
1.01 5.33 3.28 9.1477e-41
1.09 5.33 3.29 9.1477e-41
1.17 5.33 3.31 9.1477e-41
1.22 5.33 3.32 9.1477e-41
1.28 5.33 3.33 9.1477e-41
1.34 5.33 3.33 9.1477e-41
1.39 5.33 3.34 9.1477e-41
1.45 5.33 3.35 9.1477e-41
1.5 5.33 3.35 9.1477e-41
1.55 5.33 3.35 9.1477e-41
1.6 5.33 3.36 9.1477e-41
1.64 5.33 3.36 9.1477e-41
1.69 5.33 3.36 9.1477e-41
1.73 5.33 3.36 9.1477e-41
1.78 5.33 3.37 9.1477e-41
1.82 5.33 3.37 9.1477e-41
1.86 5.33 3.37 9.1477e-41
1.9 5.33 3.37 9.1477e-41
1.94 5.33 3.37 9.1477e-41
1.97 5.33 3.37 9.1477e-41
2.01 5.33 3.37 9.1477e-41
2.05 5.33 3.37 9.1477e-41
2.08 5.33 3.37 9.1477e-41
2.11 5.33 3.37 9.1477e-41
2.15 5.33 3.36 9.1477e-41
2.19 5.33 3.37 9.1477e-41
2.22 5.33 3.37 9.1477e-41
2.25 5.33 3.37 9.1477e-41
2.28 5.33 3.36 9.1477e-41
2.31 5.33 3.36 9.1477e-41
2.34 5.33 3.36 9.1477e-41
2.37 5.33 3.35 9.1477e-41
2.41 5.33 3.36 9.1477e-41
2.43 5.33 3.35 9.1477e-41
2.46 5.33 3.35 9.1477e-41
2.49 5.33 3.34 9.1477e-41
2.52 5.33 3.36 9.1477e-41
2.54 5.33 3.34 9.1477e-41
2.58 5.33 3.35 9.1477e-41
2.61 5.33 3.35 9.1477e-41
2.63 5.33 3.34 9.1477e-41
2.65 5.33 3.33 9.1477e-41
2.68 5.33 3.33 9.1477e-41
2.7 5.33 3.32 9.1477e-41
2.73 5.33 3.32 9.1477e-41
2.76 5.33 3.32 9.1477e-41
2.78 5.33 3.31 9.1477e-41
2.81 5.33 3.31 9.1477e-41
2.83 5.33 3.3 9.1477e-41
2.85 5.33 3.3 9.1477e-41
2.88 5.33 3.3 9.1477e-41
2.9 5.33 3.29 9.1477e-41
2.92 5.33 3.29 9.1477e-41
2.95 5.33 3.28 9.1477e-41
2.97 5.33 3.27 9.1477e-41
2.99 5.33 3.26 9.1477e-41
3.02 5.33 3.26 9.1477e-41
3.04 5.33 3.25 9.1477e-41
3.06 5.33 3.25 9.1477e-41
3.08 5.33 3.25 9.1477e-41
3.11 5.33 3.25 9.1477e-41
3.13 5.33 3.23 9.1477e-41
3.14 5.33 3.2 9.1477e-41
3.16 5.33 3.18 9.1477e-41
3.16 5.33 3.18 3.57e-43
3.18 5.33 3.18 3.57e-43
3.18 5.33 3.18 3.57e-43
3.04 5.33 3.18 3.57e-43
3.2 5.33 3.18 3.57e-43
3.21 5.33 3.18 3.57e-43
3.21 5.33 3.18 3.57e-43
3.22 5.33 3.18 3.57e-43
3.23 5.33 3.18 3.57e-43
3.24 5.33 3.18 3.57e-43
3.24 5.33 3.18 3.57e-43
3.25 5.33 3.18 3.57e-43
3.26 5.33 2.32 9.1477e-41
3.23 5.33 2.08 9.1477e-41
3.26 5.33 2.06 9.1477e-41
3.23 5.33 2.06 3.57e-43
3.24 5.33 1.68 9.1477e-41
3.23 5.33 1.41 9.1477e-41
3.24 5.33 1.41 3.57e-43
3.24 5.33 1.41 3.57e-43
1.02 5.74 3.28 9.1477e-41
1.09 5.74 3.29 9.1477e-41
1.16 5.74 3.31 9.1477e-41
1.22 5.74 3.32 9.1477e-41
1.28 5.74 3.32 9.1477e-41
1.34 5.74 3.33 9.1477e-41
1.39 5.74 3.33 9.1477e-41
1.45 5.74 3.35 9.1477e-41
1.49 5.74 3.34 9.1477e-41
1.55 5.74 3.35 9.1477e-41
1.59 5.74 3.35 9.1477e-41
1.64 5.74 3.36 9.1477e-41
1.69 5.74 3.36 9.1477e-41
1.73 5.74 3.36 9.1477e-41
1.77 5.74 3.36 9.1477e-41
1.81 5.74 3.36 9.1477e-41
1.85 5.74 3.36 9.1477e-41
1.89 5.74 3.36 9.1477e-41
1.93 5.74 3.37 9.1477e-41
1.96 5.74 3.36 9.1477e-41
2 5.74 3.36 9.1477e-41
2.04 5.74 3.36 9.1477e-41
2.07 5.74 3.36 9.1477e-41
2.11 5.74 3.37 9.1477e-41
2.15 5.74 3.36 9.1477e-41
2.19 5.74 3.37 9.1477e-41
2.21 5.74 3.36 9.1477e-41
2.25 5.74 3.36 9.1477e-41
2.28 5.74 3.37 9.1477e-41
2.31 5.74 3.36 9.1477e-41
2.34 5.74 3.35 9.1477e-41
2.37 5.74 3.35 9.1477e-41
2.4 5.74 3.36 9.1477e-41
2.43 5.74 3.35 9.1477e-41
2.46 5.74 3.35 9.1477e-41
2.49 5.74 3.34 9.1477e-41
2.52 5.74 3.35 9.1477e-41
2.54 5.74 3.34 9.1477e-41
2.57 5.74 3.34 9.1477e-41
2.6 5.74 3.33 9.1477e-41
2.63 5.74 3.34 9.1477e-41
2.65 5.74 3.33 9.1477e-41
2.68 5.74 3.33 9.1477e-41
2.7 5.74 3.32 9.1477e-41
2.73 5.74 3.32 9.1477e-41
2.76 5.74 3.32 9.1477e-41
2.78 5.74 3.31 9.1477e-41
2.8 5.74 3.3 9.1477e-41
2.83 5.74 3.3 9.1477e-41
2.85 5.74 3.29 9.1477e-41
2.87 5.74 3.29 9.1477e-41
2.9 5.74 3.29 9.1477e-41
2.92 5.74 3.29 9.1477e-41
2.95 5.74 3.28 9.1477e-41
2.97 5.74 3.27 9.1477e-41
2.99 5.74 3.26 9.1477e-41
3.02 5.74 3.26 9.1477e-41
3.04 5.74 3.26 9.1477e-41
3.06 5.74 3.25 9.1477e-41
3.08 5.74 3.25 9.1477e-41
3.11 5.74 3.24 9.1477e-41
3.13 5.74 3.23 9.1477e-41
3.14 5.74 3.19 9.1477e-41
3.16 5.74 3.18 9.1477e-41
3.15 5.74 3.18 3.57e-43
3.18 5.74 3.18 3.57e-43
3.18 5.74 3.18 3.57e-43
3.04 5.74 3.18 3.57e-43
3.2 5.74 3.18 3.57e-43
3.21 5.74 3.18 3.57e-43
3.21 5.74 3.18 3.57e-43
3.22 5.74 3.18 3.57e-43
3.23 5.74 3.18 3.57e-43
3.24 5.74 3.18 3.57e-43
3.24 5.74 3.18 3.57e-43
3.25 5.74 3.18 3.57e-43
3.26 5.74 2.32 9.1477e-41
3.23 5.74 2.08 9.1477e-41
3.26 5.74 2.05 9.1477e-41
3.25 5.74 2.05 3.57e-43
3.24 5.74 1.68 9.1477e-41
3.22 5.74 1.39 9.1477e-41
3.24 5.74 1.39 3.57e-43
3.24 5.74 1.39 3.57e-43
1.02 6.15 3.28 9.1477e-41
1.1 6.15 3.3 9.1477e-41
1.15 6.15 3.3 9.1477e-41
1.22 6.15 3.31 9.1477e-41
1.28 6.15 3.32 9.1477e-41
1.33 6.15 3.33 9.1477e-41
1.39 6.15 3.34 9.1477e-41
1.44 6.15 3.33 9.1477e-41
1.49 6.15 3.34 9.1477e-41
1.54 6.15 3.35 9.1477e-41
1.59 6.15 3.35 9.1477e-41
1.64 6.15 3.36 9.1477e-41
1.69 6.15 3.36 9.1477e-41
1.72 6.15 3.35 9.1477e-41
1.76 6.15 3.35 9.1477e-41
1.8 6.15 3.35 9.1477e-41
1.84 6.15 3.35 9.1477e-41
1.89 6.15 3.36 9.1477e-41
1.92 6.15 3.35 9.1477e-41
1.96 6.15 3.36 9.1477e-41
1.99 6.15 3.34 9.1477e-41
2.03 6.15 3.36 9.1477e-41
2.07 6.15 3.35 9.1477e-41
2.1 6.15 3.35 9.1477e-41
2.13 6.15 3.35 9.1477e-41
2.17 6.15 3.35 9.1477e-41
2.21 6.15 3.35 9.1477e-41
2.24 6.15 3.35 9.1477e-41
2.28 6.15 3.36 9.1477e-41
2.31 6.15 3.35 9.1477e-41
2.34 6.15 3.36 9.1477e-41
2.38 6.15 3.36 9.1477e-41
2.4 6.15 3.36 9.1477e-41
2.43 6.15 3.36 9.1477e-41
2.46 6.15 3.35 9.1477e-41
2.49 6.15 3.34 9.1477e-41
2.52 6.15 3.35 9.1477e-41
2.54 6.15 3.34 9.1477e-41
2.57 6.15 3.34 9.1477e-41
2.6 6.15 3.33 9.1477e-41
2.62 6.15 3.33 9.1477e-41
2.65 6.15 3.32 9.1477e-41
2.68 6.15 3.33 9.1477e-41
2.7 6.15 3.32 9.1477e-41
2.73 6.15 3.32 9.1477e-41
2.75 6.15 3.31 9.1477e-41
2.78 6.15 3.31 9.1477e-41
2.8 6.15 3.3 9.1477e-41
2.83 6.15 3.3 9.1477e-41
2.85 6.15 3.29 9.1477e-41
2.88 6.15 3.3 9.1477e-41
2.9 6.15 3.29 9.1477e-41
2.92 6.15 3.28 9.1477e-41
2.95 6.15 3.28 9.1477e-41
2.97 6.15 3.27 9.1477e-41
2.99 6.15 3.26 9.1477e-41
3.01 6.15 3.25 9.1477e-41
3.04 6.15 3.25 9.1477e-41
3.06 6.15 3.25 9.1477e-41
3.08 6.15 3.24 9.1477e-41
3.11 6.15 3.25 9.1477e-41
3.13 6.15 3.23 9.1477e-41
3.14 6.15 3.2 9.1477e-41
3.16 6.15 3.2 3.57e-43
3.15 6.15 3.2 3.57e-43
3.18 6.15 3.2 3.57e-43
3.18 6.15 3.2 3.57e-43
3.04 6.15 3.2 3.57e-43
3.2 6.15 3.2 3.57e-43
3.21 6.15 3.2 3.57e-43
3.21 6.15 3.2 3.57e-43
3.22 6.15 3.2 3.57e-43
3.23 6.15 3.2 3.57e-43
3.24 6.15 3.2 3.57e-43
3.24 6.15 3.2 3.57e-43
3.25 6.15 3.2 3.57e-43
3.26 6.15 2.32 9.1477e-41
3.23 6.15 2.09 9.1477e-41
3.26 6.15 2.09 3.57e-43
3.25 6.15 1.86 9.1477e-41
3.23 6.15 1.62 9.1477e-41
3.22 6.15 1.37 9.1477e-41
3.24 6.15 1.37 3.57e-43
3.24 6.15 1.37 3.57e-43
1.06 6.56 3.31 9.1477e-41
1.12 6.56 3.32 9.1477e-41
1.18 6.56 3.33 9.1477e-41
1.24 6.56 3.33 9.1477e-41
1.31 6.56 3.35 9.1477e-41
1.35 6.56 3.34 9.1477e-41
1.42 6.56 3.36 9.1477e-41
1.45 6.56 3.35 9.1477e-41
1.49 6.56 3.34 9.1477e-41
1.54 6.56 3.34 9.1477e-41
1.59 6.56 3.35 9.1477e-41
1.64 6.56 3.36 9.1477e-41
1.68 6.56 3.35 9.1477e-41
1.71 6.56 3.34 9.1477e-41
1.76 6.56 3.35 9.1477e-41
1.8 6.56 3.35 9.1477e-41
1.84 6.56 3.35 9.1477e-41
1.88 6.56 3.35 9.1477e-41
1.98 6.56 3.42 9.1477e-41
2.03 6.56 3.44 9.1477e-41
2.06 6.56 3.43 9.1477e-41
2.09 6.56 3.42 9.1477e-41
2.11 6.56 3.4 9.1477e-41
2.13 6.56 3.39 9.1477e-41
2.15 6.56 3.36 9.1477e-41
2.17 6.56 3.35 9.1477e-41
2.2 6.56 3.35 9.1477e-41
2.23 6.56 3.35 9.1477e-41
2.27 6.56 3.34 9.1477e-41
2.3 6.56 3.34 9.1477e-41
2.33 6.56 3.34 9.1477e-41
2.37 6.56 3.35 9.1477e-41
2.4 6.56 3.36 9.1477e-41
2.43 6.56 3.36 9.1477e-41
2.46 6.56 3.35 9.1477e-41
2.49 6.56 3.35 9.1477e-41
2.52 6.56 3.35 9.1477e-41
2.54 6.56 3.34 9.1477e-41
2.58 6.56 3.35 9.1477e-41
2.6 6.56 3.34 9.1477e-41
2.63 6.56 3.34 9.1477e-41
2.65 6.56 3.32 9.1477e-41
2.68 6.56 3.33 9.1477e-41
2.7 6.56 3.32 9.1477e-41
2.73 6.56 3.31 9.1477e-41
2.76 6.56 3.32 9.1477e-41
2.78 6.56 3.31 9.1477e-41
2.8 6.56 3.3 9.1477e-41
2.83 6.56 3.3 9.1477e-41
2.85 6.56 3.3 9.1477e-41
2.87 6.56 3.29 9.1477e-41
2.89 6.56 3.28 9.1477e-41
2.92 6.56 3.29 9.1477e-41
2.94 6.56 3.27 9.1477e-41
2.97 6.56 3.27 9.1477e-41
2.99 6.56 3.26 9.1477e-41
3.02 6.56 3.26 9.1477e-41
3.04 6.56 3.25 9.1477e-41
3.06 6.56 3.25 9.1477e-41
3.08 6.56 3.25 9.1477e-41
3.11 6.56 3.25 9.1477e-41
3.12 6.56 3.22 9.1477e-41
3.14 6.56 3.2 9.1477e-41
3.16 6.56 3.2 3.57e-43
3.15 6.56 3.2 3.57e-43
3.18 6.56 3.2 3.57e-43
3.18 6.56 3.2 3.57e-43
3.04 6.56 3.2 3.57e-43
3.2 6.56 3.2 3.57e-43
3.21 6.56 3.2 3.57e-43
3.21 6.56 3.2 3.57e-43
3.22 6.56 3.2 3.57e-43
3.23 6.56 3.2 3.57e-43
3.24 6.56 3.2 3.57e-43
3.24 6.56 3.2 3.57e-43
3.25 6.56 3.2 3.57e-43
3.26 6.56 2.32 9.1477e-41
3.23 6.56 2.08 9.1477e-41
3.25 6.56 2.08 3.57e-43
3.25 6.56 1.86 9.1477e-41
3.23 6.56 1.61 9.1477e-41
3.22 6.56 1.38 9.1477e-41
3.23 6.56 1.38 3.57e-43
3.24 6.56 1.38 3.57e-43
1.1 6.97 3.38 9.1477e-41
1.16 6.97 3.39 9.1477e-41
1.22 6.97 3.39 9.1477e-41
1.27 6.97 3.4 9.1477e-41
1.34 6.97 3.41 9.1477e-41
1.41 6.97 3.43 9.1477e-41
1.43 6.97 3.41 9.1477e-41
1.44 6.97 3.38 9.1477e-41
1.45 6.97 3.35 9.1477e-41
1.49 6.97 3.34 9.1477e-41
1.54 6.97 3.34 9.1477e-41
1.59 6.97 3.35 9.1477e-41
1.64 6.97 3.35 9.1477e-41
1.68 6.97 3.35 9.1477e-41
1.72 6.97 3.35 9.1477e-41
1.77 6.97 3.36 9.1477e-41
1.8 6.97 3.35 9.1477e-41
1.84 6.97 3.35 9.1477e-41
1.88 6.97 3.35 9.1477e-41
1.92 6.97 3.35 9.1477e-41
1.95 6.97 3.35 9.1477e-41
2 6.97 3.36 9.1477e-41
2.04 6.97 3.36 9.1477e-41
2.06 6.97 3.35 9.1477e-41
2.1 6.97 3.35 9.1477e-41
2.13 6.97 3.35 9.1477e-41
2.17 6.97 3.35 9.1477e-41
2.21 6.97 3.36 9.1477e-41
2.24 6.97 3.35 9.1477e-41
2.28 6.97 3.36 9.1477e-41
2.31 6.97 3.35 9.1477e-41
2.34 6.97 3.35 9.1477e-41
2.37 6.97 3.35 9.1477e-41
2.4 6.97 3.36 9.1477e-41
2.43 6.97 3.36 9.1477e-41
2.45 6.97 3.34 9.1477e-41
2.49 6.97 3.34 9.1477e-41
2.51 6.97 3.34 9.1477e-41
2.54 6.97 3.34 9.1477e-41
2.6 6.97 3.38 9.1477e-41
2.66 6.97 3.43 9.1477e-41
2.69 6.97 3.43 9.1477e-41
2.71 6.97 3.42 9.1477e-41
2.72 6.97 3.4 9.1477e-41
2.76 6.97 3.42 9.1477e-41
2.78 6.97 3.41 9.1477e-41
2.8 6.97 3.4 9.1477e-41
2.82 6.97 3.39 9.1477e-41
2.85 6.97 3.4 9.1477e-41
2.87 6.97 3.39 9.1477e-41
2.9 6.97 3.39 9.1477e-41
2.92 6.97 3.38 9.1477e-41
2.94 6.97 3.38 9.1477e-41
2.97 6.97 3.38 9.1477e-41
2.99 6.97 3.37 9.1477e-41
3.02 6.97 3.37 9.1477e-41
3.03 6.97 3.35 9.1477e-41
3.05 6.97 3.34 9.1477e-41
3.05 6.97 3.27 9.1477e-41
3.06 6.97 3.25 9.1477e-41
3.08 6.97 3.25 9.1477e-41
3.11 6.97 3.24 9.1477e-41
3.12 6.97 3.22 9.1477e-41
3.14 6.97 3.19 9.1477e-41
3.15 6.97 3.19 3.57e-43
3.15 6.97 3.19 3.57e-43
3.18 6.97 3.19 3.57e-43
3.18 6.97 3.19 3.57e-43
3.04 6.97 3.19 3.57e-43
3.2 6.97 3.19 3.57e-43
3.21 6.97 3.19 3.57e-43
3.21 6.97 3.19 3.57e-43
3.22 6.97 3.19 3.57e-43
3.23 6.97 3.19 3.57e-43
3.24 6.97 3.19 3.57e-43
3.24 6.97 3.19 3.57e-43
3.25 6.97 3.19 3.57e-43
3.26 6.97 2.32 9.1477e-41
3.23 6.97 2.08 9.1477e-41
3.24 6.97 2 9.1477e-41
3.23 6.97 1.78 9.1477e-41
3.23 6.97 1.63 9.1477e-41
3.23 6.97 1.43 9.1477e-41
3.23 6.97 1.25 9.1477e-41
3.22 6.97 0.97 9.1477e-41
3.21 6.97 0.65 9.1477e-41
1.08 7.38 3.37 9.1477e-41
1.14 7.38 3.38 9.1477e-41
1.2 7.38 3.38 9.1477e-41
1.27 7.38 3.39 9.1477e-41
1.33 7.38 3.41 9.1477e-41
1.4 7.38 3.42 9.1477e-41
1.43 7.38 3.41 9.1477e-41
1.45 7.38 3.38 9.1477e-41
1.44 7.38 3.34 9.1477e-41
1.48 7.38 3.33 9.1477e-41
1.53 7.38 3.33 9.1477e-41
1.59 7.38 3.35 9.1477e-41
1.63 7.38 3.34 9.1477e-41
1.68 7.38 3.35 9.1477e-41
1.72 7.38 3.35 9.1477e-41
1.77 7.38 3.36 9.1477e-41
1.81 7.38 3.36 9.1477e-41
1.85 7.38 3.36 9.1477e-41
1.89 7.38 3.36 9.1477e-41
1.93 7.38 3.36 9.1477e-41
1.97 7.38 3.36 9.1477e-41
2 7.38 3.36 9.1477e-41
2.05 7.38 3.37 9.1477e-41
2.08 7.38 3.37 9.1477e-41
2.11 7.38 3.37 9.1477e-41
2.15 7.38 3.36 9.1477e-41
2.18 7.38 3.36 9.1477e-41
2.21 7.38 3.36 9.1477e-41
2.25 7.38 3.36 9.1477e-41
2.28 7.38 3.36 9.1477e-41
2.31 7.38 3.35 9.1477e-41
2.34 7.38 3.35 9.1477e-41
2.37 7.38 3.35 9.1477e-41
2.4 7.38 3.36 9.1477e-41
2.43 7.38 3.35 9.1477e-41
2.46 7.38 3.35 9.1477e-41
2.49 7.38 3.34 9.1477e-41
2.51 7.38 3.34 9.1477e-41
2.54 7.38 3.33 9.1477e-41
2.58 7.38 3.35 9.1477e-41
2.66 7.38 3.42 9.1477e-41
2.68 7.38 3.42 9.1477e-41
2.71 7.38 3.42 9.1477e-41
2.73 7.38 3.41 9.1477e-41
2.75 7.38 3.4 9.1477e-41
2.78 7.38 3.4 9.1477e-41
2.8 7.38 3.4 9.1477e-41
2.82 7.38 3.39 9.1477e-41
2.85 7.38 3.39 9.1477e-41
2.87 7.38 3.39 9.1477e-41
2.89 7.38 3.38 9.1477e-41
2.92 7.38 3.38 9.1477e-41
2.94 7.38 3.38 9.1477e-41
2.96 7.38 3.36 9.1477e-41
2.99 7.38 3.37 9.1477e-41
3.01 7.38 3.36 9.1477e-41
3.03 7.38 3.35 9.1477e-41
3.05 7.38 3.33 9.1477e-41
3.04 7.38 3.26 9.1477e-41
3.06 7.38 3.25 9.1477e-41
3.08 7.38 3.24 9.1477e-41
3.11 7.38 3.24 9.1477e-41
3.12 7.38 3.21 9.1477e-41
3.14 7.38 3.19 9.1477e-41
3.15 7.38 3.19 3.57e-43
3.15 7.38 3.19 3.57e-43
3.18 7.38 3.09 9.1477e-41
3.01 7.38 2.54 9.1477e-41
3.04 7.38 2.54 3.57e-43
3.2 7.38 2.54 3.57e-43
3.21 7.38 2.54 3.57e-43
3.21 7.38 2.54 3.57e-43
3.22 7.38 2.54 3.57e-43
3.23 7.38 2.54 3.57e-43
3.24 7.38 2.54 3.57e-43
3.24 7.38 2.54 3.57e-43
3.25 7.38 2.54 3.57e-43
3.26 7.38 2.32 9.1477e-41
3.23 7.38 2.08 9.1477e-41
3.23 7.38 1.94 9.1477e-41
3.23 7.38 1.78 9.1477e-41
3.23 7.38 1.62 9.1477e-41
3.22 7.38 1.38 9.1477e-41
3.21 7.38 1.15 9.1477e-41
3.21 7.38 0.92 9.1477e-41
3.21 7.38 0.64 9.1477e-41
1.12 7.79 3.36 9.1477e-41
1.18 7.79 3.36 9.1477e-41
1.24 7.79 3.37 9.1477e-41
1.3 7.79 3.38 9.1477e-41
1.36 7.79 3.39 9.1477e-41
1.42 7.79 3.4 9.1477e-41
1.45 7.79 3.38 9.1477e-41
1.45 7.79 3.35 9.1477e-41
1.48 7.79 3.33 9.1477e-41
1.53 7.79 3.33 9.1477e-41
1.59 7.79 3.35 9.1477e-41
1.64 7.79 3.35 9.1477e-41
1.68 7.79 3.35 9.1477e-41
1.72 7.79 3.35 9.1477e-41
1.76 7.79 3.35 9.1477e-41
1.8 7.79 3.35 9.1477e-41
1.84 7.79 3.35 9.1477e-41
1.89 7.79 3.36 9.1477e-41
1.93 7.79 3.36 9.1477e-41
1.97 7.79 3.36 9.1477e-41
2.01 7.79 3.37 9.1477e-41
2.03 7.79 3.36 9.1477e-41
2.08 7.79 3.37 9.1477e-41
2.11 7.79 3.36 9.1477e-41
2.15 7.79 3.36 9.1477e-41
2.17 7.79 3.35 9.1477e-41
2.21 7.79 3.36 9.1477e-41
2.25 7.79 3.36 9.1477e-41
2.28 7.79 3.36 9.1477e-41
2.31 7.79 3.35 9.1477e-41
2.34 7.79 3.36 9.1477e-41
2.37 7.79 3.35 9.1477e-41
2.4 7.79 3.36 9.1477e-41
2.43 7.79 3.35 9.1477e-41
2.46 7.79 3.35 9.1477e-41
2.49 7.79 3.34 9.1477e-41
2.51 7.79 3.34 9.1477e-41
2.54 7.79 3.34 9.1477e-41
2.57 7.79 3.34 9.1477e-41
2.64 7.79 3.4 9.1477e-41
2.67 7.79 3.4 9.1477e-41
2.69 7.79 3.4 9.1477e-41
2.71 7.79 3.39 9.1477e-41
2.74 7.79 3.38 9.1477e-41
2.77 7.79 3.38 9.1477e-41
2.79 7.79 3.38 9.1477e-41
2.81 7.79 3.37 9.1477e-41
2.84 7.79 3.36 9.1477e-41
2.86 7.79 3.36 9.1477e-41
2.88 7.79 3.35 9.1477e-41
2.91 7.79 3.36 9.1477e-41
2.93 7.79 3.35 9.1477e-41
2.96 7.79 3.35 9.1477e-41
2.98 7.79 3.34 9.1477e-41
3 7.79 3.34 9.1477e-41
3.03 7.79 3.34 9.1477e-41
3.04 7.79 3.32 9.1477e-41
3.04 7.79 3.26 9.1477e-41
3.06 7.79 3.25 9.1477e-41
3.08 7.79 3.25 9.1477e-41
3.11 7.79 3.24 9.1477e-41
3.12 7.79 3.2 9.1477e-41
3.14 7.79 3.19 9.1477e-41
3.15 7.79 3.19 3.57e-43
3.15 7.79 3.19 3.57e-43
3.18 7.79 3.19 3.57e-43
3.01 7.79 3.19 3.57e-43
3.04 7.79 3.19 3.57e-43
3.2 7.79 3.19 3.57e-43
3.21 7.79 3.19 3.57e-43
3.21 7.79 3.19 3.57e-43
3.22 7.79 3.19 3.57e-43
3.23 7.79 3.19 3.57e-43
3.24 7.79 3.19 3.57e-43
3.24 7.79 3.19 3.57e-43
3.25 7.79 3.19 3.57e-43
3.26 7.79 2.32 9.1477e-41
3.23 7.79 2.08 9.1477e-41
3.22 7.79 1.91 9.1477e-41
3.23 7.79 1.78 9.1477e-41
3.23 7.79 1.6 9.1477e-41
3.22 7.79 1.37 9.1477e-41
3.21 7.79 1.13 9.1477e-41
3.21 7.79 0.89 9.1477e-41
3.2 7.79 0.63 9.1477e-41
1.02 8.2 3.28 9.1477e-41
1.08 8.2 3.29 9.1477e-41
1.15 8.2 3.3 9.1477e-41
1.21 8.2 3.31 9.1477e-41
1.27 8.2 3.31 9.1477e-41
1.33 8.2 3.32 9.1477e-41
1.38 8.2 3.32 9.1477e-41
1.44 8.2 3.33 9.1477e-41
1.49 8.2 3.34 9.1477e-41
1.54 8.2 3.34 9.1477e-41
1.59 8.2 3.35 9.1477e-41
1.64 8.2 3.35 9.1477e-41
1.69 8.2 3.36 9.1477e-41
1.73 8.2 3.36 9.1477e-41
1.77 8.2 3.36 9.1477e-41
1.81 8.2 3.36 9.1477e-41
1.85 8.2 3.36 9.1477e-41
1.89 8.2 3.36 9.1477e-41
1.93 8.2 3.36 9.1477e-41
1.97 8.2 3.37 9.1477e-41
2.01 8.2 3.37 9.1477e-41
2.05 8.2 3.37 9.1477e-41
2.08 8.2 3.37 9.1477e-41
2.11 8.2 3.36 9.1477e-41
2.15 8.2 3.36 9.1477e-41
2.18 8.2 3.36 9.1477e-41
2.21 8.2 3.36 9.1477e-41
2.25 8.2 3.36 9.1477e-41
2.27 8.2 3.35 9.1477e-41
2.31 8.2 3.36 9.1477e-41
2.34 8.2 3.35 9.1477e-41
2.37 8.2 3.35 9.1477e-41
2.4 8.2 3.36 9.1477e-41
2.43 8.2 3.35 9.1477e-41
2.45 8.2 3.34 9.1477e-41
2.49 8.2 3.34 9.1477e-41
2.51 8.2 3.34 9.1477e-41
2.54 8.2 3.33 9.1477e-41
2.56 8.2 3.33 9.1477e-41
2.6 8.2 3.33 9.1477e-41
2.62 8.2 3.33 9.1477e-41
2.65 8.2 3.32 9.1477e-41
2.68 8.2 3.33 9.1477e-41
2.7 8.2 3.32 9.1477e-41
2.73 8.2 3.31 9.1477e-41
2.75 8.2 3.31 9.1477e-41
2.78 8.2 3.31 9.1477e-41
2.8 8.2 3.3 9.1477e-41
2.82 8.2 3.29 9.1477e-41
2.85 8.2 3.29 9.1477e-41
2.87 8.2 3.28 9.1477e-41
2.89 8.2 3.28 9.1477e-41
2.92 8.2 3.28 9.1477e-41
2.95 8.2 3.28 9.1477e-41
2.96 8.2 3.26 9.1477e-41
2.99 8.2 3.26 9.1477e-41
3.01 8.2 3.25 9.1477e-41
3.03 8.2 3.25 9.1477e-41
3.06 8.2 3.25 9.1477e-41
3.08 8.2 3.24 9.1477e-41
3.1 8.2 3.23 9.1477e-41
3.12 8.2 3.2 9.1477e-41
3.13 8.2 3.18 9.1477e-41
3.15 8.2 3.18 3.57e-43
3.15 8.2 3.18 3.57e-43
3.18 8.2 3.09 9.1477e-41
3.16 8.2 3.09 3.57e-43
3.04 8.2 3.09 3.57e-43
3.2 8.2 3.09 3.57e-43
3.21 8.2 3.09 3.57e-43
3.21 8.2 3.09 3.57e-43
3.22 8.2 3.09 3.57e-43
3.23 8.2 3.09 3.57e-43
3.24 8.2 3.09 3.57e-43
3.24 8.2 3.09 3.57e-43
3.25 8.2 3.09 3.57e-43
3.26 8.2 2.32 9.1477e-41
3.23 8.2 2.07 9.1477e-41
3.22 8.2 1.88 9.1477e-41
3.22 8.2 1.75 9.1477e-41
3.22 8.2 1.56 9.1477e-41
3.22 8.2 1.37 9.1477e-41
3.22 8.2 1.16 9.1477e-41
3.21 8.2 0.91 9.1477e-41
3.17 8.2 0.45 9.1477e-41
1.01 8.61 3.28 9.1477e-41
1.08 8.61 3.29 9.1477e-41
1.15 8.61 3.3 9.1477e-41
1.21 8.61 3.31 9.1477e-41
1.27 8.61 3.31 9.1477e-41
1.34 8.61 3.33 9.1477e-41
1.4 8.61 3.34 9.1477e-41
1.44 8.61 3.33 9.1477e-41
1.49 8.61 3.34 9.1477e-41
1.54 8.61 3.35 9.1477e-41
1.59 8.61 3.35 9.1477e-41
1.65 8.61 3.37 9.1477e-41
1.69 8.61 3.36 9.1477e-41
1.73 8.61 3.36 9.1477e-41
1.77 8.61 3.36 9.1477e-41
1.81 8.61 3.36 9.1477e-41
1.85 8.61 3.36 9.1477e-41
1.89 8.61 3.36 9.1477e-41
1.93 8.61 3.37 9.1477e-41
1.96 8.61 3.36 9.1477e-41
2 8.61 3.36 9.1477e-41
2.04 8.61 3.36 9.1477e-41
2.07 8.61 3.36 9.1477e-41
2.11 8.61 3.37 9.1477e-41
2.15 8.61 3.37 9.1477e-41
2.18 8.61 3.36 9.1477e-41
2.21 8.61 3.36 9.1477e-41
2.25 8.61 3.36 9.1477e-41
2.28 8.61 3.36 9.1477e-41
2.31 8.61 3.36 9.1477e-41
2.34 8.61 3.36 9.1477e-41
2.38 8.61 3.36 9.1477e-41
2.4 8.61 3.36 9.1477e-41
2.43 8.61 3.36 9.1477e-41
2.46 8.61 3.35 9.1477e-41
2.49 8.61 3.34 9.1477e-41
2.51 8.61 3.34 9.1477e-41
2.54 8.61 3.34 9.1477e-41
2.57 8.61 3.34 9.1477e-41
2.6 8.61 3.34 9.1477e-41
2.62 8.61 3.33 9.1477e-41
2.65 8.61 3.32 9.1477e-41
2.68 8.61 3.33 9.1477e-41
2.7 8.61 3.32 9.1477e-41
2.73 8.61 3.31 9.1477e-41
2.75 8.61 3.31 9.1477e-41
2.78 8.61 3.31 9.1477e-41
2.8 8.61 3.3 9.1477e-41
2.82 8.61 3.29 9.1477e-41
2.85 8.61 3.29 9.1477e-41
2.87 8.61 3.29 9.1477e-41
2.9 8.61 3.29 9.1477e-41
2.92 8.61 3.27 9.1477e-41
2.94 8.61 3.27 9.1477e-41
2.97 8.61 3.27 9.1477e-41
2.99 8.61 3.26 9.1477e-41
3.01 8.61 3.25 9.1477e-41
3.03 8.61 3.25 9.1477e-41
3.06 8.61 3.25 9.1477e-41
3.08 8.61 3.24 9.1477e-41
3.1 8.61 3.23 9.1477e-41
3.11 8.61 3.19 9.1477e-41
3.13 8.61 3.17 9.1477e-41
3.14 8.61 3.17 3.57e-43
3.15 8.61 3.17 3.57e-43
3.18 8.61 3.17 3.57e-43
3.16 8.61 3.17 3.57e-43
3.04 8.61 3.17 3.57e-43
3.2 8.61 3.17 3.57e-43
3.21 8.61 3.17 3.57e-43
3.21 8.61 3.17 3.57e-43
3.22 8.61 3.17 3.57e-43
3.23 8.61 3.17 3.57e-43
3.24 8.61 3.17 3.57e-43
3.24 8.61 3.17 3.57e-43
3.25 8.61 3.17 3.57e-43
3.26 8.61 2.32 9.1477e-41
3.23 8.61 2.07 9.1477e-41
3.22 8.61 1.88 9.1477e-41
3.21 8.61 1.71 9.1477e-41
3.22 8.61 1.57 9.1477e-41
3.21 8.61 1.57 3.57e-43
3.22 8.61 1.57 3.57e-43
3.21 8.61 0.91 9.1477e-41
3.16 8.61 0.4 9.1477e-41
1.01 9.02 3.27 9.1477e-41
1.08 9.02 3.29 9.1477e-41
1.15 9.02 3.3 9.1477e-41
1.21 9.02 3.31 9.1477e-41
1.27 9.02 3.31 9.1477e-41
1.33 9.02 3.32 9.1477e-41
1.39 9.02 3.33 9.1477e-41
1.44 9.02 3.34 9.1477e-41
1.49 9.02 3.34 9.1477e-41
1.54 9.02 3.35 9.1477e-41
1.59 9.02 3.35 9.1477e-41
1.64 9.02 3.36 9.1477e-41
1.69 9.02 3.36 9.1477e-41
1.73 9.02 3.36 9.1477e-41
1.78 9.02 3.37 9.1477e-41
1.81 9.02 3.36 9.1477e-41
1.85 9.02 3.36 9.1477e-41
1.89 9.02 3.36 9.1477e-41
1.93 9.02 3.36 9.1477e-41
1.96 9.02 3.36 9.1477e-41
2 9.02 3.36 9.1477e-41
2.04 9.02 3.36 9.1477e-41
2.07 9.02 3.35 9.1477e-41
2.11 9.02 3.36 9.1477e-41
2.15 9.02 3.36 9.1477e-41
2.18 9.02 3.36 9.1477e-41
2.21 9.02 3.35 9.1477e-41
2.25 9.02 3.36 9.1477e-41
2.27 9.02 3.35 9.1477e-41
2.31 9.02 3.36 9.1477e-41
2.34 9.02 3.35 9.1477e-41
2.38 9.02 3.36 9.1477e-41
2.4 9.02 3.35 9.1477e-41
2.43 9.02 3.36 9.1477e-41
2.47 9.02 3.36 9.1477e-41
2.49 9.02 3.34 9.1477e-41
2.51 9.02 3.34 9.1477e-41
2.54 9.02 3.34 9.1477e-41
2.57 9.02 3.34 9.1477e-41
2.6 9.02 3.33 9.1477e-41
2.62 9.02 3.33 9.1477e-41
2.65 9.02 3.32 9.1477e-41
2.67 9.02 3.32 9.1477e-41
2.7 9.02 3.32 9.1477e-41
2.73 9.02 3.31 9.1477e-41
2.75 9.02 3.3 9.1477e-41
2.78 9.02 3.31 9.1477e-41
2.8 9.02 3.29 9.1477e-41
2.82 9.02 3.29 9.1477e-41
2.85 9.02 3.29 9.1477e-41
2.87 9.02 3.28 9.1477e-41
2.89 9.02 3.28 9.1477e-41
2.92 9.02 3.28 9.1477e-41
2.94 9.02 3.27 9.1477e-41
2.97 9.02 3.27 9.1477e-41
2.99 9.02 3.26 9.1477e-41
3.01 9.02 3.25 9.1477e-41
3.03 9.02 3.24 9.1477e-41
3.06 9.02 3.24 9.1477e-41
3.08 9.02 3.24 9.1477e-41
3.1 9.02 3.22 9.1477e-41
3.12 9.02 3.2 9.1477e-41
3.13 9.02 3.17 9.1477e-41
3.12 9.02 3.17 3.57e-43
3.15 9.02 3.17 3.57e-43
3.18 9.02 3.17 3.57e-43
3.16 9.02 3.17 3.57e-43
3.04 9.02 3.17 3.57e-43
3.2 9.02 3.17 3.57e-43
3.21 9.02 3.17 3.57e-43
3.21 9.02 3.17 3.57e-43
3.22 9.02 3.17 3.57e-43
3.23 9.02 3.17 3.57e-43
3.24 9.02 3.17 3.57e-43
3.24 9.02 3.17 3.57e-43
3.25 9.02 3.17 3.57e-43
3.26 9.02 2.32 9.1477e-41
3.22 9.02 2.06 9.1477e-41
3.21 9.02 2.06 3.57e-43
3.21 9.02 1.71 9.1477e-41
3.21 9.02 1.51 9.1477e-41
3.21 9.02 1.51 3.57e-43
3.22 9.02 1.51 3.57e-43
3.21 9.02 1.51 3.57e-43
3.16 9.02 0.4 9.1477e-41
1.01 9.43 3.28 9.1477e-41
1.08 9.43 3.29 9.1477e-41
1.15 9.43 3.3 9.1477e-41
1.22 9.43 3.31 9.1477e-41
1.27 9.43 3.31 9.1477e-41
1.33 9.43 3.33 9.1477e-41
1.39 9.43 3.33 9.1477e-41
1.44 9.43 3.34 9.1477e-41
1.49 9.43 3.34 9.1477e-41
1.55 9.43 3.35 9.1477e-41
1.59 9.43 3.35 9.1477e-41
1.64 9.43 3.36 9.1477e-41
1.69 9.43 3.36 9.1477e-41
1.74 9.43 3.37 9.1477e-41
1.78 9.43 3.37 9.1477e-41
1.82 9.43 3.37 9.1477e-41
1.85 9.43 3.36 9.1477e-41
1.89 9.43 3.36 9.1477e-41
1.93 9.43 3.37 9.1477e-41
1.97 9.43 3.36 9.1477e-41
2.01 9.43 3.37 9.1477e-41
2.05 9.43 3.37 9.1477e-41
2.07 9.43 3.36 9.1477e-41
2.11 9.43 3.36 9.1477e-41
2.15 9.43 3.36 9.1477e-41
2.18 9.43 3.36 9.1477e-41
2.21 9.43 3.36 9.1477e-41
2.25 9.43 3.36 9.1477e-41
2.28 9.43 3.36 9.1477e-41
2.31 9.43 3.36 9.1477e-41
2.34 9.43 3.36 9.1477e-41
2.37 9.43 3.35 9.1477e-41
2.41 9.43 3.36 9.1477e-41
2.43 9.43 3.35 9.1477e-41
2.46 9.43 3.35 9.1477e-41
2.48 9.43 3.34 9.1477e-41
2.51 9.43 3.34 9.1477e-41
2.54 9.43 3.33 9.1477e-41
2.57 9.43 3.34 9.1477e-41
2.59 9.43 3.32 9.1477e-41
2.62 9.43 3.33 9.1477e-41
2.65 9.43 3.32 9.1477e-41
2.68 9.43 3.33 9.1477e-41
2.7 9.43 3.32 9.1477e-41
2.73 9.43 3.32 9.1477e-41
2.75 9.43 3.3 9.1477e-41
2.77 9.43 3.3 9.1477e-41
2.8 9.43 3.29 9.1477e-41
2.82 9.43 3.29 9.1477e-41
2.85 9.43 3.29 9.1477e-41
2.87 9.43 3.28 9.1477e-41
2.89 9.43 3.28 9.1477e-41
2.92 9.43 3.27 9.1477e-41
2.94 9.43 3.27 9.1477e-41
2.96 9.43 3.26 9.1477e-41
2.99 9.43 3.26 9.1477e-41
3.01 9.43 3.25 9.1477e-41
3.03 9.43 3.25 9.1477e-41
3.06 9.43 3.25 9.1477e-41
3.08 9.43 3.24 9.1477e-41
3.09 9.43 3.21 9.1477e-41
3.11 9.43 3.19 9.1477e-41
3.13 9.43 3.17 9.1477e-41
3.11 9.43 3.17 3.57e-43
3.15 9.43 3.17 3.57e-43
3.18 9.43 3.17 3.57e-43
3.16 9.43 3.17 3.57e-43
3.04 9.43 3.17 3.57e-43
3.2 9.43 3.17 3.57e-43
3.21 9.43 3.17 3.57e-43
3.21 9.43 3.17 3.57e-43
3.22 9.43 3.17 3.57e-43
3.23 9.43 3.17 3.57e-43
3.24 9.43 3.17 3.57e-43
3.24 9.43 3.17 3.57e-43
3.25 9.43 3.17 3.57e-43
3.26 9.43 2.32 9.1477e-41
3.22 9.43 2.06 9.1477e-41
3.2 9.43 2.06 3.57e-43
3.21 9.43 1.71 9.1477e-41
3.2 9.43 1.49 9.1477e-41
3.21 9.43 1.49 3.57e-43
3.22 9.43 1.49 3.57e-43
3.21 9.43 1.49 3.57e-43
3.16 9.43 0.4 9.1477e-41
1.01 9.84 3.28 9.1477e-41
1.09 9.84 3.29 9.1477e-41
1.15 9.84 3.3 9.1477e-41
1.22 9.84 3.31 9.1477e-41
1.28 9.84 3.33 9.1477e-41
1.34 9.84 3.33 9.1477e-41
1.39 9.84 3.34 9.1477e-41
1.45 9.84 3.35 9.1477e-41
1.49 9.84 3.34 9.1477e-41
1.55 9.84 3.35 9.1477e-41
1.6 9.84 3.36 9.1477e-41
1.64 9.84 3.36 9.1477e-41
1.69 9.84 3.36 9.1477e-41
1.73 9.84 3.36 9.1477e-41
1.78 9.84 3.37 9.1477e-41
1.82 9.84 3.37 9.1477e-41
1.86 9.84 3.37 9.1477e-41
1.89 9.84 3.36 9.1477e-41
1.93 9.84 3.37 9.1477e-41
1.97 9.84 3.36 9.1477e-41
2.01 9.84 3.37 9.1477e-41
2.05 9.84 3.37 9.1477e-41
2.07 9.84 3.36 9.1477e-41
2.11 9.84 3.37 9.1477e-41
2.15 9.84 3.36 9.1477e-41
2.18 9.84 3.36 9.1477e-41
2.21 9.84 3.36 9.1477e-41
2.25 9.84 3.36 9.1477e-41
2.28 9.84 3.36 9.1477e-41
2.31 9.84 3.36 9.1477e-41
2.34 9.84 3.36 9.1477e-41
2.37 9.84 3.35 9.1477e-41
2.4 9.84 3.36 9.1477e-41
2.43 9.84 3.35 9.1477e-41
2.45 9.84 3.34 9.1477e-41
2.49 9.84 3.34 9.1477e-41
2.52 9.84 3.35 9.1477e-41
2.54 9.84 3.33 9.1477e-41
2.56 9.84 3.33 9.1477e-41
2.6 9.84 3.33 9.1477e-41
2.62 9.84 3.33 9.1477e-41
2.65 9.84 3.32 9.1477e-41
2.67 9.84 3.32 9.1477e-41
2.69 9.84 3.31 9.1477e-41
2.73 9.84 3.31 9.1477e-41
2.76 9.84 3.32 9.1477e-41
2.78 9.84 3.31 9.1477e-41
2.8 9.84 3.29 9.1477e-41
2.82 9.84 3.29 9.1477e-41
2.85 9.84 3.29 9.1477e-41
2.87 9.84 3.28 9.1477e-41
2.89 9.84 3.28 9.1477e-41
2.92 9.84 3.27 9.1477e-41
2.94 9.84 3.26 9.1477e-41
2.96 9.84 3.26 9.1477e-41
2.99 9.84 3.26 9.1477e-41
3.01 9.84 3.25 9.1477e-41
3.03 9.84 3.25 9.1477e-41
3.06 9.84 3.24 9.1477e-41
3.08 9.84 3.24 9.1477e-41
3.09 9.84 3.2 9.1477e-41
3.11 9.84 3.19 9.1477e-41
3.13 9.84 3.19 3.57e-43
3.11 9.84 3.19 3.57e-43
3.15 9.84 3.19 3.57e-43
3.18 9.84 3.19 3.57e-43
3.16 9.84 3.19 3.57e-43
3.04 9.84 3.19 3.57e-43
3.2 9.84 3.19 3.57e-43
3.21 9.84 3.19 3.57e-43
3.21 9.84 3.19 3.57e-43
3.22 9.84 3.19 3.57e-43
3.23 9.84 3.19 3.57e-43
3.24 9.84 3.19 3.57e-43
3.24 9.84 3.19 3.57e-43
3.25 9.84 3.19 3.57e-43
3.26 9.84 2.32 9.1477e-41
3.22 9.84 2.32 3.57e-43
3.2 9.84 2.32 3.57e-43
3.21 9.84 1.71 9.1477e-41
3.2 9.84 1.46 9.1477e-41
3.21 9.84 1.32 9.1477e-41
3.19 9.84 1.02 9.1477e-41
3.18 9.84 1.02 3.57e-43
3.16 9.84 0.4 9.1477e-41
1.01 10.25 3.28 9.1477e-41
1.08 10.25 3.29 9.1477e-41
1.15 10.25 3.3 9.1477e-41
1.22 10.25 3.31 9.1477e-41
1.28 10.25 3.32 9.1477e-41
1.33 10.25 3.33 9.1477e-41
1.4 10.25 3.34 9.1477e-41
1.45 10.25 3.35 9.1477e-41
1.51 10.25 3.36 9.1477e-41
1.55 10.25 3.35 9.1477e-41
