# .PCD v.7 - Point Cloud Data file format
VERSION .7
FIELDS x y z rgb
SIZE 4 4 4 4
TYPE F F F F
WIDTH 1866
HEIGHT 1
POINTS 1866
DATA ascii
6 1.19 3.28 9.1477e-41
6.05 1.19 3.27 9.1477e-41
6.09 1.19 3.26 9.1477e-41
6.14 1.19 3.24 9.1477e-41
6.19 1.19 3.23 9.1477e-41
6.23 1.19 3.22 9.1477e-41
3.78 1.36 2.39 9.1477e-41
3.8 1.36 2.39 3.57e-43
3.75 1.36 1.29 9.1477e-41
3.95 1.36 1.29 3.57e-43
3.99 1.36 1.29 3.57e-43
4.02 1.36 1.29 3.57e-43
4.05 1.36 2.9 9.1477e-41
4.07 1.36 3.17 9.1477e-41
4.09 1.36 3.19 9.1477e-41
4.14 1.36 3.24 9.1477e-41
4.16 1.36 3.24 9.1477e-41
4.18 1.36 3.25 9.1477e-41
4.2 1.36 3.25 9.1477e-41
4.22 1.36 3.25 9.1477e-41
4.24 1.36 3.25 9.1477e-41
4.26 1.36 3.26 9.1477e-41
4.29 1.36 3.25 9.1477e-41
4.31 1.36 3.26 9.1477e-41
4.33 1.36 3.26 9.1477e-41
4.35 1.36 3.27 9.1477e-41
4.37 1.36 3.27 9.1477e-41
4.39 1.36 3.26 9.1477e-41
4.41 1.36 3.28 9.1477e-41
4.43 1.36 3.28 9.1477e-41
4.45 1.36 3.28 9.1477e-41
4.48 1.36 3.28 9.1477e-41
4.5 1.36 3.28 9.1477e-41
4.52 1.36 3.28 9.1477e-41
4.54 1.36 3.29 9.1477e-41
4.56 1.36 3.29 9.1477e-41
4.58 1.36 3.29 9.1477e-41
4.6 1.36 3.29 9.1477e-41
4.63 1.36 3.29 9.1477e-41
4.65 1.36 3.3 9.1477e-41
4.67 1.36 3.3 9.1477e-41
4.69 1.36 3.31 9.1477e-41
4.71 1.36 3.3 9.1477e-41
4.73 1.36 3.31 9.1477e-41
4.76 1.36 3.32 9.1477e-41
4.78 1.36 3.31 9.1477e-41
4.8 1.36 3.32 9.1477e-41
4.82 1.36 3.32 9.1477e-41
4.85 1.36 3.31 9.1477e-41
4.87 1.36 3.32 9.1477e-41
4.89 1.36 3.32 9.1477e-41
4.92 1.36 3.31 9.1477e-41
4.94 1.36 3.31 9.1477e-41
4.97 1.36 3.31 9.1477e-41
4.99 1.36 3.32 9.1477e-41
5.01 1.36 3.33 9.1477e-41
5.04 1.36 3.32 9.1477e-41
5.06 1.36 3.33 9.1477e-41
5.09 1.36 3.33 9.1477e-41
5.11 1.36 3.33 9.1477e-41
5.13 1.36 3.34 9.1477e-41
5.16 1.36 3.33 9.1477e-41
5.19 1.36 3.33 9.1477e-41
5.21 1.36 3.33 9.1477e-41
5.24 1.36 3.33 9.1477e-41
5.27 1.36 3.33 9.1477e-41
5.29 1.36 3.35 9.1477e-41
5.32 1.36 3.34 9.1477e-41
5.34 1.36 3.34 9.1477e-41
5.37 1.36 3.34 9.1477e-41
5.4 1.36 3.33 9.1477e-41
5.43 1.36 3.33 9.1477e-41
5.46 1.36 3.32 9.1477e-41
5.49 1.36 3.33 9.1477e-41
5.51 1.36 3.33 9.1477e-41
5.55 1.36 3.32 9.1477e-41
5.57 1.36 3.33 9.1477e-41
5.61 1.36 3.32 9.1477e-41
5.64 1.36 3.32 9.1477e-41
5.67 1.36 3.32 9.1477e-41
5.7 1.36 3.32 9.1477e-41
5.74 1.36 3.31 9.1477e-41
5.78 1.36 3.31 9.1477e-41
5.81 1.36 3.31 9.1477e-41
5.85 1.36 3.3 9.1477e-41
5.88 1.36 3.3 9.1477e-41
5.92 1.36 3.29 9.1477e-41
5.96 1.36 3.28 9.1477e-41
6.01 1.36 3.26 9.1477e-41
6.05 1.36 3.27 9.1477e-41
6.09 1.36 3.25 9.1477e-41
6.13 1.36 3.25 9.1477e-41
6.18 1.36 3.23 9.1477e-41
6.24 1.36 3.21 9.1477e-41
4.05 1.53 2.9 3.57e-43
4.07 1.53 3.17 9.1477e-41
4.09 1.53 3.19 9.1477e-41
4.14 1.53 3.24 9.1477e-41
4.16 1.53 3.24 9.1477e-41
4.18 1.53 3.23 9.1477e-41
4.2 1.53 3.24 9.1477e-41
4.22 1.53 3.25 9.1477e-41
4.24 1.53 3.25 9.1477e-41
4.27 1.53 3.25 9.1477e-41
4.29 1.53 3.24 9.1477e-41
4.31 1.53 3.26 9.1477e-41
4.33 1.53 3.26 9.1477e-41
4.35 1.53 3.26 9.1477e-41
4.37 1.53 3.27 9.1477e-41
4.39 1.53 3.26 9.1477e-41
4.41 1.53 3.28 9.1477e-41
4.43 1.53 3.27 9.1477e-41
4.45 1.53 3.28 9.1477e-41
4.48 1.53 3.28 9.1477e-41
4.5 1.53 3.28 9.1477e-41
4.52 1.53 3.28 9.1477e-41
4.54 1.53 3.29 9.1477e-41
4.56 1.53 3.29 9.1477e-41
4.59 1.53 3.28 9.1477e-41
4.6 1.53 3.3 9.1477e-41
4.63 1.53 3.29 9.1477e-41
4.65 1.53 3.31 9.1477e-41
4.67 1.53 3.3 9.1477e-41
4.69 1.53 3.31 9.1477e-41
4.71 1.53 3.3 9.1477e-41
4.74 1.53 3.3 9.1477e-41
4.76 1.53 3.32 9.1477e-41
4.78 1.53 3.31 9.1477e-41
4.8 1.53 3.32 9.1477e-41
4.83 1.53 3.31 9.1477e-41
4.85 1.53 3.31 9.1477e-41
4.87 1.53 3.33 9.1477e-41
4.88 1.53 3.36 9.1477e-41
4.9 1.53 3.38 9.1477e-41
4.92 1.53 3.38 9.1477e-41
4.94 1.53 3.38 9.1477e-41
4.96 1.53 3.39 9.1477e-41
4.98 1.53 3.39 9.1477e-41
5.01 1.53 3.4 9.1477e-41
5.03 1.53 3.4 9.1477e-41
5.06 1.53 3.4 9.1477e-41
5.08 1.53 3.41 9.1477e-41
5.1 1.53 3.4 9.1477e-41
5.13 1.53 3.4 9.1477e-41
5.16 1.53 3.4 9.1477e-41
5.18 1.53 3.4 9.1477e-41
5.2 1.53 3.41 9.1477e-41
5.23 1.53 3.4 9.1477e-41
5.26 1.53 3.41 9.1477e-41
5.28 1.53 3.42 9.1477e-41
5.3 1.53 3.41 9.1477e-41
5.33 1.53 3.4 9.1477e-41
5.36 1.53 3.41 9.1477e-41
5.39 1.53 3.4 9.1477e-41
5.41 1.53 3.41 9.1477e-41
5.44 1.53 3.41 9.1477e-41
5.47 1.53 3.4 9.1477e-41
5.5 1.53 3.39 9.1477e-41
5.54 1.53 3.39 9.1477e-41
5.59 1.53 3.35 9.1477e-41
5.64 1.53 3.32 9.1477e-41
5.67 1.53 3.31 9.1477e-41
5.71 1.53 3.31 9.1477e-41
5.74 1.53 3.31 9.1477e-41
5.78 1.53 3.31 9.1477e-41
5.81 1.53 3.31 9.1477e-41
5.85 1.53 3.29 9.1477e-41
5.89 1.53 3.29 9.1477e-41
5.92 1.53 3.29 9.1477e-41
5.96 1.53 3.28 9.1477e-41
6 1.53 3.27 9.1477e-41
6.05 1.53 3.26 9.1477e-41
6.09 1.53 3.26 9.1477e-41
6.13 1.53 3.25 9.1477e-41
6.18 1.53 3.23 9.1477e-41
6.24 1.53 3.21 9.1477e-41
3.91 1.7 2.13 9.1477e-41
3.95 1.7 2.13 3.57e-43
3.99 1.7 2.13 3.57e-43
4.02 1.7 2.13 3.57e-43
4.05 1.7 2.9 9.1477e-41
4.07 1.7 3.18 9.1477e-41
4.09 1.7 3.19 9.1477e-41
4.14 1.7 3.24 9.1477e-41
4.16 1.7 3.23 9.1477e-41
4.18 1.7 3.23 9.1477e-41
4.2 1.7 3.24 9.1477e-41
4.22 1.7 3.24 9.1477e-41
4.24 1.7 3.25 9.1477e-41
4.27 1.7 3.25 9.1477e-41
4.29 1.7 3.25 9.1477e-41
4.31 1.7 3.25 9.1477e-41
4.33 1.7 3.27 9.1477e-41
4.35 1.7 3.26 9.1477e-41
4.37 1.7 3.27 9.1477e-41
4.39 1.7 3.27 9.1477e-41
4.41 1.7 3.28 9.1477e-41
4.43 1.7 3.27 9.1477e-41
4.45 1.7 3.28 9.1477e-41
4.48 1.7 3.28 9.1477e-41
4.5 1.7 3.28 9.1477e-41
4.52 1.7 3.28 9.1477e-41
4.54 1.7 3.29 9.1477e-41
4.56 1.7 3.28 9.1477e-41
4.59 1.7 3.28 9.1477e-41
4.6 1.7 3.29 9.1477e-41
4.63 1.7 3.29 9.1477e-41
4.65 1.7 3.3 9.1477e-41
4.67 1.7 3.3 9.1477e-41
4.69 1.7 3.31 9.1477e-41
4.71 1.7 3.3 9.1477e-41
4.73 1.7 3.31 9.1477e-41
4.76 1.7 3.32 9.1477e-41
4.78 1.7 3.31 9.1477e-41
4.8 1.7 3.32 9.1477e-41
4.83 1.7 3.31 9.1477e-41
4.85 1.7 3.32 9.1477e-41
4.85 1.7 3.37 9.1477e-41
4.87 1.7 3.38 9.1477e-41
4.9 1.7 3.38 9.1477e-41
4.92 1.7 3.39 9.1477e-41
4.94 1.7 3.39 9.1477e-41
4.96 1.7 3.38 9.1477e-41
4.99 1.7 3.38 9.1477e-41
5.01 1.7 3.39 9.1477e-41
5.03 1.7 3.4 9.1477e-41
5.06 1.7 3.4 9.1477e-41
5.08 1.7 3.41 9.1477e-41
5.1 1.7 3.41 9.1477e-41
5.12 1.7 3.41 9.1477e-41
5.15 1.7 3.41 9.1477e-41
5.17 1.7 3.41 9.1477e-41
5.2 1.7 3.41 9.1477e-41
5.23 1.7 3.41 9.1477e-41
5.25 1.7 3.41 9.1477e-41
5.28 1.7 3.41 9.1477e-41
5.3 1.7 3.41 9.1477e-41
5.33 1.7 3.41 9.1477e-41
5.36 1.7 3.41 9.1477e-41
5.38 1.7 3.42 9.1477e-41
5.41 1.7 3.4 9.1477e-41
5.45 1.7 3.4 9.1477e-41
5.48 1.7 3.39 9.1477e-41
5.5 1.7 3.4 9.1477e-41
5.53 1.7 3.39 9.1477e-41
5.56 1.7 3.4 9.1477e-41
5.62 1.7 3.35 9.1477e-41
5.67 1.7 3.31 9.1477e-41
5.71 1.7 3.3 9.1477e-41
5.74 1.7 3.31 9.1477e-41
5.78 1.7 3.31 9.1477e-41
5.82 1.7 3.3 9.1477e-41
5.85 1.7 3.3 9.1477e-41
5.88 1.7 3.3 9.1477e-41
5.92 1.7 3.29 9.1477e-41
5.97 1.7 3.28 9.1477e-41
6 1.7 3.28 9.1477e-41
6.05 1.7 3.26 9.1477e-41
6.09 1.7 3.26 9.1477e-41
6.14 1.7 3.24 9.1477e-41
6.19 1.7 3.23 9.1477e-41
6.23 1.7 3.22 9.1477e-41
3.91 1.87 2.13 9.1477e-41
3.95 1.87 2.13 3.57e-43
3.99 1.87 2.13 3.57e-43
4.02 1.87 2.13 3.57e-43
4.05 1.87 2.9 9.1477e-41
4.07 1.87 3.19 9.1477e-41
4.09 1.87 3.18 9.1477e-41
4.12 1.87 0.4 9.1477e-41
4.14 1.87 3.24 9.1477e-41
4.16 1.87 3.24 9.1477e-41
4.18 1.87 3.24 9.1477e-41
4.2 1.87 3.24 9.1477e-41
4.22 1.87 3.25 9.1477e-41
4.24 1.87 3.24 9.1477e-41
4.27 1.87 3.25 9.1477e-41
4.29 1.87 3.24 9.1477e-41
4.31 1.87 3.25 9.1477e-41
4.33 1.87 3.26 9.1477e-41
4.35 1.87 3.27 9.1477e-41
4.37 1.87 3.26 9.1477e-41
4.39 1.87 3.27 9.1477e-41
4.41 1.87 3.27 9.1477e-41
4.43 1.87 3.27 9.1477e-41
4.45 1.87 3.28 9.1477e-41
4.48 1.87 3.28 9.1477e-41
4.5 1.87 3.28 9.1477e-41
4.52 1.87 3.28 9.1477e-41
4.54 1.87 3.29 9.1477e-41
4.56 1.87 3.28 9.1477e-41
4.58 1.87 3.29 9.1477e-41
4.61 1.87 3.28 9.1477e-41
4.63 1.87 3.29 9.1477e-41
4.65 1.87 3.29 9.1477e-41
4.67 1.87 3.3 9.1477e-41
4.69 1.87 3.3 9.1477e-41
4.72 1.87 3.29 9.1477e-41
4.74 1.87 3.3 9.1477e-41
4.76 1.87 3.32 9.1477e-41
4.78 1.87 3.31 9.1477e-41
4.81 1.87 3.31 9.1477e-41
4.83 1.87 3.3 9.1477e-41
4.84 1.87 3.34 9.1477e-41
4.85 1.87 3.38 9.1477e-41
4.88 1.87 3.37 9.1477e-41
4.9 1.87 3.38 9.1477e-41
4.92 1.87 3.39 9.1477e-41
4.94 1.87 3.38 9.1477e-41
4.96 1.87 3.39 9.1477e-41
4.98 1.87 3.39 9.1477e-41
5 1.87 3.41 9.1477e-41
5.03 1.87 3.4 9.1477e-41
5.05 1.87 3.41 9.1477e-41
5.08 1.87 3.41 9.1477e-41
5.1 1.87 3.41 9.1477e-41
5.12 1.87 3.41 9.1477e-41
5.15 1.87 3.41 9.1477e-41
5.17 1.87 3.41 9.1477e-41
5.2 1.87 3.41 9.1477e-41
5.22 1.87 3.42 9.1477e-41
5.25 1.87 3.41 9.1477e-41
5.28 1.87 3.41 9.1477e-41
5.3 1.87 3.42 9.1477e-41
5.33 1.87 3.42 9.1477e-41
5.35 1.87 3.41 9.1477e-41
5.38 1.87 3.41 9.1477e-41
5.41 1.87 3.4 9.1477e-41
5.44 1.87 3.41 9.1477e-41
5.47 1.87 3.4 9.1477e-41
5.5 1.87 3.4 9.1477e-41
5.53 1.87 3.4 9.1477e-41
5.57 1.87 3.39 9.1477e-41
5.64 1.87 3.32 9.1477e-41
5.67 1.87 3.31 9.1477e-41
5.71 1.87 3.31 9.1477e-41
5.74 1.87 3.3 9.1477e-41
5.78 1.87 3.31 9.1477e-41
5.81 1.87 3.31 9.1477e-41
5.85 1.87 3.3 9.1477e-41
5.89 1.87 3.29 9.1477e-41
5.92 1.87 3.29 9.1477e-41
5.97 1.87 3.28 9.1477e-41
6 1.87 3.28 9.1477e-41
6.05 1.87 3.26 9.1477e-41
6.09 1.87 3.25 9.1477e-41
6.14 1.87 3.24 9.1477e-41
6.18 1.87 3.23 9.1477e-41
6.24 1.87 3.21 9.1477e-41
3.91 2.04 2.17 9.1477e-41
3.96 2.04 2.17 3.57e-43
3.99 2.04 2.17 3.57e-43
4.02 2.04 2.17 3.57e-43
4.05 2.04 2.9 9.1477e-41
4.07 2.04 3.18 9.1477e-41
4.09 2.04 3.19 9.1477e-41
4.14 2.04 3.24 9.1477e-41
4.16 2.04 3.24 9.1477e-41
4.18 2.04 3.24 9.1477e-41
4.2 2.04 3.25 9.1477e-41
4.22 2.04 3.24 9.1477e-41
4.24 2.04 3.24 9.1477e-41
4.27 2.04 3.24 9.1477e-41
4.29 2.04 3.25 9.1477e-41
4.31 2.04 3.25 9.1477e-41
4.33 2.04 3.26 9.1477e-41
4.35 2.04 3.26 9.1477e-41
4.37 2.04 3.27 9.1477e-41
4.39 2.04 3.27 9.1477e-41
4.41 2.04 3.27 9.1477e-41
4.43 2.04 3.27 9.1477e-41
4.45 2.04 3.28 9.1477e-41
4.48 2.04 3.28 9.1477e-41
4.5 2.04 3.28 9.1477e-41
4.52 2.04 3.28 9.1477e-41
4.54 2.04 3.28 9.1477e-41
4.56 2.04 3.28 9.1477e-41
4.58 2.04 3.29 9.1477e-41
4.6 2.04 3.29 9.1477e-41
4.63 2.04 3.28 9.1477e-41
4.65 2.04 3.29 9.1477e-41
4.67 2.04 3.3 9.1477e-41
4.69 2.04 3.3 9.1477e-41
4.72 2.04 3.29 9.1477e-41
4.74 2.04 3.3 9.1477e-41
4.76 2.04 3.31 9.1477e-41
4.78 2.04 3.3 9.1477e-41
4.81 2.04 3.31 9.1477e-41
4.83 2.04 3.31 9.1477e-41
4.84 2.04 3.35 9.1477e-41
4.85 2.04 3.38 9.1477e-41
4.88 2.04 3.37 9.1477e-41
4.9 2.04 3.38 9.1477e-41
4.92 2.04 3.38 9.1477e-41
4.94 2.04 3.38 9.1477e-41
4.96 2.04 3.38 9.1477e-41
4.99 2.04 3.38 9.1477e-41
5.01 2.04 3.39 9.1477e-41
5.03 2.04 3.4 9.1477e-41
5.06 2.04 3.4 9.1477e-41
5.08 2.04 3.41 9.1477e-41
5.1 2.04 3.4 9.1477e-41
5.13 2.04 3.4 9.1477e-41
5.15 2.04 3.4 9.1477e-41
5.18 2.04 3.4 9.1477e-41
5.2 2.04 3.41 9.1477e-41
5.23 2.04 3.39 9.1477e-41
5.25 2.04 3.41 9.1477e-41
5.28 2.04 3.4 9.1477e-41
5.3 2.04 3.42 9.1477e-41
5.33 2.04 3.4 9.1477e-41
5.36 2.04 3.41 9.1477e-41
5.38 2.04 3.41 9.1477e-41
5.41 2.04 3.4 9.1477e-41
5.44 2.04 3.41 9.1477e-41
5.47 2.04 3.4 9.1477e-41
5.51 2.04 3.39 9.1477e-41
5.53 2.04 3.4 9.1477e-41
5.58 2.04 3.37 9.1477e-41
5.64 2.04 3.32 9.1477e-41
5.67 2.04 3.31 9.1477e-41
5.71 2.04 3.31 9.1477e-41
5.74 2.04 3.31 9.1477e-41
5.77 2.04 3.32 9.1477e-41
5.81 2.04 3.31 9.1477e-41
5.84 2.04 3.3 9.1477e-41
5.88 2.04 3.3 9.1477e-41
5.92 2.04 3.29 9.1477e-41
5.97 2.04 3.28 9.1477e-41
6.01 2.04 3.27 9.1477e-41
6.05 2.04 3.27 9.1477e-41
6.09 2.04 3.25 9.1477e-41
6.14 2.04 3.24 9.1477e-41
6.19 2.04 3.22 9.1477e-41
6.24 2.04 3.21 9.1477e-41
3.91 2.21 2.16 9.1477e-41
3.96 2.21 2.16 3.57e-43
3.99 2.21 2.16 3.57e-43
4.02 2.21 2.16 3.57e-43
4.05 2.21 2.9 9.1477e-41
4.07 2.21 3.18 9.1477e-41
4.09 2.21 3.19 9.1477e-41
4.12 2.21 0.4 9.1477e-41
4.14 2.21 3.24 9.1477e-41
4.16 2.21 3.24 9.1477e-41
4.18 2.21 3.23 9.1477e-41
4.2 2.21 3.23 9.1477e-41
4.22 2.21 3.24 9.1477e-41
4.24 2.21 3.25 9.1477e-41
4.27 2.21 3.25 9.1477e-41
4.29 2.21 3.25 9.1477e-41
4.31 2.21 3.25 9.1477e-41
4.33 2.21 3.27 9.1477e-41
4.35 2.21 3.26 9.1477e-41
4.37 2.21 3.26 9.1477e-41
4.39 2.21 3.26 9.1477e-41
4.41 2.21 3.28 9.1477e-41
4.43 2.21 3.27 9.1477e-41
4.46 2.21 3.27 9.1477e-41
4.48 2.21 3.27 9.1477e-41
4.5 2.21 3.28 9.1477e-41
4.52 2.21 3.28 9.1477e-41
4.54 2.21 3.29 9.1477e-41
4.56 2.21 3.29 9.1477e-41
4.58 2.21 3.28 9.1477e-41
4.6 2.21 3.29 9.1477e-41
4.63 2.21 3.27 9.1477e-41
4.65 2.21 3.3 9.1477e-41
4.67 2.21 3.3 9.1477e-41
4.69 2.21 3.29 9.1477e-41
4.72 2.21 3.29 9.1477e-41
4.74 2.21 3.3 9.1477e-41
4.76 2.21 3.31 9.1477e-41
4.78 2.21 3.31 9.1477e-41
4.81 2.21 3.3 9.1477e-41
4.83 2.21 3.3 9.1477e-41
4.85 2.21 3.31 9.1477e-41
4.88 2.21 3.3 9.1477e-41
4.9 2.21 3.31 9.1477e-41
4.92 2.21 3.3 9.1477e-41
4.94 2.21 3.31 9.1477e-41
4.97 2.21 3.3 9.1477e-41
4.99 2.21 3.31 9.1477e-41
5.02 2.21 3.32 9.1477e-41
5.04 2.21 3.31 9.1477e-41
5.07 2.21 3.31 9.1477e-41
5.09 2.21 3.32 9.1477e-41
5.11 2.21 3.33 9.1477e-41
5.14 2.21 3.32 9.1477e-41
5.16 2.21 3.33 9.1477e-41
5.18 2.21 3.34 9.1477e-41
5.2 2.21 3.35 9.1477e-41
5.22 2.21 3.36 9.1477e-41
5.26 2.21 3.34 9.1477e-41
5.3 2.21 3.33 9.1477e-41
5.32 2.21 3.33 9.1477e-41
5.35 2.21 3.33 9.1477e-41
5.37 2.21 3.33 9.1477e-41
5.4 2.21 3.33 9.1477e-41
5.43 2.21 3.32 9.1477e-41
5.46 2.21 3.32 9.1477e-41
5.49 2.21 3.33 9.1477e-41
5.52 2.21 3.32 9.1477e-41
5.55 2.21 3.32 9.1477e-41
5.58 2.21 3.32 9.1477e-41
5.61 2.21 3.32 9.1477e-41
5.64 2.21 3.32 9.1477e-41
5.67 2.21 3.31 9.1477e-41
5.71 2.21 3.3 9.1477e-41
5.74 2.21 3.31 9.1477e-41
5.77 2.21 3.32 9.1477e-41
5.81 2.21 3.31 9.1477e-41
5.85 2.21 3.3 9.1477e-41
5.88 2.21 3.3 9.1477e-41
5.93 2.21 3.28 9.1477e-41
5.97 2.21 3.28 9.1477e-41
6.01 2.21 3.27 9.1477e-41
6.05 2.21 3.26 9.1477e-41
6.1 2.21 3.25 9.1477e-41
6.14 2.21 3.24 9.1477e-41
6.19 2.21 3.23 9.1477e-41
6.24 2.21 3.21 9.1477e-41
3.91 2.38 2.19 9.1477e-41
3.96 2.38 2.19 3.57e-43
3.99 2.38 2.19 3.57e-43
4.02 2.38 2.19 3.57e-43
4.05 2.38 2.9 9.1477e-41
4.07 2.38 3.18 9.1477e-41
4.09 2.38 3.19 9.1477e-41
4.12 2.38 0.4 9.1477e-41
4.14 2.38 3.24 9.1477e-41
4.16 2.38 3.24 9.1477e-41
4.18 2.38 3.24 9.1477e-41
4.2 2.38 3.24 9.1477e-41
4.22 2.38 3.25 9.1477e-41
4.24 2.38 3.24 9.1477e-41
4.27 2.38 3.24 9.1477e-41
4.29 2.38 3.26 9.1477e-41
4.31 2.38 3.25 9.1477e-41
4.33 2.38 3.26 9.1477e-41
4.35 2.38 3.27 9.1477e-41
4.37 2.38 3.26 9.1477e-41
4.39 2.38 3.27 9.1477e-41
4.41 2.38 3.27 9.1477e-41
4.43 2.38 3.27 9.1477e-41
4.46 2.38 3.27 9.1477e-41
4.48 2.38 3.28 9.1477e-41
4.5 2.38 3.28 9.1477e-41
4.52 2.38 3.27 9.1477e-41
4.54 2.38 3.28 9.1477e-41
4.56 2.38 3.28 9.1477e-41
4.58 2.38 3.28 9.1477e-41
4.61 2.38 3.28 9.1477e-41
4.63 2.38 3.28 9.1477e-41
4.65 2.38 3.29 9.1477e-41
4.67 2.38 3.29 9.1477e-41
4.69 2.38 3.29 9.1477e-41
4.72 2.38 3.29 9.1477e-41
4.74 2.38 3.29 9.1477e-41
4.76 2.38 3.31 9.1477e-41
4.78 2.38 3.31 9.1477e-41
4.81 2.38 3.31 9.1477e-41
4.83 2.38 3.3 9.1477e-41
4.85 2.38 3.31 9.1477e-41
4.87 2.38 3.31 9.1477e-41
4.89 2.38 3.32 9.1477e-41
4.92 2.38 3.3 9.1477e-41
4.94 2.38 3.31 9.1477e-41
4.97 2.38 3.31 9.1477e-41
4.99 2.38 3.31 9.1477e-41
5.02 2.38 3.32 9.1477e-41
5.04 2.38 3.31 9.1477e-41
5.07 2.38 3.31 9.1477e-41
5.09 2.38 3.32 9.1477e-41
5.11 2.38 3.34 9.1477e-41
5.12 2.38 3.37 9.1477e-41
5.14 2.38 3.38 9.1477e-41
5.16 2.38 3.4 9.1477e-41
5.18 2.38 3.4 9.1477e-41
5.2 2.38 3.41 9.1477e-41
5.23 2.38 3.4 9.1477e-41
5.26 2.38 3.39 9.1477e-41
5.31 2.38 3.35 9.1477e-41
5.35 2.38 3.32 9.1477e-41
5.38 2.38 3.32 9.1477e-41
5.41 2.38 3.32 9.1477e-41
5.43 2.38 3.32 9.1477e-41
5.46 2.38 3.32 9.1477e-41
5.49 2.38 3.32 9.1477e-41
5.52 2.38 3.31 9.1477e-41
5.55 2.38 3.32 9.1477e-41
5.58 2.38 3.32 9.1477e-41
5.61 2.38 3.32 9.1477e-41
5.64 2.38 3.32 9.1477e-41
5.67 2.38 3.31 9.1477e-41
5.71 2.38 3.31 9.1477e-41
5.74 2.38 3.31 9.1477e-41
5.78 2.38 3.31 9.1477e-41
5.82 2.38 3.29 9.1477e-41
5.85 2.38 3.3 9.1477e-41
5.89 2.38 3.29 9.1477e-41
5.93 2.38 3.28 9.1477e-41
5.97 2.38 3.28 9.1477e-41
6.01 2.38 3.27 9.1477e-41
6.05 2.38 3.26 9.1477e-41
6.11 2.38 3.24 9.1477e-41
6.15 2.38 3.23 9.1477e-41
6.19 2.38 3.23 9.1477e-41
6.24 2.38 3.21 9.1477e-41
3.91 2.55 2.21 9.1477e-41
3.96 2.55 2.21 3.57e-43
3.99 2.55 2.21 3.57e-43
4.02 2.55 2.21 3.57e-43
4.05 2.55 2.9 9.1477e-41
4.07 2.55 3.18 9.1477e-41
4.09 2.55 3.19 9.1477e-41
4.12 2.55 0.4 9.1477e-41
4.14 2.55 3.24 9.1477e-41
4.16 2.55 3.23 9.1477e-41
4.18 2.55 3.24 9.1477e-41
4.2 2.55 3.24 9.1477e-41
4.22 2.55 3.24 9.1477e-41
4.25 2.55 3.23 9.1477e-41
4.27 2.55 3.25 9.1477e-41
4.29 2.55 3.24 9.1477e-41
4.31 2.55 3.24 9.1477e-41
4.33 2.55 3.26 9.1477e-41
4.35 2.55 3.26 9.1477e-41
4.37 2.55 3.26 9.1477e-41
4.39 2.55 3.26 9.1477e-41
4.41 2.55 3.28 9.1477e-41
4.44 2.55 3.26 9.1477e-41
4.46 2.55 3.27 9.1477e-41
4.48 2.55 3.28 9.1477e-41
4.5 2.55 3.27 9.1477e-41
4.52 2.55 3.27 9.1477e-41
4.54 2.55 3.28 9.1477e-41
4.56 2.55 3.28 9.1477e-41
4.58 2.55 3.28 9.1477e-41
4.61 2.55 3.28 9.1477e-41
4.63 2.55 3.28 9.1477e-41
4.65 2.55 3.29 9.1477e-41
4.67 2.55 3.29 9.1477e-41
4.69 2.55 3.3 9.1477e-41
4.72 2.55 3.29 9.1477e-41
4.74 2.55 3.3 9.1477e-41
4.76 2.55 3.31 9.1477e-41
4.78 2.55 3.31 9.1477e-41
4.81 2.55 3.31 9.1477e-41
4.83 2.55 3.31 9.1477e-41
4.85 2.55 3.3 9.1477e-41
4.87 2.55 3.32 9.1477e-41
4.89 2.55 3.32 9.1477e-41
4.92 2.55 3.3 9.1477e-41
4.94 2.55 3.31 9.1477e-41
4.97 2.55 3.3 9.1477e-41
4.99 2.55 3.31 9.1477e-41
5.02 2.55 3.32 9.1477e-41
5.04 2.55 3.31 9.1477e-41
5.07 2.55 3.31 9.1477e-41
5.09 2.55 3.32 9.1477e-41
5.11 2.55 3.34 9.1477e-41
5.12 2.55 3.36 9.1477e-41
5.14 2.55 3.38 9.1477e-41
5.16 2.55 3.39 9.1477e-41
5.18 2.55 3.4 9.1477e-41
5.21 2.55 3.4 9.1477e-41
5.23 2.55 3.4 9.1477e-41
5.26 2.55 3.39 9.1477e-41
5.33 2.55 3.32 9.1477e-41
5.36 2.55 3.31 9.1477e-41
5.38 2.55 3.32 9.1477e-41
5.41 2.55 3.32 9.1477e-41
5.43 2.55 3.32 9.1477e-41
5.46 2.55 3.32 9.1477e-41
5.49 2.55 3.32 9.1477e-41
5.52 2.55 3.31 9.1477e-41
5.55 2.55 3.32 9.1477e-41
5.58 2.55 3.32 9.1477e-41
5.61 2.55 3.32 9.1477e-41
5.64 2.55 3.32 9.1477e-41
5.67 2.55 3.31 9.1477e-41
5.71 2.55 3.3 9.1477e-41
5.74 2.55 3.3 9.1477e-41
5.77 2.55 3.32 9.1477e-41
5.82 2.55 3.3 9.1477e-41
5.85 2.55 3.3 9.1477e-41
5.89 2.55 3.28 9.1477e-41
5.93 2.55 3.28 9.1477e-41
5.97 2.55 3.28 9.1477e-41
6.01 2.55 3.27 9.1477e-41
6.05 2.55 3.26 9.1477e-41
6.1 2.55 3.25 9.1477e-41
6.14 2.55 3.24 9.1477e-41
6.19 2.55 3.22 9.1477e-41
6.24 2.55 3.21 9.1477e-41
4.05 2.72 3.1 3.57e-43
4.07 2.72 3.18 9.1477e-41
4.09 2.72 3.19 9.1477e-41
4.14 2.72 3.24 9.1477e-41
4.16 2.72 3.24 9.1477e-41
4.18 2.72 3.23 9.1477e-41
4.2 2.72 3.24 9.1477e-41
4.22 2.72 3.24 9.1477e-41
4.24 2.72 3.24 9.1477e-41
4.27 2.72 3.25 9.1477e-41
4.29 2.72 3.24 9.1477e-41
4.31 2.72 3.25 9.1477e-41
4.33 2.72 3.26 9.1477e-41
4.35 2.72 3.26 9.1477e-41
4.37 2.72 3.26 9.1477e-41
4.39 2.72 3.26 9.1477e-41
4.41 2.72 3.27 9.1477e-41
4.43 2.72 3.28 9.1477e-41
4.46 2.72 3.27 9.1477e-41
4.48 2.72 3.28 9.1477e-41
4.5 2.72 3.27 9.1477e-41
4.52 2.72 3.28 9.1477e-41
4.54 2.72 3.29 9.1477e-41
4.56 2.72 3.28 9.1477e-41
4.58 2.72 3.28 9.1477e-41
4.61 2.72 3.28 9.1477e-41
4.63 2.72 3.27 9.1477e-41
4.65 2.72 3.29 9.1477e-41
4.67 2.72 3.29 9.1477e-41
4.69 2.72 3.3 9.1477e-41
4.72 2.72 3.29 9.1477e-41
4.74 2.72 3.3 9.1477e-41
4.76 2.72 3.32 9.1477e-41
4.78 2.72 3.31 9.1477e-41
4.81 2.72 3.31 9.1477e-41
4.83 2.72 3.31 9.1477e-41
4.85 2.72 3.31 9.1477e-41
4.88 2.72 3.3 9.1477e-41
4.9 2.72 3.31 9.1477e-41
4.92 2.72 3.3 9.1477e-41
4.94 2.72 3.31 9.1477e-41
4.97 2.72 3.3 9.1477e-41
5 2.72 3.3 9.1477e-41
5.02 2.72 3.32 9.1477e-41
5.04 2.72 3.31 9.1477e-41
5.07 2.72 3.31 9.1477e-41
5.09 2.72 3.32 9.1477e-41
5.11 2.72 3.32 9.1477e-41
5.15 2.72 3.3 9.1477e-41
5.17 2.72 3.31 9.1477e-41
5.19 2.72 3.32 9.1477e-41
5.22 2.72 3.31 9.1477e-41
5.24 2.72 3.32 9.1477e-41
5.27 2.72 3.31 9.1477e-41
5.3 2.72 3.33 9.1477e-41
5.33 2.72 3.32 9.1477e-41
5.35 2.72 3.32 9.1477e-41
5.38 2.72 3.32 9.1477e-41
5.41 2.72 3.32 9.1477e-41
5.43 2.72 3.32 9.1477e-41
5.46 2.72 3.32 9.1477e-41
5.49 2.72 3.32 9.1477e-41
5.52 2.72 3.31 9.1477e-41
5.55 2.72 3.32 9.1477e-41
5.58 2.72 3.32 9.1477e-41
5.61 2.72 3.32 9.1477e-41
5.65 2.72 3.31 9.1477e-41
5.67 2.72 3.31 9.1477e-41
5.71 2.72 3.31 9.1477e-41
5.74 2.72 3.3 9.1477e-41
5.78 2.72 3.3 9.1477e-41
5.81 2.72 3.31 9.1477e-41
5.85 2.72 3.29 9.1477e-41
5.89 2.72 3.29 9.1477e-41
5.93 2.72 3.28 9.1477e-41
5.97 2.72 3.27 9.1477e-41
6.01 2.72 3.27 9.1477e-41
6.06 2.72 3.25 9.1477e-41
6.1 2.72 3.25 9.1477e-41
6.15 2.72 3.23 9.1477e-41
6.19 2.72 3.22 9.1477e-41
6.24 2.72 3.21 9.1477e-41
4.05 2.89 3.1 3.57e-43
4.07 2.89 3.18 9.1477e-41
4.09 2.89 3.19 9.1477e-41
4.12 2.89 0.4 9.1477e-41
4.14 2.89 3.24 9.1477e-41
4.16 2.89 3.24 9.1477e-41
4.18 2.89 3.24 9.1477e-41
4.2 2.89 3.24 9.1477e-41
4.22 2.89 3.24 9.1477e-41
4.24 2.89 3.25 9.1477e-41
4.27 2.89 3.24 9.1477e-41
4.29 2.89 3.24 9.1477e-41
4.31 2.89 3.25 9.1477e-41
4.33 2.89 3.26 9.1477e-41
4.35 2.89 3.26 9.1477e-41
4.37 2.89 3.26 9.1477e-41
4.39 2.89 3.25 9.1477e-41
4.41 2.89 3.27 9.1477e-41
4.43 2.89 3.27 9.1477e-41
4.46 2.89 3.27 9.1477e-41
4.48 2.89 3.28 9.1477e-41
4.5 2.89 3.27 9.1477e-41
4.52 2.89 3.28 9.1477e-41
4.54 2.89 3.28 9.1477e-41
4.56 2.89 3.29 9.1477e-41
4.58 2.89 3.28 9.1477e-41
4.61 2.89 3.28 9.1477e-41
4.63 2.89 3.28 9.1477e-41
4.65 2.89 3.29 9.1477e-41
4.67 2.89 3.3 9.1477e-41
4.69 2.89 3.3 9.1477e-41
4.71 2.89 3.3 9.1477e-41
4.73 2.89 3.31 9.1477e-41
4.76 2.89 3.31 9.1477e-41
4.78 2.89 3.31 9.1477e-41
4.8 2.89 3.32 9.1477e-41
4.83 2.89 3.3 9.1477e-41
4.85 2.89 3.31 9.1477e-41
4.87 2.89 3.31 9.1477e-41
4.9 2.89 3.31 9.1477e-41
4.92 2.89 3.31 9.1477e-41
4.94 2.89 3.31 9.1477e-41
4.97 2.89 3.31 9.1477e-41
4.99 2.89 3.32 9.1477e-41
5.02 2.89 3.32 9.1477e-41
5.04 2.89 3.31 9.1477e-41
5.07 2.89 3.31 9.1477e-41
5.09 2.89 3.32 9.1477e-41
5.11 2.89 3.32 9.1477e-41
5.14 2.89 3.32 9.1477e-41
5.17 2.89 3.31 9.1477e-41
5.19 2.89 3.32 9.1477e-41
5.21 2.89 3.32 9.1477e-41
5.24 2.89 3.32 9.1477e-41
5.27 2.89 3.32 9.1477e-41
5.3 2.89 3.33 9.1477e-41
5.32 2.89 3.33 9.1477e-41
5.35 2.89 3.32 9.1477e-41
5.38 2.89 3.32 9.1477e-41
5.4 2.89 3.33 9.1477e-41
5.43 2.89 3.33 9.1477e-41
5.46 2.89 3.32 9.1477e-41
5.49 2.89 3.32 9.1477e-41
5.52 2.89 3.31 9.1477e-41
5.55 2.89 3.32 9.1477e-41
5.58 2.89 3.31 9.1477e-41
5.61 2.89 3.32 9.1477e-41
5.64 2.89 3.32 9.1477e-41
5.68 2.89 3.3 9.1477e-41
5.71 2.89 3.3 9.1477e-41
5.74 2.89 3.3 9.1477e-41
5.78 2.89 3.3 9.1477e-41
5.82 2.89 3.3 9.1477e-41
5.85 2.89 3.29 9.1477e-41
5.89 2.89 3.29 9.1477e-41
5.93 2.89 3.28 9.1477e-41
5.97 2.89 3.28 9.1477e-41
6.01 2.89 3.27 9.1477e-41
6.06 2.89 3.25 9.1477e-41
6.1 2.89 3.25 9.1477e-41
6.15 2.89 3.22 9.1477e-41
6.19 2.89 3.22 9.1477e-41
6.24 2.89 3.21 9.1477e-41
3.99 3.06 2.17 3.57e-43
4.02 3.06 2.96 9.1477e-41
4.05 3.06 3.1 9.1477e-41
4.07 3.06 3.18 9.1477e-41
4.09 3.06 3.2 9.1477e-41
4.12 3.06 0.4 9.1477e-41
4.14 3.06 3.24 9.1477e-41
4.16 3.06 3.24 9.1477e-41
4.18 3.06 3.24 9.1477e-41
4.2 3.06 3.25 9.1477e-41
4.22 3.06 3.24 9.1477e-41
4.24 3.06 3.24 9.1477e-41
4.27 3.06 3.24 9.1477e-41
4.29 3.06 3.25 9.1477e-41
4.31 3.06 3.25 9.1477e-41
4.33 3.06 3.26 9.1477e-41
4.35 3.06 3.26 9.1477e-41
4.37 3.06 3.26 9.1477e-41
4.39 3.06 3.26 9.1477e-41
4.41 3.06 3.27 9.1477e-41
4.43 3.06 3.27 9.1477e-41
4.46 3.06 3.26 9.1477e-41
4.48 3.06 3.28 9.1477e-41
4.5 3.06 3.28 9.1477e-41
4.52 3.06 3.28 9.1477e-41
4.54 3.06 3.29 9.1477e-41
4.56 3.06 3.28 9.1477e-41
4.58 3.06 3.28 9.1477e-41
4.6 3.06 3.29 9.1477e-41
4.63 3.06 3.28 9.1477e-41
4.65 3.06 3.29 9.1477e-41
4.67 3.06 3.3 9.1477e-41
4.69 3.06 3.3 9.1477e-41
4.71 3.06 3.3 9.1477e-41
4.74 3.06 3.3 9.1477e-41
4.76 3.06 3.32 9.1477e-41
4.78 3.06 3.3 9.1477e-41
4.8 3.06 3.32 9.1477e-41
4.83 3.06 3.31 9.1477e-41
4.85 3.06 3.31 9.1477e-41
4.87 3.06 3.31 9.1477e-41
4.9 3.06 3.31 9.1477e-41
4.92 3.06 3.31 9.1477e-41
4.94 3.06 3.31 9.1477e-41
4.96 3.06 3.32 9.1477e-41
4.99 3.06 3.31 9.1477e-41
5.02 3.06 3.32 9.1477e-41
5.04 3.06 3.32 9.1477e-41
5.06 3.06 3.32 9.1477e-41
5.09 3.06 3.33 9.1477e-41
5.11 3.06 3.33 9.1477e-41
5.14 3.06 3.32 9.1477e-41
5.16 3.06 3.32 9.1477e-41
5.19 3.06 3.33 9.1477e-41
5.21 3.06 3.32 9.1477e-41
5.24 3.06 3.33 9.1477e-41
5.27 3.06 3.33 9.1477e-41
5.29 3.06 3.34 9.1477e-41
5.32 3.06 3.34 9.1477e-41
5.35 3.06 3.33 9.1477e-41
5.38 3.06 3.32 9.1477e-41
5.4 3.06 3.33 9.1477e-41
5.43 3.06 3.32 9.1477e-41
5.46 3.06 3.32 9.1477e-41
5.49 3.06 3.32 9.1477e-41
5.52 3.06 3.31 9.1477e-41
5.55 3.06 3.32 9.1477e-41
5.58 3.06 3.32 9.1477e-41
5.62 3.06 3.31 9.1477e-41
5.64 3.06 3.32 9.1477e-41
5.68 3.06 3.3 9.1477e-41
5.71 3.06 3.3 9.1477e-41
5.75 3.06 3.29 9.1477e-41
5.78 3.06 3.29 9.1477e-41
5.82 3.06 3.29 9.1477e-41
5.85 3.06 3.29 9.1477e-41
5.89 3.06 3.28 9.1477e-41
5.93 3.06 3.27 9.1477e-41
5.97 3.06 3.27 9.1477e-41
6.01 3.06 3.27 9.1477e-41
6.05 3.06 3.26 9.1477e-41
6.1 3.06 3.25 9.1477e-41
6.15 3.06 3.23 9.1477e-41
6.19 3.06 3.22 9.1477e-41
6.24 3.06 3.21 9.1477e-41
3.91 3.23 2.17 9.1477e-41
3.96 3.23 2.17 3.57e-43
3.99 3.23 2.17 3.57e-43
4.02 3.23 2.17 3.57e-43
4.05 3.23 3.1 9.1477e-41
4.07 3.23 3.19 9.1477e-41
4.09 3.23 3.2 9.1477e-41
4.14 3.23 3.23 9.1477e-41
4.16 3.23 3.24 9.1477e-41
4.18 3.23 3.24 9.1477e-41
4.2 3.23 3.24 9.1477e-41
4.22 3.23 3.24 9.1477e-41
4.24 3.23 3.24 9.1477e-41
4.27 3.23 3.24 9.1477e-41
4.29 3.23 3.25 9.1477e-41
4.31 3.23 3.25 9.1477e-41
4.33 3.23 3.26 9.1477e-41
4.35 3.23 3.26 9.1477e-41
4.37 3.23 3.27 9.1477e-41
4.39 3.23 3.26 9.1477e-41
4.41 3.23 3.27 9.1477e-41
4.43 3.23 3.27 9.1477e-41
4.46 3.23 3.27 9.1477e-41
4.48 3.23 3.28 9.1477e-41
4.5 3.23 3.28 9.1477e-41
4.52 3.23 3.28 9.1477e-41
4.54 3.23 3.28 9.1477e-41
4.56 3.23 3.27 9.1477e-41
4.58 3.23 3.28 9.1477e-41
4.6 3.23 3.29 9.1477e-41
4.63 3.23 3.28 9.1477e-41
4.65 3.23 3.29 9.1477e-41
4.67 3.23 3.29 9.1477e-41
4.69 3.23 3.3 9.1477e-41
4.71 3.23 3.3 9.1477e-41
4.74 3.23 3.3 9.1477e-41
4.76 3.23 3.32 9.1477e-41
4.78 3.23 3.32 9.1477e-41
4.81 3.23 3.31 9.1477e-41
4.83 3.23 3.3 9.1477e-41
4.85 3.23 3.31 9.1477e-41
4.87 3.23 3.32 9.1477e-41
4.89 3.23 3.32 9.1477e-41
4.92 3.23 3.31 9.1477e-41
4.94 3.23 3.31 9.1477e-41
4.97 3.23 3.31 9.1477e-41
4.99 3.23 3.31 9.1477e-41
5.01 3.23 3.33 9.1477e-41
5.04 3.23 3.32 9.1477e-41
5.07 3.23 3.31 9.1477e-41
5.09 3.23 3.33 9.1477e-41
5.11 3.23 3.32 9.1477e-41
5.14 3.23 3.32 9.1477e-41
5.16 3.23 3.32 9.1477e-41
5.19 3.23 3.32 9.1477e-41
5.22 3.23 3.31 9.1477e-41
5.24 3.23 3.32 9.1477e-41
5.27 3.23 3.33 9.1477e-41
5.3 3.23 3.33 9.1477e-41
5.32 3.23 3.33 9.1477e-41
5.35 3.23 3.32 9.1477e-41
5.38 3.23 3.32 9.1477e-41
5.4 3.23 3.33 9.1477e-41
5.43 3.23 3.33 9.1477e-41
5.46 3.23 3.32 9.1477e-41
5.5 3.23 3.31 9.1477e-41
5.52 3.23 3.31 9.1477e-41
5.55 3.23 3.31 9.1477e-41
5.58 3.23 3.31 9.1477e-41
5.62 3.23 3.31 9.1477e-41
5.64 3.23 3.32 9.1477e-41
5.68 3.23 3.3 9.1477e-41
5.71 3.23 3.3 9.1477e-41
5.75 3.23 3.29 9.1477e-41
5.78 3.23 3.29 9.1477e-41
5.82 3.23 3.3 9.1477e-41
5.85 3.23 3.29 9.1477e-41
5.89 3.23 3.28 9.1477e-41
5.93 3.23 3.27 9.1477e-41
5.97 3.23 3.27 9.1477e-41
6.01 3.23 3.27 9.1477e-41
6.05 3.23 3.26 9.1477e-41
6.1 3.23 3.25 9.1477e-41
6.15 3.23 3.23 9.1477e-41
6.19 3.23 3.23 9.1477e-41
6.25 3.23 3.2 9.1477e-41
3.91 3.4 2.96 3.57e-43
4.05 3.4 3.13 9.1477e-41
4.07 3.4 3.18 9.1477e-41
4.09 3.4 3.21 9.1477e-41
4.12 3.4 0.4 9.1477e-41
4.14 3.4 3.23 9.1477e-41
4.16 3.4 3.24 9.1477e-41
4.18 3.4 3.23 9.1477e-41
4.2 3.4 3.23 9.1477e-41
4.22 3.4 3.24 9.1477e-41
4.24 3.4 3.24 9.1477e-41
4.27 3.4 3.24 9.1477e-41
4.29 3.4 3.24 9.1477e-41
4.31 3.4 3.25 9.1477e-41
4.33 3.4 3.25 9.1477e-41
4.35 3.4 3.25 9.1477e-41
4.37 3.4 3.26 9.1477e-41
4.39 3.4 3.25 9.1477e-41
4.41 3.4 3.26 9.1477e-41
4.44 3.4 3.26 9.1477e-41
4.46 3.4 3.26 9.1477e-41
4.48 3.4 3.27 9.1477e-41
4.5 3.4 3.28 9.1477e-41
4.52 3.4 3.27 9.1477e-41
4.54 3.4 3.28 9.1477e-41
4.56 3.4 3.28 9.1477e-41
4.59 3.4 3.28 9.1477e-41
4.61 3.4 3.27 9.1477e-41
4.63 3.4 3.27 9.1477e-41
4.65 3.4 3.3 9.1477e-41
4.67 3.4 3.3 9.1477e-41
4.69 3.4 3.29 9.1477e-41
4.72 3.4 3.29 9.1477e-41
4.74 3.4 3.3 9.1477e-41
4.76 3.4 3.32 9.1477e-41
4.78 3.4 3.31 9.1477e-41
4.81 3.4 3.31 9.1477e-41
4.83 3.4 3.31 9.1477e-41
4.85 3.4 3.31 9.1477e-41
4.87 3.4 3.31 9.1477e-41
4.89 3.4 3.32 9.1477e-41
4.92 3.4 3.31 9.1477e-41
4.95 3.4 3.3 9.1477e-41
4.97 3.4 3.31 9.1477e-41
4.99 3.4 3.32 9.1477e-41
5.02 3.4 3.31 9.1477e-41
5.04 3.4 3.31 9.1477e-41
5.07 3.4 3.31 9.1477e-41
5.09 3.4 3.33 9.1477e-41
5.11 3.4 3.32 9.1477e-41
5.14 3.4 3.31 9.1477e-41
5.16 3.4 3.32 9.1477e-41
5.19 3.4 3.31 9.1477e-41
5.21 3.4 3.32 9.1477e-41
5.24 3.4 3.32 9.1477e-41
5.27 3.4 3.32 9.1477e-41
5.3 3.4 3.33 9.1477e-41
5.32 3.4 3.33 9.1477e-41
5.35 3.4 3.32 9.1477e-41
5.38 3.4 3.32 9.1477e-41
5.4 3.4 3.33 9.1477e-41
5.43 3.4 3.32 9.1477e-41
5.46 3.4 3.32 9.1477e-41
5.49 3.4 3.32 9.1477e-41
5.52 3.4 3.31 9.1477e-41
5.55 3.4 3.32 9.1477e-41
5.58 3.4 3.31 9.1477e-41
5.62 3.4 3.31 9.1477e-41
5.65 3.4 3.31 9.1477e-41
5.68 3.4 3.3 9.1477e-41
5.71 3.4 3.3 9.1477e-41
5.75 3.4 3.29 9.1477e-41
5.78 3.4 3.3 9.1477e-41
5.82 3.4 3.3 9.1477e-41
5.85 3.4 3.29 9.1477e-41
5.89 3.4 3.28 9.1477e-41
5.93 3.4 3.27 9.1477e-41
5.97 3.4 3.27 9.1477e-41
6.01 3.4 3.27 9.1477e-41
6.06 3.4 3.25 9.1477e-41
6.11 3.4 3.24 9.1477e-41
6.15 3.4 3.22 9.1477e-41
6.2 3.4 3.21 9.1477e-41
6.24 3.4 3.21 9.1477e-41
4.05 3.57 3.15 3.57e-43
4.07 3.57 3.18 9.1477e-41
4.09 3.57 3.19 9.1477e-41
4.14 3.57 3.23 9.1477e-41
4.16 3.57 3.24 9.1477e-41
4.18 3.57 3.24 9.1477e-41
4.2 3.57 3.24 9.1477e-41
4.22 3.57 3.24 9.1477e-41
4.24 3.57 3.24 9.1477e-41
4.27 3.57 3.25 9.1477e-41
4.29 3.57 3.24 9.1477e-41
4.31 3.57 3.24 9.1477e-41
4.33 3.57 3.26 9.1477e-41
4.35 3.57 3.26 9.1477e-41
4.37 3.57 3.26 9.1477e-41
4.39 3.57 3.25 9.1477e-41
4.41 3.57 3.26 9.1477e-41
4.44 3.57 3.26 9.1477e-41
4.46 3.57 3.27 9.1477e-41
4.48 3.57 3.27 9.1477e-41
4.5 3.57 3.27 9.1477e-41
4.52 3.57 3.27 9.1477e-41
4.54 3.57 3.27 9.1477e-41
4.56 3.57 3.27 9.1477e-41
4.58 3.57 3.28 9.1477e-41
4.61 3.57 3.28 9.1477e-41
4.63 3.57 3.27 9.1477e-41
4.65 3.57 3.29 9.1477e-41
4.67 3.57 3.3 9.1477e-41
4.69 3.57 3.3 9.1477e-41
4.72 3.57 3.29 9.1477e-41
4.74 3.57 3.3 9.1477e-41
4.76 3.57 3.31 9.1477e-41
4.78 3.57 3.31 9.1477e-41
4.81 3.57 3.31 9.1477e-41
4.83 3.57 3.31 9.1477e-41
4.85 3.57 3.3 9.1477e-41
4.87 3.57 3.32 9.1477e-41
4.89 3.57 3.32 9.1477e-41
4.92 3.57 3.31 9.1477e-41
4.94 3.57 3.31 9.1477e-41
4.97 3.57 3.31 9.1477e-41
4.99 3.57 3.32 9.1477e-41
5.02 3.57 3.32 9.1477e-41
5.04 3.57 3.31 9.1477e-41
5.07 3.57 3.31 9.1477e-41
5.09 3.57 3.32 9.1477e-41
5.11 3.57 3.32 9.1477e-41
5.14 3.57 3.33 9.1477e-41
5.17 3.57 3.31 9.1477e-41
5.19 3.57 3.32 9.1477e-41
5.21 3.57 3.32 9.1477e-41
5.24 3.57 3.32 9.1477e-41
5.27 3.57 3.33 9.1477e-41
5.3 3.57 3.33 9.1477e-41
5.32 3.57 3.33 9.1477e-41
5.35 3.57 3.32 9.1477e-41
5.37 3.57 3.33 9.1477e-41
5.4 3.57 3.33 9.1477e-41
5.43 3.57 3.32 9.1477e-41
5.46 3.57 3.32 9.1477e-41
5.5 3.57 3.31 9.1477e-41
5.52 3.57 3.32 9.1477e-41
5.55 3.57 3.31 9.1477e-41
5.58 3.57 3.32 9.1477e-41
5.62 3.57 3.31 9.1477e-41
5.64 3.57 3.32 9.1477e-41
5.67 3.57 3.31 9.1477e-41
5.71 3.57 3.3 9.1477e-41
5.74 3.57 3.3 9.1477e-41
5.79 3.57 3.29 9.1477e-41
5.82 3.57 3.29 9.1477e-41
5.86 3.57 3.28 9.1477e-41
5.89 3.57 3.29 9.1477e-41
5.93 3.57 3.27 9.1477e-41
5.97 3.57 3.27 9.1477e-41
6.01 3.57 3.27 9.1477e-41
6.06 3.57 3.25 9.1477e-41
6.1 3.57 3.25 9.1477e-41
6.15 3.57 3.22 9.1477e-41
6.2 3.57 3.21 9.1477e-41
6.25 3.57 3.2 9.1477e-41
3.91 3.74 2.2 9.1477e-41
3.96 3.74 2.2 3.57e-43
3.99 3.74 2.2 3.57e-43
4.02 3.74 2.96 9.1477e-41
4.05 3.74 3.15 9.1477e-41
4.07 3.74 3.18 9.1477e-41
4.09 3.74 3.21 9.1477e-41
4.14 3.74 3.22 9.1477e-41
4.16 3.74 3.23 9.1477e-41
4.18 3.74 3.23 9.1477e-41
4.2 3.74 3.23 9.1477e-41
4.22 3.74 3.24 9.1477e-41
4.25 3.74 3.23 9.1477e-41
4.27 3.74 3.24 9.1477e-41
4.29 3.74 3.24 9.1477e-41
4.31 3.74 3.25 9.1477e-41
4.33 3.74 3.25 9.1477e-41
4.35 3.74 3.26 9.1477e-41
4.37 3.74 3.26 9.1477e-41
4.39 3.74 3.25 9.1477e-41
4.41 3.74 3.27 9.1477e-41
4.43 3.74 3.27 9.1477e-41
4.46 3.74 3.27 9.1477e-41
4.48 3.74 3.27 9.1477e-41
4.5 3.74 3.28 9.1477e-41
4.52 3.74 3.27 9.1477e-41
4.54 3.74 3.28 9.1477e-41
4.56 3.74 3.27 9.1477e-41
4.58 3.74 3.28 9.1477e-41
4.61 3.74 3.28 9.1477e-41
4.63 3.74 3.27 9.1477e-41
4.65 3.74 3.29 9.1477e-41
4.67 3.74 3.29 9.1477e-41
4.69 3.74 3.3 9.1477e-41
4.72 3.74 3.29 9.1477e-41
4.74 3.74 3.3 9.1477e-41
4.76 3.74 3.31 9.1477e-41
4.78 3.74 3.3 9.1477e-41
4.81 3.74 3.31 9.1477e-41
4.83 3.74 3.3 9.1477e-41
4.85 3.74 3.3 9.1477e-41
4.87 3.74 3.31 9.1477e-41
4.9 3.74 3.31 9.1477e-41
4.92 3.74 3.31 9.1477e-41
4.94 3.74 3.31 9.1477e-41
4.97 3.74 3.31 9.1477e-41
4.99 3.74 3.31 9.1477e-41
5.02 3.74 3.32 9.1477e-41
5.04 3.74 3.32 9.1477e-41
5.07 3.74 3.31 9.1477e-41
5.09 3.74 3.32 9.1477e-41
5.11 3.74 3.33 9.1477e-41
5.14 3.74 3.32 9.1477e-41
5.16 3.74 3.32 9.1477e-41
5.19 3.74 3.33 9.1477e-41
5.21 3.74 3.32 9.1477e-41
5.24 3.74 3.32 9.1477e-41
5.27 3.74 3.32 9.1477e-41
5.3 3.74 3.33 9.1477e-41
5.32 3.74 3.33 9.1477e-41
5.35 3.74 3.32 9.1477e-41
5.37 3.74 3.33 9.1477e-41
5.41 3.74 3.32 9.1477e-41
5.43 3.74 3.32 9.1477e-41
5.47 3.74 3.31 9.1477e-41
5.49 3.74 3.32 9.1477e-41
5.52 3.74 3.31 9.1477e-41
5.56 3.74 3.3 9.1477e-41
5.58 3.74 3.31 9.1477e-41
5.62 3.74 3.31 9.1477e-41
5.65 3.74 3.31 9.1477e-41
5.68 3.74 3.3 9.1477e-41
5.72 3.74 3.29 9.1477e-41
5.75 3.74 3.29 9.1477e-41
5.78 3.74 3.3 9.1477e-41
5.82 3.74 3.29 9.1477e-41
5.85 3.74 3.29 9.1477e-41
5.89 3.74 3.28 9.1477e-41
5.93 3.74 3.27 9.1477e-41
5.97 3.74 3.27 9.1477e-41
6.02 3.74 3.26 9.1477e-41
6.06 3.74 3.25 9.1477e-41
6.11 3.74 3.24 9.1477e-41
6.15 3.74 3.23 9.1477e-41
6.19 3.74 3.22 9.1477e-41
6.25 3.74 3.2 9.1477e-41
3.91 3.91 2.22 9.1477e-41
3.96 3.91 2.22 3.57e-43
3.99 3.91 2.22 3.57e-43
4.02 3.91 2.96 9.1477e-41
4.05 3.91 3.14 9.1477e-41
4.07 3.91 3.18 9.1477e-41
4.09 3.91 3.21 9.1477e-41
4.12 3.91 0.4 9.1477e-41
4.14 3.91 3.23 9.1477e-41
4.16 3.91 3.24 9.1477e-41
4.18 3.91 3.23 9.1477e-41
4.2 3.91 3.25 9.1477e-41
4.22 3.91 3.24 9.1477e-41
4.24 3.91 3.24 9.1477e-41
4.27 3.91 3.24 9.1477e-41
4.29 3.91 3.24 9.1477e-41
4.31 3.91 3.25 9.1477e-41
4.33 3.91 3.25 9.1477e-41
4.35 3.91 3.26 9.1477e-41
4.37 3.91 3.25 9.1477e-41
4.39 3.91 3.26 9.1477e-41
4.41 3.91 3.27 9.1477e-41
4.43 3.91 3.27 9.1477e-41
4.46 3.91 3.27 9.1477e-41
4.48 3.91 3.27 9.1477e-41
4.5 3.91 3.28 9.1477e-41
4.52 3.91 3.28 9.1477e-41
4.54 3.91 3.28 9.1477e-41
4.56 3.91 3.28 9.1477e-41
4.58 3.91 3.28 9.1477e-41
4.61 3.91 3.28 9.1477e-41
4.63 3.91 3.28 9.1477e-41
4.65 3.91 3.29 9.1477e-41
4.67 3.91 3.3 9.1477e-41
4.69 3.91 3.29 9.1477e-41
4.71 3.91 3.3 9.1477e-41
4.74 3.91 3.29 9.1477e-41
4.76 3.91 3.31 9.1477e-41
4.78 3.91 3.31 9.1477e-41
4.81 3.91 3.3 9.1477e-41
4.83 3.91 3.31 9.1477e-41
4.85 3.91 3.31 9.1477e-41
4.87 3.91 3.31 9.1477e-41
4.9 3.91 3.31 9.1477e-41
4.92 3.91 3.31 9.1477e-41
4.94 3.91 3.31 9.1477e-41
4.97 3.91 3.31 9.1477e-41
4.99 3.91 3.31 9.1477e-41
5.01 3.91 3.33 9.1477e-41
5.04 3.91 3.32 9.1477e-41
5.06 3.91 3.32 9.1477e-41
5.09 3.91 3.33 9.1477e-41
5.11 3.91 3.33 9.1477e-41
5.14 3.91 3.33 9.1477e-41
5.16 3.91 3.32 9.1477e-41
5.19 3.91 3.32 9.1477e-41
5.21 3.91 3.32 9.1477e-41
5.24 3.91 3.32 9.1477e-41
5.27 3.91 3.33 9.1477e-41
5.29 3.91 3.34 9.1477e-41
5.32 3.91 3.33 9.1477e-41
5.35 3.91 3.33 9.1477e-41
5.38 3.91 3.32 9.1477e-41
5.4 3.91 3.33 9.1477e-41
5.43 3.91 3.32 9.1477e-41
5.46 3.91 3.32 9.1477e-41
5.49 3.91 3.32 9.1477e-41
5.52 3.91 3.31 9.1477e-41
5.55 3.91 3.32 9.1477e-41
5.59 3.91 3.31 9.1477e-41
5.61 3.91 3.32 9.1477e-41
5.65 3.91 3.31 9.1477e-41
5.68 3.91 3.3 9.1477e-41
5.71 3.91 3.3 9.1477e-41
5.75 3.91 3.29 9.1477e-41
5.79 3.91 3.28 9.1477e-41
5.82 3.91 3.29 9.1477e-41
5.86 3.91 3.28 9.1477e-41
5.89 3.91 3.28 9.1477e-41
5.93 3.91 3.27 9.1477e-41
5.97 3.91 3.28 9.1477e-41
6.01 3.91 3.27 9.1477e-41
6.05 3.91 3.26 9.1477e-41
6.11 3.91 3.24 9.1477e-41
6.15 3.91 3.23 9.1477e-41
6.2 3.91 3.21 9.1477e-41
6.24 3.91 3.21 9.1477e-41
4.02 4.08 2.96 3.57e-43
4.05 4.08 3.17 9.1477e-41
4.07 4.08 3.18 9.1477e-41
4.09 4.08 3.22 9.1477e-41
4.14 4.08 3.24 9.1477e-41
4.16 4.08 3.23 9.1477e-41
4.18 4.08 3.24 9.1477e-41
4.2 4.08 3.24 9.1477e-41
4.22 4.08 3.24 9.1477e-41
4.24 4.08 3.25 9.1477e-41
4.27 4.08 3.24 9.1477e-41
4.29 4.08 3.24 9.1477e-41
4.31 4.08 3.24 9.1477e-41
4.33 4.08 3.25 9.1477e-41
4.35 4.08 3.26 9.1477e-41
4.37 4.08 3.26 9.1477e-41
4.39 4.08 3.26 9.1477e-41
4.41 4.08 3.27 9.1477e-41
4.43 4.08 3.27 9.1477e-41
4.46 4.08 3.26 9.1477e-41
4.48 4.08 3.27 9.1477e-41
4.5 4.08 3.27 9.1477e-41
4.52 4.08 3.27 9.1477e-41
4.54 4.08 3.28 9.1477e-41
4.56 4.08 3.28 9.1477e-41
4.59 4.08 3.28 9.1477e-41
4.61 4.08 3.28 9.1477e-41
4.63 4.08 3.28 9.1477e-41
4.65 4.08 3.29 9.1477e-41
4.67 4.08 3.29 9.1477e-41
4.69 4.08 3.3 9.1477e-41
4.71 4.08 3.3 9.1477e-41
4.74 4.08 3.3 9.1477e-41
4.76 4.08 3.31 9.1477e-41
4.78 4.08 3.31 9.1477e-41
4.81 4.08 3.31 9.1477e-41
4.83 4.08 3.31 9.1477e-41
4.85 4.08 3.3 9.1477e-41
4.87 4.08 3.31 9.1477e-41
4.9 4.08 3.31 9.1477e-41
4.92 4.08 3.3 9.1477e-41
4.95 4.08 3.3 9.1477e-41
4.97 4.08 3.31 9.1477e-41
4.99 4.08 3.31 9.1477e-41
5.02 4.08 3.32 9.1477e-41
5.04 4.08 3.32 9.1477e-41
5.06 4.08 3.32 9.1477e-41
5.09 4.08 3.33 9.1477e-41
5.11 4.08 3.32 9.1477e-41
5.14 4.08 3.32 9.1477e-41
5.16 4.08 3.33 9.1477e-41
5.19 4.08 3.32 9.1477e-41
5.21 4.08 3.32 9.1477e-41
5.24 4.08 3.32 9.1477e-41
5.27 4.08 3.33 9.1477e-41
5.29 4.08 3.34 9.1477e-41
5.32 4.08 3.33 9.1477e-41
5.35 4.08 3.33 9.1477e-41
5.38 4.08 3.32 9.1477e-41
5.4 4.08 3.33 9.1477e-41
5.43 4.08 3.32 9.1477e-41
5.46 4.08 3.32 9.1477e-41
5.49 4.08 3.32 9.1477e-41
5.52 4.08 3.31 9.1477e-41
5.55 4.08 3.31 9.1477e-41
5.58 4.08 3.31 9.1477e-41
5.62 4.08 3.3 9.1477e-41
5.64 4.08 3.32 9.1477e-41
5.69 4.08 3.3 9.1477e-41
5.71 4.08 3.3 9.1477e-41
5.75 4.08 3.3 9.1477e-41
5.78 4.08 3.29 9.1477e-41
5.82 4.08 3.28 9.1477e-41
5.86 4.08 3.28 9.1477e-41
5.9 4.08 3.27 9.1477e-41
5.93 4.08 3.27 9.1477e-41
5.97 4.08 3.27 9.1477e-41
6.01 4.08 3.27 9.1477e-41
6.07 4.08 3.24 9.1477e-41
6.11 4.08 3.24 9.1477e-41
6.15 4.08 3.23 9.1477e-41
6.2 4.08 3.21 9.1477e-41
6.24 4.08 3.21 9.1477e-41
4.02 4.25 2.96 3.57e-43
4.05 4.25 3.17 9.1477e-41
4.07 4.25 3.18 9.1477e-41
4.09 4.25 3.22 9.1477e-41
4.14 4.25 3.23 9.1477e-41
4.16 4.25 3.23 9.1477e-41
4.18 4.25 3.23 9.1477e-41
4.2 4.25 3.24 9.1477e-41
4.22 4.25 3.24 9.1477e-41
4.24 4.25 3.24 9.1477e-41
4.27 4.25 3.24 9.1477e-41
4.29 4.25 3.25 9.1477e-41
4.31 4.25 3.24 9.1477e-41
4.33 4.25 3.25 9.1477e-41
4.35 4.25 3.26 9.1477e-41
4.37 4.25 3.26 9.1477e-41
4.39 4.25 3.25 9.1477e-41
4.41 4.25 3.26 9.1477e-41
4.43 4.25 3.27 9.1477e-41
4.46 4.25 3.26 9.1477e-41
4.48 4.25 3.27 9.1477e-41
4.5 4.25 3.27 9.1477e-41
4.52 4.25 3.27 9.1477e-41
4.54 4.25 3.28 9.1477e-41
4.56 4.25 3.28 9.1477e-41
4.59 4.25 3.28 9.1477e-41
4.61 4.25 3.28 9.1477e-41
4.63 4.25 3.28 9.1477e-41
4.65 4.25 3.3 9.1477e-41
4.67 4.25 3.29 9.1477e-41
4.69 4.25 3.29 9.1477e-41
4.72 4.25 3.29 9.1477e-41
4.74 4.25 3.29 9.1477e-41
4.76 4.25 3.31 9.1477e-41
4.78 4.25 3.3 9.1477e-41
4.81 4.25 3.31 9.1477e-41
4.83 4.25 3.3 9.1477e-41
4.85 4.25 3.31 9.1477e-41
4.88 4.25 3.3 9.1477e-41
4.9 4.25 3.31 9.1477e-41
4.92 4.25 3.3 9.1477e-41
4.95 4.25 3.3 9.1477e-41
4.97 4.25 3.3 9.1477e-41
4.99 4.25 3.31 9.1477e-41
5.02 4.25 3.31 9.1477e-41
5.04 4.25 3.31 9.1477e-41
5.07 4.25 3.31 9.1477e-41
5.09 4.25 3.31 9.1477e-41
5.11 4.25 3.32 9.1477e-41
5.14 4.25 3.31 9.1477e-41
5.17 4.25 3.31 9.1477e-41
5.19 4.25 3.31 9.1477e-41
5.22 4.25 3.31 9.1477e-41
5.25 4.25 3.31 9.1477e-41
5.27 4.25 3.32 9.1477e-41
5.3 4.25 3.33 9.1477e-41
5.32 4.25 3.33 9.1477e-41
5.36 4.25 3.31 9.1477e-41
5.38 4.25 3.32 9.1477e-41
5.4 4.25 3.33 9.1477e-41
5.43 4.25 3.32 9.1477e-41
5.46 4.25 3.32 9.1477e-41
5.5 4.25 3.31 9.1477e-41
5.52 4.25 3.31 9.1477e-41
5.56 4.25 3.3 9.1477e-41
5.58 4.25 3.31 9.1477e-41
5.62 4.25 3.3 9.1477e-41
5.65 4.25 3.31 9.1477e-41
5.69 4.25 3.31 9.1477e-41
5.71 4.25 3.3 9.1477e-41
5.75 4.25 3.29 9.1477e-41
5.78 4.25 3.29 9.1477e-41
5.82 4.25 3.29 9.1477e-41
5.85 4.25 3.29 9.1477e-41
5.9 4.25 3.27 9.1477e-41
5.93 4.25 3.27 9.1477e-41
5.98 4.25 3.27 9.1477e-41
6.02 4.25 3.26 9.1477e-41
6.06 4.25 3.25 9.1477e-41
6.11 4.25 3.24 9.1477e-41
6.15 4.25 3.22 9.1477e-41
6.19 4.25 3.22 9.1477e-41
6.25 4.25 3.2 9.1477e-41
4.02 4.42 2.96 3.57e-43
4.05 4.42 3.18 9.1477e-41
4.07 4.42 3.19 9.1477e-41
4.09 4.42 3.23 9.1477e-41
4.14 4.42 3.23 9.1477e-41
4.16 4.42 3.24 9.1477e-41
4.18 4.42 3.23 9.1477e-41
4.2 4.42 3.24 9.1477e-41
4.22 4.42 3.24 9.1477e-41
4.24 4.42 3.24 9.1477e-41
4.27 4.42 3.24 9.1477e-41
4.29 4.42 3.24 9.1477e-41
4.31 4.42 3.24 9.1477e-41
4.33 4.42 3.25 9.1477e-41
4.35 4.42 3.26 9.1477e-41
4.37 4.42 3.26 9.1477e-41
4.39 4.42 3.26 9.1477e-41
4.41 4.42 3.27 9.1477e-41
4.44 4.42 3.26 9.1477e-41
4.46 4.42 3.26 9.1477e-41
4.48 4.42 3.27 9.1477e-41
4.5 4.42 3.26 9.1477e-41
4.52 4.42 3.26 9.1477e-41
4.54 4.42 3.28 9.1477e-41
4.56 4.42 3.27 9.1477e-41
4.59 4.42 3.27 9.1477e-41
4.61 4.42 3.27 9.1477e-41
4.63 4.42 3.27 9.1477e-41
4.65 4.42 3.29 9.1477e-41
4.67 4.42 3.29 9.1477e-41
4.69 4.42 3.29 9.1477e-41
4.72 4.42 3.29 9.1477e-41
4.74 4.42 3.29 9.1477e-41
4.76 4.42 3.31 9.1477e-41
4.78 4.42 3.3 9.1477e-41
4.81 4.42 3.3 9.1477e-41
4.83 4.42 3.3 9.1477e-41
4.85 4.42 3.3 9.1477e-41
4.88 4.42 3.3 9.1477e-41
4.9 4.42 3.3 9.1477e-41
4.93 4.42 3.29 9.1477e-41
4.95 4.42 3.29 9.1477e-41
4.97 4.42 3.3 9.1477e-41
5 4.42 3.31 9.1477e-41
5.02 4.42 3.31 9.1477e-41
5.05 4.42 3.3 9.1477e-41
5.07 4.42 3.31 9.1477e-41
5.09 4.42 3.31 9.1477e-41
5.12 4.42 3.31 9.1477e-41
5.15 4.42 3.3 9.1477e-41
5.17 4.42 3.31 9.1477e-41
5.2 4.42 3.3 9.1477e-41
5.23 4.42 3.3 9.1477e-41
5.25 4.42 3.31 9.1477e-41
5.27 4.42 3.32 9.1477e-41
5.3 4.42 3.32 9.1477e-41
5.33 4.42 3.32 9.1477e-41
5.36 4.42 3.31 9.1477e-41
5.38 4.42 3.32 9.1477e-41
5.41 4.42 3.32 9.1477e-41
5.43 4.42 3.32 9.1477e-41
5.47 4.42 3.31 9.1477e-41
5.49 4.42 3.32 9.1477e-41
5.52 4.42 3.31 9.1477e-41
5.55 4.42 3.31 9.1477e-41
5.58 4.42 3.31 9.1477e-41
5.62 4.42 3.31 9.1477e-41
5.65 4.42 3.31 9.1477e-41
5.68 4.42 3.3 9.1477e-41
5.71 4.42 3.3 9.1477e-41
5.75 4.42 3.29 9.1477e-41
5.78 4.42 3.29 9.1477e-41
5.82 4.42 3.29 9.1477e-41
5.86 4.42 3.28 9.1477e-41
5.9 4.42 3.27 9.1477e-41
5.94 4.42 3.26 9.1477e-41
5.98 4.42 3.27 9.1477e-41
6.02 4.42 3.26 9.1477e-41
6.07 4.42 3.24 9.1477e-41
6.11 4.42 3.23 9.1477e-41
6.15 4.42 3.22 9.1477e-41
6.21 4.42 3.2 9.1477e-41
6.25 4.42 3.2 9.1477e-41
3.92 4.59 2.41 9.1477e-41
3.96 4.59 2.41 3.57e-43
3.99 4.59 2.41 3.57e-43
4.02 4.59 2.96 9.1477e-41
4.05 4.59 3.18 9.1477e-41
4.07 4.59 3.18 9.1477e-41
4.09 4.59 3.23 9.1477e-41
4.14 4.59 3.23 9.1477e-41
4.16 4.59 3.23 9.1477e-41
4.18 4.59 3.23 9.1477e-41
4.2 4.59 3.25 9.1477e-41
4.22 4.59 3.24 9.1477e-41
4.24 4.59 3.24 9.1477e-41
4.27 4.59 3.23 9.1477e-41
4.29 4.59 3.25 9.1477e-41
4.31 4.59 3.24 9.1477e-41
4.33 4.59 3.24 9.1477e-41
4.35 4.59 3.26 9.1477e-41
4.37 4.59 3.25 9.1477e-41
4.39 4.59 3.25 9.1477e-41
4.41 4.59 3.26 9.1477e-41
4.44 4.59 3.26 9.1477e-41
4.46 4.59 3.26 9.1477e-41
4.48 4.59 3.27 9.1477e-41
4.5 4.59 3.27 9.1477e-41
4.52 4.59 3.26 9.1477e-41
4.54 4.59 3.27 9.1477e-41
4.56 4.59 3.27 9.1477e-41
4.59 4.59 3.27 9.1477e-41
4.61 4.59 3.27 9.1477e-41
4.63 4.59 3.27 9.1477e-41
4.65 4.59 3.29 9.1477e-41
4.67 4.59 3.28 9.1477e-41
4.69 4.59 3.29 9.1477e-41
4.72 4.59 3.29 9.1477e-41
4.74 4.59 3.29 9.1477e-41
4.76 4.59 3.31 9.1477e-41
4.78 4.59 3.3 9.1477e-41
4.81 4.59 3.31 9.1477e-41
4.83 4.59 3.3 9.1477e-41
4.86 4.59 3.29 9.1477e-41
4.88 4.59 3.3 9.1477e-41
4.9 4.59 3.3 9.1477e-41
4.93 4.59 3.29 9.1477e-41
4.95 4.59 3.29 9.1477e-41
4.97 4.59 3.3 9.1477e-41
5 4.59 3.31 9.1477e-41
5.02 4.59 3.3 9.1477e-41
5.04 4.59 3.31 9.1477e-41
5.07 4.59 3.31 9.1477e-41
5.09 4.59 3.31 9.1477e-41
5.11 4.59 3.32 9.1477e-41
5.13 4.59 3.35 9.1477e-41
5.16 4.59 3.34 9.1477e-41
5.18 4.59 3.35 9.1477e-41
5.2 4.59 3.35 9.1477e-41
5.24 4.59 3.33 9.1477e-41
5.28 4.59 3.31 9.1477e-41
5.3 4.59 3.31 9.1477e-41
5.33 4.59 3.31 9.1477e-41
5.36 4.59 3.3 9.1477e-41
5.38 4.59 3.32 9.1477e-41
5.41 4.59 3.31 9.1477e-41
5.44 4.59 3.3 9.1477e-41
5.47 4.59 3.31 9.1477e-41
5.5 4.59 3.31 9.1477e-41
5.53 4.59 3.32 9.1477e-41
5.56 4.59 3.31 9.1477e-41
5.58 4.59 3.31 9.1477e-41
5.62 4.59 3.31 9.1477e-41
5.65 4.59 3.31 9.1477e-41
5.68 4.59 3.3 9.1477e-41
5.71 4.59 3.3 9.1477e-41
5.76 4.59 3.28 9.1477e-41
5.78 4.59 3.29 9.1477e-41
5.82 4.59 3.28 9.1477e-41
5.86 4.59 3.28 9.1477e-41
5.9 4.59 3.27 9.1477e-41
5.94 4.59 3.26 9.1477e-41
5.98 4.59 3.27 9.1477e-41
6.02 4.59 3.25 9.1477e-41
6.07 4.59 3.24 9.1477e-41
6.11 4.59 3.24 9.1477e-41
6.15 4.59 3.22 9.1477e-41
6.21 4.59 3.2 9.1477e-41
4.02 4.76 2.96 3.57e-43
4.05 4.76 3.18 9.1477e-41
4.07 4.76 3.18 9.1477e-41
4.09 4.76 3.24 9.1477e-41
4.14 4.76 3.24 9.1477e-41
4.16 4.76 3.27 9.1477e-41
4.18 4.76 3.29 9.1477e-41
4.2 4.76 3.26 9.1477e-41
4.22 4.76 3.26 9.1477e-41
4.24 4.76 3.26 9.1477e-41
4.26 4.76 3.26 9.1477e-41
4.29 4.76 3.26 9.1477e-41
4.31 4.76 3.27 9.1477e-41
4.33 4.76 3.28 9.1477e-41
4.35 4.76 3.28 9.1477e-41
4.37 4.76 3.28 9.1477e-41
4.39 4.76 3.28 9.1477e-41
4.41 4.76 3.28 9.1477e-41
4.43 4.76 3.28 9.1477e-41
4.45 4.76 3.29 9.1477e-41
4.48 4.76 3.28 9.1477e-41
4.5 4.76 3.29 9.1477e-41
4.52 4.76 3.29 9.1477e-41
4.54 4.76 3.3 9.1477e-41
4.56 4.76 3.3 9.1477e-41
4.58 4.76 3.32 9.1477e-41
4.6 4.76 3.31 9.1477e-41
4.63 4.76 3.27 9.1477e-41
4.65 4.76 3.27 9.1477e-41
4.67 4.76 3.28 9.1477e-41
4.69 4.76 3.29 9.1477e-41
4.72 4.76 3.28 9.1477e-41
4.74 4.76 3.29 9.1477e-41
4.76 4.76 3.3 9.1477e-41
4.78 4.76 3.3 9.1477e-41
4.81 4.76 3.3 9.1477e-41
4.83 4.76 3.3 9.1477e-41
4.85 4.76 3.3 9.1477e-41
4.88 4.76 3.3 9.1477e-41
4.9 4.76 3.31 9.1477e-41
4.93 4.76 3.29 9.1477e-41
4.95 4.76 3.29 9.1477e-41
4.97 4.76 3.3 9.1477e-41
5 4.76 3.3 9.1477e-41
5.02 4.76 3.31 9.1477e-41
5.04 4.76 3.31 9.1477e-41
5.07 4.76 3.31 9.1477e-41
5.09 4.76 3.33 9.1477e-41
5.1 4.76 3.36 9.1477e-41
5.12 4.76 3.37 9.1477e-41
5.14 4.76 3.39 9.1477e-41
5.16 4.76 3.39 9.1477e-41
5.19 4.76 3.38 9.1477e-41
5.21 4.76 3.39 9.1477e-41
5.24 4.76 3.37 9.1477e-41
5.3 4.76 3.32 9.1477e-41
5.33 4.76 3.31 9.1477e-41
5.36 4.76 3.31 9.1477e-41
5.39 4.76 3.31 9.1477e-41
5.42 4.76 3.3 9.1477e-41
5.44 4.76 3.3 9.1477e-41
5.47 4.76 3.31 9.1477e-41
5.5 4.76 3.31 9.1477e-41
5.52 4.76 3.31 9.1477e-41
5.56 4.76 3.3 9.1477e-41
5.58 4.76 3.32 9.1477e-41
5.62 4.76 3.31 9.1477e-41
5.65 4.76 3.31 9.1477e-41
5.68 4.76 3.3 9.1477e-41
5.72 4.76 3.29 9.1477e-41
5.74 4.76 3.3 9.1477e-41
5.78 4.76 3.31 9.1477e-41
5.8 4.76 3.32 9.1477e-41
5.84 4.76 3.3 9.1477e-41
5.89 4.76 3.29 9.1477e-41
5.92 4.76 3.29 9.1477e-41
5.97 4.76 3.28 9.1477e-41
6.01 4.76 3.27 9.1477e-41
6.05 4.76 3.27 9.1477e-41
6.09 4.76 3.26 9.1477e-41
6.13 4.76 3.25 9.1477e-41
6.19 4.76 3.23 9.1477e-41
3.92 4.93 2.42 9.1477e-41
3.97 4.93 2.42 3.57e-43
3.99 4.93 2.42 3.57e-43
4.02 4.93 2.96 9.1477e-41
4.05 4.93 3.18 9.1477e-41
4.07 4.93 3.19 9.1477e-41
4.09 4.93 3.23 9.1477e-41
4.14 4.93 3.23 9.1477e-41
4.16 4.93 3.27 9.1477e-41
4.18 4.93 3.34 9.1477e-41
4.2 4.93 3.34 9.1477e-41
4.22 4.93 3.34 9.1477e-41
4.24 4.93 3.34 9.1477e-41
4.26 4.93 3.35 9.1477e-41
4.28 4.93 3.34 9.1477e-41
4.3 4.93 3.34 9.1477e-41
4.32 4.93 3.35 9.1477e-41
4.34 4.93 3.35 9.1477e-41
4.36 4.93 3.34 9.1477e-41
4.38 4.93 3.35 9.1477e-41
4.4 4.93 3.36 9.1477e-41
4.42 4.93 3.35 9.1477e-41
4.45 4.93 3.34 9.1477e-41
4.46 4.93 3.35 9.1477e-41
4.48 4.93 3.36 9.1477e-41
4.5 4.93 3.36 9.1477e-41
4.53 4.93 3.36 9.1477e-41
4.55 4.93 3.36 9.1477e-41
4.57 4.93 3.37 9.1477e-41
4.6 4.93 3.33 9.1477e-41
4.63 4.93 3.26 9.1477e-41
4.65 4.93 3.27 9.1477e-41
4.67 4.93 3.28 9.1477e-41
4.7 4.93 3.28 9.1477e-41
4.72 4.93 3.28 9.1477e-41
4.74 4.93 3.29 9.1477e-41
4.76 4.93 3.3 9.1477e-41
4.79 4.93 3.29 9.1477e-41
4.81 4.93 3.3 9.1477e-41
4.83 4.93 3.3 9.1477e-41
4.85 4.93 3.3 9.1477e-41
4.88 4.93 3.29 9.1477e-41
4.9 4.93 3.31 9.1477e-41
4.93 4.93 3.29 9.1477e-41
4.95 4.93 3.29 9.1477e-41
4.97 4.93 3.3 9.1477e-41
5 4.93 3.3 9.1477e-41
5.02 4.93 3.3 9.1477e-41
5.04 4.93 3.31 9.1477e-41
5.07 4.93 3.31 9.1477e-41
5.09 4.93 3.31 9.1477e-41
5.11 4.93 3.34 9.1477e-41
5.12 4.93 3.36 9.1477e-41
5.14 4.93 3.37 9.1477e-41
5.17 4.93 3.37 9.1477e-41
5.19 4.93 3.38 9.1477e-41
5.22 4.93 3.37 9.1477e-41
5.26 4.93 3.35 9.1477e-41
5.3 4.93 3.32 9.1477e-41
5.33 4.93 3.31 9.1477e-41
5.36 4.93 3.31 9.1477e-41
5.38 4.93 3.32 9.1477e-41
5.41 4.93 3.31 9.1477e-41
5.44 4.93 3.31 9.1477e-41
5.46 4.93 3.32 9.1477e-41
5.5 4.93 3.3 9.1477e-41
5.52 4.93 3.31 9.1477e-41
5.55 4.93 3.31 9.1477e-41
5.58 4.93 3.31 9.1477e-41
5.62 4.93 3.31 9.1477e-41
5.65 4.93 3.3 9.1477e-41
5.68 4.93 3.3 9.1477e-41
5.71 4.93 3.3 9.1477e-41
5.75 4.93 3.29 9.1477e-41
5.77 4.93 3.31 9.1477e-41
5.79 4.93 3.33 9.1477e-41
5.79 4.93 3.37 9.1477e-41
5.81 4.93 3.39 9.1477e-41
5.84 4.93 3.39 9.1477e-41
