# .PCD v.7 - Point Cloud Data file format
VERSION .7
FIELDS x y z rgb
SIZE 4 4 4 4
TYPE F F F F
WIDTH 1886
HEIGHT 1
POINTS 1886
DATA ascii
5.41 6.22 3.32 9.1477e-41
5.43 6.22 3.32 9.1477e-41
5.46 6.22 3.32 9.1477e-41
5.49 6.22 3.33 9.1477e-41
5.52 6.22 3.31 9.1477e-41
5.54 6.22 3.33 9.1477e-41
5.58 6.22 3.32 9.1477e-41
5.61 6.22 3.33 9.1477e-41
5.64 6.22 3.32 9.1477e-41
5.67 6.22 3.32 9.1477e-41
5.7 6.22 3.32 9.1477e-41
5.73 6.22 3.32 9.1477e-41
5.77 6.22 3.32 9.1477e-41
5.8 6.22 3.32 9.1477e-41
5.83 6.22 3.32 9.1477e-41
5.87 6.22 3.31 9.1477e-41
5.91 6.22 3.3 9.1477e-41
5.94 6.22 3.31 9.1477e-41
5.98 6.22 3.31 9.1477e-41
6.02 6.22 3.31 9.1477e-41
6.06 6.22 3.3 9.1477e-41
6.1 6.22 3.29 9.1477e-41
6.14 6.22 3.29 9.1477e-41
6.16 6.22 3.31 9.1477e-41
6.16 6.22 3.35 9.1477e-41
6.18 6.22 3.37 9.1477e-41
6.22 6.22 3.36 9.1477e-41
6.28 6.22 3.35 9.1477e-41
6.32 6.22 3.34 9.1477e-41
6.37 6.22 3.33 9.1477e-41
6.43 6.22 3.32 9.1477e-41
6.48 6.22 3.31 9.1477e-41
6.53 6.22 3.31 9.1477e-41
4.2 6.24 1.56 9.1477e-41
4.22 6.24 2.02 9.1477e-41
4.25 6.24 2.02 3.57e-43
4.28 6.24 2.02 3.57e-43
4.3 6.24 2.02 3.57e-43
4.32 6.24 2.02 3.57e-43
4.33 6.24 2.02 3.57e-43
4.35 6.24 2.02 3.57e-43
4.37 6.24 2.02 3.57e-43
4.38 6.24 2.02 3.57e-43
4.4 6.24 2.02 3.57e-43
4.42 6.24 3.07 9.1477e-41
4.43 6.24 3.18 9.1477e-41
4.45 6.24 3.19 9.1477e-41
4.46 6.24 3.21 9.1477e-41
4.48 6.24 3.23 9.1477e-41
4.51 6.24 3.23 9.1477e-41
4.53 6.24 3.23 9.1477e-41
4.55 6.24 3.26 9.1477e-41
4.56 6.24 3.31 9.1477e-41
4.58 6.24 3.31 9.1477e-41
4.6 6.24 3.31 9.1477e-41
4.62 6.24 3.31 9.1477e-41
4.64 6.24 3.32 9.1477e-41
4.66 6.24 3.33 9.1477e-41
4.69 6.24 3.33 9.1477e-41
4.71 6.24 3.33 9.1477e-41
4.73 6.24 3.34 9.1477e-41
4.75 6.24 3.34 9.1477e-41
4.77 6.24 3.34 9.1477e-41
4.79 6.24 3.35 9.1477e-41
4.82 6.24 3.34 9.1477e-41
4.84 6.24 3.35 9.1477e-41
4.86 6.24 3.35 9.1477e-41
4.88 6.24 3.35 9.1477e-41
4.9 6.24 3.36 9.1477e-41
4.93 6.24 3.36 9.1477e-41
4.95 6.24 3.36 9.1477e-41
4.98 6.24 3.34 9.1477e-41
5.02 6.24 3.3 9.1477e-41
5.04 6.24 3.31 9.1477e-41
5.07 6.24 3.3 9.1477e-41
5.09 6.24 3.31 9.1477e-41
5.12 6.24 3.3 9.1477e-41
5.14 6.24 3.31 9.1477e-41
5.17 6.24 3.31 9.1477e-41
5.19 6.24 3.31 9.1477e-41
5.22 6.24 3.31 9.1477e-41
5.25 6.24 3.31 9.1477e-41
5.27 6.24 3.33 9.1477e-41
5.3 6.24 3.33 9.1477e-41
5.33 6.24 3.32 9.1477e-41
5.35 6.24 3.33 9.1477e-41
5.38 6.24 3.32 9.1477e-41
5.4 6.24 3.33 9.1477e-41
5.43 6.24 3.33 9.1477e-41
5.46 6.24 3.32 9.1477e-41
5.49 6.24 3.32 9.1477e-41
5.52 6.24 3.31 9.1477e-41
5.54 6.24 3.33 9.1477e-41
5.57 6.24 3.33 9.1477e-41
5.61 6.24 3.32 9.1477e-41
5.64 6.24 3.32 9.1477e-41
5.67 6.24 3.32 9.1477e-41
5.7 6.24 3.32 9.1477e-41
5.73 6.24 3.32 9.1477e-41
5.77 6.24 3.32 9.1477e-41
5.8 6.24 3.32 9.1477e-41
5.83 6.24 3.32 9.1477e-41
5.86 6.24 3.32 9.1477e-41
5.9 6.24 3.31 9.1477e-41
5.94 6.24 3.3 9.1477e-41
5.98 6.24 3.31 9.1477e-41
6.02 6.24 3.31 9.1477e-41
6.06 6.24 3.3 9.1477e-41
6.1 6.24 3.29 9.1477e-41
6.13 6.24 3.3 9.1477e-41
6.16 6.24 3.31 9.1477e-41
6.16 6.24 3.35 9.1477e-41
6.18 6.24 3.37 9.1477e-41
6.22 6.24 3.36 9.1477e-41
6.28 6.24 3.35 9.1477e-41
6.32 6.24 3.34 9.1477e-41
6.37 6.24 3.33 9.1477e-41
6.42 6.24 3.32 9.1477e-41
6.48 6.24 3.3 9.1477e-41
6.53 6.24 3.31 9.1477e-41
4.2 6.26 1.57 9.1477e-41
4.22 6.26 2.04 9.1477e-41
4.25 6.26 2.04 3.57e-43
4.28 6.26 2.04 3.57e-43
4.3 6.26 2.04 3.57e-43
4.32 6.26 2.04 3.57e-43
4.33 6.26 2.04 3.57e-43
4.35 6.26 2.04 3.57e-43
4.37 6.26 2.04 3.57e-43
4.38 6.26 2.04 3.57e-43
4.4 6.26 2.04 3.57e-43
4.42 6.26 3.07 9.1477e-41
4.43 6.26 3.18 9.1477e-41
4.45 6.26 3.18 9.1477e-41
4.46 6.26 3.22 9.1477e-41
4.48 6.26 3.23 9.1477e-41
4.51 6.26 3.22 9.1477e-41
4.53 6.26 3.22 9.1477e-41
4.55 6.26 3.25 9.1477e-41
4.56 6.26 3.3 9.1477e-41
4.58 6.26 3.31 9.1477e-41
4.6 6.26 3.31 9.1477e-41
4.62 6.26 3.32 9.1477e-41
4.64 6.26 3.33 9.1477e-41
4.66 6.26 3.32 9.1477e-41
4.68 6.26 3.34 9.1477e-41
4.71 6.26 3.33 9.1477e-41
4.73 6.26 3.33 9.1477e-41
4.75 6.26 3.33 9.1477e-41
4.77 6.26 3.34 9.1477e-41
4.79 6.26 3.35 9.1477e-41
4.81 6.26 3.35 9.1477e-41
4.84 6.26 3.35 9.1477e-41
4.86 6.26 3.35 9.1477e-41
4.88 6.26 3.35 9.1477e-41
4.9 6.26 3.36 9.1477e-41
4.93 6.26 3.35 9.1477e-41
4.95 6.26 3.37 9.1477e-41
4.98 6.26 3.34 9.1477e-41
5.02 6.26 3.3 9.1477e-41
5.04 6.26 3.31 9.1477e-41
5.07 6.26 3.3 9.1477e-41
5.09 6.26 3.31 9.1477e-41
5.12 6.26 3.31 9.1477e-41
5.14 6.26 3.31 9.1477e-41
5.17 6.26 3.31 9.1477e-41
5.19 6.26 3.31 9.1477e-41
5.22 6.26 3.31 9.1477e-41
5.24 6.26 3.32 9.1477e-41
5.27 6.26 3.32 9.1477e-41
5.3 6.26 3.33 9.1477e-41
5.32 6.26 3.33 9.1477e-41
5.35 6.26 3.33 9.1477e-41
5.37 6.26 3.33 9.1477e-41
5.41 6.26 3.32 9.1477e-41
5.43 6.26 3.33 9.1477e-41
5.46 6.26 3.32 9.1477e-41
5.49 6.26 3.33 9.1477e-41
5.52 6.26 3.32 9.1477e-41
5.55 6.26 3.32 9.1477e-41
5.58 6.26 3.32 9.1477e-41
5.61 6.26 3.33 9.1477e-41
5.64 6.26 3.32 9.1477e-41
5.67 6.26 3.32 9.1477e-41
5.7 6.26 3.32 9.1477e-41
5.73 6.26 3.32 9.1477e-41
5.77 6.26 3.32 9.1477e-41
5.8 6.26 3.32 9.1477e-41
5.84 6.26 3.31 9.1477e-41
5.86 6.26 3.32 9.1477e-41
5.9 6.26 3.31 9.1477e-41
5.94 6.26 3.31 9.1477e-41
5.98 6.26 3.31 9.1477e-41
6.02 6.26 3.31 9.1477e-41
6.05 6.26 3.31 9.1477e-41
6.1 6.26 3.29 9.1477e-41
6.14 6.26 3.29 9.1477e-41
6.16 6.26 3.31 9.1477e-41
6.17 6.26 3.34 9.1477e-41
6.18 6.26 3.37 9.1477e-41
6.22 6.26 3.36 9.1477e-41
6.28 6.26 3.35 9.1477e-41
6.32 6.26 3.35 9.1477e-41
6.38 6.26 3.32 9.1477e-41
6.43 6.26 3.32 9.1477e-41
6.48 6.26 3.3 9.1477e-41
4.2 6.28 1.58 9.1477e-41
4.22 6.28 2.05 9.1477e-41
4.25 6.28 2.05 3.57e-43
4.28 6.28 2.05 3.57e-43
4.3 6.28 2.05 3.57e-43
4.32 6.28 2.05 3.57e-43
4.33 6.28 2.05 3.57e-43
4.35 6.28 2.05 3.57e-43
4.37 6.28 2.05 3.57e-43
4.38 6.28 2.05 3.57e-43
4.4 6.28 2.05 3.57e-43
4.42 6.28 3.07 9.1477e-41
4.43 6.28 3.17 9.1477e-41
4.45 6.28 3.19 9.1477e-41
4.46 6.28 3.22 9.1477e-41
4.48 6.28 3.23 9.1477e-41
4.51 6.28 3.22 9.1477e-41
4.53 6.28 3.23 9.1477e-41
4.55 6.28 3.25 9.1477e-41
4.56 6.28 3.3 9.1477e-41
4.58 6.28 3.31 9.1477e-41
4.6 6.28 3.32 9.1477e-41
4.62 6.28 3.31 9.1477e-41
4.64 6.28 3.31 9.1477e-41
4.66 6.28 3.32 9.1477e-41
4.69 6.28 3.32 9.1477e-41
4.71 6.28 3.33 9.1477e-41
4.73 6.28 3.34 9.1477e-41
4.75 6.28 3.33 9.1477e-41
4.77 6.28 3.34 9.1477e-41
4.8 6.28 3.34 9.1477e-41
4.81 6.28 3.35 9.1477e-41
4.84 6.28 3.34 9.1477e-41
4.86 6.28 3.36 9.1477e-41
4.88 6.28 3.35 9.1477e-41
4.9 6.28 3.36 9.1477e-41
4.93 6.28 3.35 9.1477e-41
4.95 6.28 3.36 9.1477e-41
4.98 6.28 3.33 9.1477e-41
5.02 6.28 3.3 9.1477e-41
5.05 6.28 3.3 9.1477e-41
5.07 6.28 3.31 9.1477e-41
5.09 6.28 3.31 9.1477e-41
5.12 6.28 3.3 9.1477e-41
5.14 6.28 3.32 9.1477e-41
5.17 6.28 3.3 9.1477e-41
5.19 6.28 3.31 9.1477e-41
5.22 6.28 3.31 9.1477e-41
5.24 6.28 3.32 9.1477e-41
5.27 6.28 3.32 9.1477e-41
5.3 6.28 3.32 9.1477e-41
5.32 6.28 3.34 9.1477e-41
5.35 6.28 3.33 9.1477e-41
5.38 6.28 3.32 9.1477e-41
5.4 6.28 3.33 9.1477e-41
5.43 6.28 3.33 9.1477e-41
5.46 6.28 3.32 9.1477e-41
5.49 6.28 3.33 9.1477e-41
5.52 6.28 3.32 9.1477e-41
5.55 6.28 3.32 9.1477e-41
5.58 6.28 3.32 9.1477e-41
5.61 6.28 3.33 9.1477e-41
5.64 6.28 3.32 9.1477e-41
5.67 6.28 3.32 9.1477e-41
5.7 6.28 3.33 9.1477e-41
5.73 6.28 3.32 9.1477e-41
5.76 6.28 3.33 9.1477e-41
5.8 6.28 3.32 9.1477e-41
5.84 6.28 3.31 9.1477e-41
5.86 6.28 3.32 9.1477e-41
5.9 6.28 3.31 9.1477e-41
5.94 6.28 3.3 9.1477e-41
5.98 6.28 3.31 9.1477e-41
6.02 6.28 3.31 9.1477e-41
6.06 6.28 3.29 9.1477e-41
6.1 6.28 3.29 9.1477e-41
6.14 6.28 3.29 9.1477e-41
6.16 6.28 3.31 9.1477e-41
6.16 6.28 3.35 9.1477e-41
6.19 6.28 3.36 9.1477e-41
6.23 6.28 3.35 9.1477e-41
6.27 6.28 3.36 9.1477e-41
6.32 6.28 3.34 9.1477e-41
6.37 6.28 3.33 9.1477e-41
6.43 6.28 3.32 9.1477e-41
6.48 6.28 3.31 9.1477e-41
4.2 6.3 1.59 9.1477e-41
4.22 6.3 2.04 9.1477e-41
4.25 6.3 2.04 3.57e-43
4.28 6.3 2.04 3.57e-43
4.3 6.3 2.04 3.57e-43
4.32 6.3 2.04 3.57e-43
4.33 6.3 2.04 3.57e-43
4.35 6.3 2.04 3.57e-43
4.37 6.3 2.04 3.57e-43
4.38 6.3 2.04 3.57e-43
4.4 6.3 2.04 3.57e-43
4.42 6.3 3.07 9.1477e-41
4.43 6.3 3.17 9.1477e-41
4.45 6.3 3.18 9.1477e-41
4.46 6.3 3.21 9.1477e-41
4.49 6.3 3.22 9.1477e-41
4.51 6.3 3.23 9.1477e-41
4.53 6.3 3.23 9.1477e-41
4.55 6.3 3.25 9.1477e-41
4.56 6.3 3.3 9.1477e-41
4.58 6.3 3.31 9.1477e-41
4.6 6.3 3.31 9.1477e-41
4.62 6.3 3.31 9.1477e-41
4.64 6.3 3.31 9.1477e-41
4.66 6.3 3.32 9.1477e-41
4.68 6.3 3.34 9.1477e-41
4.71 6.3 3.33 9.1477e-41
4.73 6.3 3.34 9.1477e-41
4.75 6.3 3.33 9.1477e-41
4.77 6.3 3.34 9.1477e-41
4.8 6.3 3.34 9.1477e-41
4.82 6.3 3.34 9.1477e-41
4.84 6.3 3.35 9.1477e-41
4.86 6.3 3.36 9.1477e-41
4.88 6.3 3.35 9.1477e-41
4.91 6.3 3.35 9.1477e-41
4.93 6.3 3.35 9.1477e-41
4.95 6.3 3.36 9.1477e-41
4.98 6.3 3.33 9.1477e-41
5.02 6.3 3.3 9.1477e-41
5.05 6.3 3.3 9.1477e-41
5.07 6.3 3.31 9.1477e-41
5.1 6.3 3.3 9.1477e-41
5.12 6.3 3.31 9.1477e-41
5.14 6.3 3.31 9.1477e-41
5.17 6.3 3.31 9.1477e-41
5.19 6.3 3.32 9.1477e-41
5.22 6.3 3.31 9.1477e-41
5.24 6.3 3.32 9.1477e-41
5.27 6.3 3.33 9.1477e-41
5.3 6.3 3.33 9.1477e-41
5.32 6.3 3.33 9.1477e-41
5.35 6.3 3.32 9.1477e-41
5.38 6.3 3.32 9.1477e-41
5.4 6.3 3.33 9.1477e-41
5.43 6.3 3.33 9.1477e-41
5.46 6.3 3.32 9.1477e-41
5.49 6.3 3.33 9.1477e-41
5.52 6.3 3.32 9.1477e-41
5.55 6.3 3.32 9.1477e-41
5.57 6.3 3.33 9.1477e-41
5.61 6.3 3.33 9.1477e-41
5.63 6.3 3.33 9.1477e-41
5.67 6.3 3.32 9.1477e-41
5.7 6.3 3.32 9.1477e-41
5.73 6.3 3.32 9.1477e-41
5.77 6.3 3.32 9.1477e-41
5.79 6.3 3.32 9.1477e-41
5.84 6.3 3.3 9.1477e-41
5.86 6.3 3.32 9.1477e-41
5.9 6.3 3.31 9.1477e-41
5.94 6.3 3.31 9.1477e-41
5.98 6.3 3.31 9.1477e-41
6.02 6.3 3.31 9.1477e-41
6.06 6.3 3.29 9.1477e-41
6.1 6.3 3.29 9.1477e-41
6.14 6.3 3.29 9.1477e-41
6.16 6.3 3.31 9.1477e-41
6.17 6.3 3.34 9.1477e-41
6.18 6.3 3.37 9.1477e-41
6.23 6.3 3.35 9.1477e-41
6.28 6.3 3.35 9.1477e-41
6.32 6.3 3.34 9.1477e-41
6.37 6.3 3.33 9.1477e-41
6.43 6.3 3.32 9.1477e-41
6.48 6.3 3.3 9.1477e-41
4.2 6.32 1.59 9.1477e-41
4.22 6.32 2.04 9.1477e-41
4.25 6.32 2.04 3.57e-43
4.28 6.32 2.04 3.57e-43
4.3 6.32 2.04 3.57e-43
4.32 6.32 2.04 3.57e-43
4.33 6.32 2.04 3.57e-43
4.35 6.32 2.04 3.57e-43
4.37 6.32 2.04 3.57e-43
4.38 6.32 2.04 3.57e-43
4.4 6.32 2.04 3.57e-43
4.42 6.32 3.07 9.1477e-41
4.43 6.32 3.17 9.1477e-41
4.45 6.32 3.19 9.1477e-41
4.46 6.32 3.22 9.1477e-41
4.48 6.32 3.23 9.1477e-41
4.51 6.32 3.23 9.1477e-41
4.53 6.32 3.22 9.1477e-41
4.55 6.32 3.24 9.1477e-41
4.56 6.32 3.31 9.1477e-41
4.58 6.32 3.3 9.1477e-41
4.6 6.32 3.3 9.1477e-41
4.62 6.32 3.3 9.1477e-41
4.64 6.32 3.31 9.1477e-41
4.67 6.32 3.31 9.1477e-41
4.69 6.32 3.33 9.1477e-41
4.71 6.32 3.32 9.1477e-41
4.73 6.32 3.32 9.1477e-41
4.75 6.32 3.33 9.1477e-41
4.77 6.32 3.34 9.1477e-41
4.79 6.32 3.35 9.1477e-41
4.82 6.32 3.33 9.1477e-41
4.84 6.32 3.34 9.1477e-41
4.86 6.32 3.34 9.1477e-41
4.89 6.32 3.34 9.1477e-41
4.91 6.32 3.35 9.1477e-41
4.93 6.32 3.35 9.1477e-41
4.95 6.32 3.35 9.1477e-41
4.99 6.32 3.32 9.1477e-41
5.02 6.32 3.3 9.1477e-41
5.05 6.32 3.3 9.1477e-41
5.07 6.32 3.31 9.1477e-41
5.1 6.32 3.3 9.1477e-41
5.12 6.32 3.3 9.1477e-41
5.14 6.32 3.31 9.1477e-41
5.17 6.32 3.31 9.1477e-41
5.19 6.32 3.32 9.1477e-41
5.22 6.32 3.31 9.1477e-41
5.24 6.32 3.32 9.1477e-41
5.27 6.32 3.31 9.1477e-41
5.3 6.32 3.33 9.1477e-41
5.32 6.32 3.34 9.1477e-41
5.35 6.32 3.33 9.1477e-41
5.38 6.32 3.32 9.1477e-41
5.4 6.32 3.33 9.1477e-41
5.43 6.32 3.32 9.1477e-41
5.46 6.32 3.32 9.1477e-41
5.49 6.32 3.32 9.1477e-41
5.52 6.32 3.31 9.1477e-41
5.55 6.32 3.32 9.1477e-41
5.57 6.32 3.33 9.1477e-41
5.61 6.32 3.33 9.1477e-41
5.64 6.32 3.32 9.1477e-41
5.67 6.32 3.32 9.1477e-41
5.7 6.32 3.32 9.1477e-41
5.73 6.32 3.32 9.1477e-41
5.77 6.32 3.32 9.1477e-41
5.8 6.32 3.32 9.1477e-41
5.84 6.32 3.31 9.1477e-41
5.86 6.32 3.32 9.1477e-41
5.9 6.32 3.32 9.1477e-41
5.94 6.32 3.3 9.1477e-41
5.98 6.32 3.31 9.1477e-41
6.02 6.32 3.31 9.1477e-41
6.06 6.32 3.29 9.1477e-41
6.1 6.32 3.29 9.1477e-41
6.13 6.32 3.3 9.1477e-41
6.15 6.32 3.31 9.1477e-41
6.16 6.32 3.35 9.1477e-41
6.18 6.32 3.37 9.1477e-41
6.22 6.32 3.36 9.1477e-41
6.28 6.32 3.35 9.1477e-41
6.33 6.32 3.33 9.1477e-41
6.38 6.32 3.32 9.1477e-41
6.44 6.32 3.32 9.1477e-41
6.49 6.32 3.3 9.1477e-41
4.2 6.34 1.59 9.1477e-41
4.22 6.34 2.04 9.1477e-41
4.25 6.34 2.04 3.57e-43
4.28 6.34 2.04 3.57e-43
4.3 6.34 2.04 3.57e-43
4.32 6.34 2.04 3.57e-43
4.33 6.34 2.04 3.57e-43
4.35 6.34 2.04 3.57e-43
4.37 6.34 2.04 3.57e-43
4.38 6.34 2.04 3.57e-43
4.4 6.34 2.04 3.57e-43
4.42 6.34 3.07 9.1477e-41
4.43 6.34 3.18 9.1477e-41
4.45 6.34 3.18 9.1477e-41
4.46 6.34 3.22 9.1477e-41
4.48 6.34 3.23 9.1477e-41
4.51 6.34 3.23 9.1477e-41
4.53 6.34 3.23 9.1477e-41
4.55 6.34 3.25 9.1477e-41
4.56 6.34 3.29 9.1477e-41
4.58 6.34 3.29 9.1477e-41
4.6 6.34 3.3 9.1477e-41
4.63 6.34 3.29 9.1477e-41
4.65 6.34 3.3 9.1477e-41
4.67 6.34 3.3 9.1477e-41
4.69 6.34 3.31 9.1477e-41
4.71 6.34 3.31 9.1477e-41
4.73 6.34 3.32 9.1477e-41
4.76 6.34 3.32 9.1477e-41
4.78 6.34 3.32 9.1477e-41
4.8 6.34 3.33 9.1477e-41
4.82 6.34 3.33 9.1477e-41
4.84 6.34 3.33 9.1477e-41
4.86 6.34 3.34 9.1477e-41
4.89 6.34 3.33 9.1477e-41
4.91 6.34 3.33 9.1477e-41
4.93 6.34 3.35 9.1477e-41
4.96 6.34 3.34 9.1477e-41
4.99 6.34 3.32 9.1477e-41
5.02 6.34 3.3 9.1477e-41
5.05 6.34 3.31 9.1477e-41
5.07 6.34 3.31 9.1477e-41
5.1 6.34 3.3 9.1477e-41
5.12 6.34 3.31 9.1477e-41
5.14 6.34 3.31 9.1477e-41
5.17 6.34 3.31 9.1477e-41
5.19 6.34 3.31 9.1477e-41
5.22 6.34 3.31 9.1477e-41
5.24 6.34 3.32 9.1477e-41
5.27 6.34 3.32 9.1477e-41
5.3 6.34 3.32 9.1477e-41
5.32 6.34 3.33 9.1477e-41
5.35 6.34 3.32 9.1477e-41
5.38 6.34 3.32 9.1477e-41
5.4 6.34 3.34 9.1477e-41
5.43 6.34 3.33 9.1477e-41
5.46 6.34 3.32 9.1477e-41
5.49 6.34 3.32 9.1477e-41
5.52 6.34 3.32 9.1477e-41
5.55 6.34 3.32 9.1477e-41
5.58 6.34 3.32 9.1477e-41
5.61 6.34 3.33 9.1477e-41
5.64 6.34 3.32 9.1477e-41
5.66 6.34 3.33 9.1477e-41
5.7 6.34 3.33 9.1477e-41
5.73 6.34 3.32 9.1477e-41
5.77 6.34 3.32 9.1477e-41
5.8 6.34 3.32 9.1477e-41
5.83 6.34 3.32 9.1477e-41
5.86 6.34 3.32 9.1477e-41
5.9 6.34 3.32 9.1477e-41
5.94 6.34 3.3 9.1477e-41
5.98 6.34 3.31 9.1477e-41
6.02 6.34 3.31 9.1477e-41
6.06 6.34 3.3 9.1477e-41
6.09 6.34 3.3 9.1477e-41
6.14 6.34 3.28 9.1477e-41
6.16 6.34 3.31 9.1477e-41
6.16 6.34 3.35 9.1477e-41
6.19 6.34 3.36 9.1477e-41
6.23 6.34 3.35 9.1477e-41
6.28 6.34 3.35 9.1477e-41
6.34 6.34 3.33 9.1477e-41
6.39 6.34 3.32 9.1477e-41
6.44 6.34 3.32 9.1477e-41
6.48 6.34 3.31 9.1477e-41
4.2 6.36 1.6 9.1477e-41
4.22 6.36 2.04 9.1477e-41
4.25 6.36 2.04 3.57e-43
4.28 6.36 2.04 3.57e-43
4.3 6.36 2.04 3.57e-43
4.32 6.36 2.04 3.57e-43
4.33 6.36 2.04 3.57e-43
4.35 6.36 2.04 3.57e-43
4.37 6.36 2.04 3.57e-43
4.38 6.36 2.04 3.57e-43
4.4 6.36 2.04 3.57e-43
4.42 6.36 3.07 9.1477e-41
4.43 6.36 3.18 9.1477e-41
4.45 6.36 3.19 9.1477e-41
4.46 6.36 3.22 9.1477e-41
4.48 6.36 3.23 9.1477e-41
4.51 6.36 3.22 9.1477e-41
4.53 6.36 3.23 9.1477e-41
4.55 6.36 3.25 9.1477e-41
4.57 6.36 3.26 9.1477e-41
4.59 6.36 3.27 9.1477e-41
4.61 6.36 3.27 9.1477e-41
4.63 6.36 3.27 9.1477e-41
4.65 6.36 3.28 9.1477e-41
4.67 6.36 3.28 9.1477e-41
4.69 6.36 3.29 9.1477e-41
4.71 6.36 3.3 9.1477e-41
4.74 6.36 3.29 9.1477e-41
4.76 6.36 3.31 9.1477e-41
4.78 6.36 3.31 9.1477e-41
4.81 6.36 3.31 9.1477e-41
4.83 6.36 3.31 9.1477e-41
4.85 6.36 3.31 9.1477e-41
4.87 6.36 3.32 9.1477e-41
4.89 6.36 3.32 9.1477e-41
4.92 6.36 3.32 9.1477e-41
4.94 6.36 3.32 9.1477e-41
4.96 6.36 3.33 9.1477e-41
5 6.36 3.3 9.1477e-41
5.02 6.36 3.3 9.1477e-41
5.05 6.36 3.31 9.1477e-41
5.07 6.36 3.31 9.1477e-41
5.09 6.36 3.31 9.1477e-41
5.12 6.36 3.31 9.1477e-41
5.15 6.36 3.3 9.1477e-41
5.16 6.36 3.32 9.1477e-41
5.19 6.36 3.31 9.1477e-41
5.22 6.36 3.31 9.1477e-41
5.24 6.36 3.32 9.1477e-41
5.27 6.36 3.32 9.1477e-41
5.3 6.36 3.33 9.1477e-41
5.33 6.36 3.32 9.1477e-41
5.35 6.36 3.33 9.1477e-41
5.38 6.36 3.32 9.1477e-41
5.4 6.36 3.33 9.1477e-41
5.43 6.36 3.32 9.1477e-41
5.46 6.36 3.32 9.1477e-41
5.49 6.36 3.32 9.1477e-41
5.52 6.36 3.32 9.1477e-41
5.54 6.36 3.33 9.1477e-41
5.57 6.36 3.33 9.1477e-41
5.61 6.36 3.33 9.1477e-41
5.64 6.36 3.32 9.1477e-41
5.67 6.36 3.32 9.1477e-41
5.7 6.36 3.32 9.1477e-41
5.73 6.36 3.32 9.1477e-41
5.77 6.36 3.32 9.1477e-41
5.8 6.36 3.32 9.1477e-41
5.83 6.36 3.32 9.1477e-41
5.87 6.36 3.31 9.1477e-41
5.9 6.36 3.32 9.1477e-41
5.94 6.36 3.3 9.1477e-41
5.98 6.36 3.31 9.1477e-41
6.02 6.36 3.3 9.1477e-41
6.06 6.36 3.29 9.1477e-41
6.1 6.36 3.29 9.1477e-41
6.14 6.36 3.29 9.1477e-41
6.15 6.36 3.31 9.1477e-41
6.17 6.36 3.34 9.1477e-41
6.18 6.36 3.37 9.1477e-41
6.23 6.36 3.35 9.1477e-41
6.28 6.36 3.35 9.1477e-41
6.33 6.36 3.33 9.1477e-41
6.38 6.36 3.32 9.1477e-41
6.44 6.36 3.32 9.1477e-41
6.49 6.36 3.3 9.1477e-41
4.2 6.38 1.59 9.1477e-41
4.22 6.38 2.04 9.1477e-41
4.25 6.38 2.04 3.57e-43
4.28 6.38 2.04 3.57e-43
4.3 6.38 2.04 3.57e-43
4.32 6.38 2.04 3.57e-43
4.33 6.38 2.04 3.57e-43
4.35 6.38 2.04 3.57e-43
4.37 6.38 2.04 3.57e-43
4.38 6.38 2.04 3.57e-43
4.4 6.38 2.04 3.57e-43
4.42 6.38 3.07 9.1477e-41
4.43 6.38 3.18 9.1477e-41
4.45 6.38 3.18 9.1477e-41
4.46 6.38 3.22 9.1477e-41
4.48 6.38 3.23 9.1477e-41
4.51 6.38 3.22 9.1477e-41
4.53 6.38 3.23 9.1477e-41
4.55 6.38 3.24 9.1477e-41
4.57 6.38 3.25 9.1477e-41
4.59 6.38 3.26 9.1477e-41
4.61 6.38 3.26 9.1477e-41
4.63 6.38 3.26 9.1477e-41
4.66 6.38 3.27 9.1477e-41
4.68 6.38 3.27 9.1477e-41
4.7 6.38 3.27 9.1477e-41
4.72 6.38 3.27 9.1477e-41
4.74 6.38 3.29 9.1477e-41
4.76 6.38 3.3 9.1477e-41
4.79 6.38 3.29 9.1477e-41
4.81 6.38 3.3 9.1477e-41
4.83 6.38 3.3 9.1477e-41
4.85 6.38 3.31 9.1477e-41
4.88 6.38 3.3 9.1477e-41
4.9 6.38 3.31 9.1477e-41
4.92 6.38 3.3 9.1477e-41
4.95 6.38 3.3 9.1477e-41
4.97 6.38 3.3 9.1477e-41
5 6.38 3.3 9.1477e-41
5.02 6.38 3.3 9.1477e-41
5.05 6.38 3.3 9.1477e-41
5.07 6.38 3.31 9.1477e-41
5.1 6.38 3.3 9.1477e-41
5.12 6.38 3.3 9.1477e-41
5.14 6.38 3.31 9.1477e-41
5.17 6.38 3.31 9.1477e-41
5.19 6.38 3.31 9.1477e-41
5.22 6.38 3.31 9.1477e-41
5.24 6.38 3.32 9.1477e-41
5.27 6.38 3.32 9.1477e-41
5.3 6.38 3.33 9.1477e-41
5.32 6.38 3.33 9.1477e-41
5.35 6.38 3.33 9.1477e-41
5.38 6.38 3.32 9.1477e-41
5.4 6.38 3.33 9.1477e-41
5.43 6.38 3.33 9.1477e-41
5.45 6.38 3.33 9.1477e-41
5.49 6.38 3.33 9.1477e-41
5.52 6.38 3.32 9.1477e-41
5.54 6.38 3.33 9.1477e-41
5.57 6.38 3.33 9.1477e-41
5.61 6.38 3.33 9.1477e-41
5.64 6.38 3.32 9.1477e-41
5.67 6.38 3.32 9.1477e-41
5.7 6.38 3.33 9.1477e-41
5.73 6.38 3.32 9.1477e-41
5.77 6.38 3.32 9.1477e-41
5.8 6.38 3.32 9.1477e-41
5.83 6.38 3.32 9.1477e-41
5.86 6.38 3.32 9.1477e-41
5.9 6.38 3.32 9.1477e-41
5.94 6.38 3.31 9.1477e-41
5.98 6.38 3.31 9.1477e-41
6.02 6.38 3.3 9.1477e-41
6.06 6.38 3.29 9.1477e-41
6.1 6.38 3.29 9.1477e-41
6.14 6.38 3.29 9.1477e-41
6.15 6.38 3.31 9.1477e-41
6.17 6.38 3.34 9.1477e-41
6.19 6.38 3.36 9.1477e-41
6.24 6.38 3.35 9.1477e-41
6.28 6.38 3.34 9.1477e-41
6.34 6.38 3.33 9.1477e-41
6.38 6.38 3.32 9.1477e-41
6.44 6.38 3.32 9.1477e-41
6.49 6.38 3.3 9.1477e-41
4.2 6.4 1.6 9.1477e-41
4.22 6.4 2.05 9.1477e-41
4.25 6.4 2.05 3.57e-43
4.28 6.4 2.05 3.57e-43
4.3 6.4 2.05 3.57e-43
4.32 6.4 2.05 3.57e-43
4.33 6.4 2.05 3.57e-43
4.35 6.4 2.05 3.57e-43
4.37 6.4 2.05 3.57e-43
4.38 6.4 2.05 3.57e-43
4.4 6.4 2.05 3.57e-43
4.42 6.4 3.07 9.1477e-41
4.43 6.4 3.18 9.1477e-41
4.45 6.4 3.19 9.1477e-41
4.46 6.4 3.21 9.1477e-41
4.48 6.4 3.23 9.1477e-41
4.51 6.4 3.23 9.1477e-41
4.53 6.4 3.23 9.1477e-41
4.55 6.4 3.23 9.1477e-41
4.57 6.4 3.24 9.1477e-41
4.59 6.4 3.25 9.1477e-41
4.61 6.4 3.24 9.1477e-41
4.64 6.4 3.24 9.1477e-41
4.66 6.4 3.26 9.1477e-41
4.68 6.4 3.26 9.1477e-41
4.7 6.4 3.26 9.1477e-41
4.72 6.4 3.27 9.1477e-41
4.75 6.4 3.26 9.1477e-41
4.77 6.4 3.29 9.1477e-41
4.79 6.4 3.27 9.1477e-41
4.81 6.4 3.28 9.1477e-41
4.83 6.4 3.29 9.1477e-41
4.86 6.4 3.29 9.1477e-41
4.88 6.4 3.29 9.1477e-41
4.9 6.4 3.29 9.1477e-41
4.93 6.4 3.28 9.1477e-41
4.95 6.4 3.3 9.1477e-41
4.97 6.4 3.29 9.1477e-41
5 6.4 3.29 9.1477e-41
5.02 6.4 3.3 9.1477e-41
5.05 6.4 3.29 9.1477e-41
5.07 6.4 3.31 9.1477e-41
5.09 6.4 3.31 9.1477e-41
5.12 6.4 3.31 9.1477e-41
5.14 6.4 3.31 9.1477e-41
5.16 6.4 3.32 9.1477e-41
5.19 6.4 3.31 9.1477e-41
5.22 6.4 3.31 9.1477e-41
5.24 6.4 3.32 9.1477e-41
5.27 6.4 3.32 9.1477e-41
5.3 6.4 3.33 9.1477e-41
5.32 6.4 3.33 9.1477e-41
5.35 6.4 3.32 9.1477e-41
5.38 6.4 3.32 9.1477e-41
5.4 6.4 3.33 9.1477e-41
5.43 6.4 3.33 9.1477e-41
5.46 6.4 3.32 9.1477e-41
5.49 6.4 3.32 9.1477e-41
5.52 6.4 3.32 9.1477e-41
5.55 6.4 3.32 9.1477e-41
5.57 6.4 3.33 9.1477e-41
5.61 6.4 3.33 9.1477e-41
5.64 6.4 3.32 9.1477e-41
5.67 6.4 3.32 9.1477e-41
5.7 6.4 3.32 9.1477e-41
5.73 6.4 3.32 9.1477e-41
5.77 6.4 3.32 9.1477e-41
5.79 6.4 3.32 9.1477e-41
5.83 6.4 3.31 9.1477e-41
5.86 6.4 3.32 9.1477e-41
5.9 6.4 3.31 9.1477e-41
5.94 6.4 3.3 9.1477e-41
5.98 6.4 3.31 9.1477e-41
6.02 6.4 3.3 9.1477e-41
6.06 6.4 3.29 9.1477e-41
6.1 6.4 3.29 9.1477e-41
6.14 6.4 3.29 9.1477e-41
6.16 6.4 3.31 9.1477e-41
6.17 6.4 3.34 9.1477e-41
6.19 6.4 3.35 9.1477e-41
6.25 6.4 3.33 9.1477e-41
6.3 6.4 3.33 9.1477e-41
6.34 6.4 3.32 9.1477e-41
6.39 6.4 3.31 9.1477e-41
6.44 6.4 3.31 9.1477e-41
6.49 6.4 3.3 9.1477e-41
4.2 6.42 1.59 9.1477e-41
4.22 6.42 2.05 9.1477e-41
4.25 6.42 2.05 3.57e-43
4.28 6.42 2.05 3.57e-43
4.3 6.42 2.05 3.57e-43
4.32 6.42 2.05 3.57e-43
4.33 6.42 2.05 3.57e-43
4.35 6.42 2.05 3.57e-43
4.37 6.42 2.05 3.57e-43
4.38 6.42 2.05 3.57e-43
4.4 6.42 2.05 3.57e-43
4.42 6.42 3.07 9.1477e-41
4.43 6.42 3.17 9.1477e-41
4.45 6.42 3.18 9.1477e-41
4.46 6.42 3.21 9.1477e-41
4.48 6.42 3.23 9.1477e-41
4.51 6.42 3.22 9.1477e-41
4.53 6.42 3.22 9.1477e-41
4.55 6.42 3.23 9.1477e-41
4.57 6.42 3.23 9.1477e-41
4.6 6.42 3.24 9.1477e-41
4.61 6.42 3.24 9.1477e-41
4.64 6.42 3.23 9.1477e-41
4.66 6.42 3.26 9.1477e-41
4.68 6.42 3.25 9.1477e-41
4.7 6.42 3.26 9.1477e-41
4.72 6.42 3.26 9.1477e-41
4.74 6.42 3.27 9.1477e-41
4.77 6.42 3.28 9.1477e-41
4.79 6.42 3.27 9.1477e-41
4.81 6.42 3.29 9.1477e-41
4.84 6.42 3.28 9.1477e-41
4.86 6.42 3.28 9.1477e-41
4.88 6.42 3.28 9.1477e-41
4.9 6.42 3.29 9.1477e-41
4.93 6.42 3.28 9.1477e-41
4.95 6.42 3.29 9.1477e-41
4.97 6.42 3.29 9.1477e-41
5 6.42 3.29 9.1477e-41
5.02 6.42 3.3 9.1477e-41
5.05 6.42 3.3 9.1477e-41
5.07 6.42 3.31 9.1477e-41
5.09 6.42 3.31 9.1477e-41
5.12 6.42 3.31 9.1477e-41
5.14 6.42 3.31 9.1477e-41
5.17 6.42 3.31 9.1477e-41
5.19 6.42 3.31 9.1477e-41
5.22 6.42 3.31 9.1477e-41
5.24 6.42 3.32 9.1477e-41
5.27 6.42 3.32 9.1477e-41
5.3 6.42 3.33 9.1477e-41
5.32 6.42 3.33 9.1477e-41
5.35 6.42 3.32 9.1477e-41
5.38 6.42 3.32 9.1477e-41
5.4 6.42 3.33 9.1477e-41
5.43 6.42 3.32 9.1477e-41
5.46 6.42 3.32 9.1477e-41
5.49 6.42 3.33 9.1477e-41
5.51 6.42 3.33 9.1477e-41
5.54 6.42 3.33 9.1477e-41
5.58 6.42 3.32 9.1477e-41
5.61 6.42 3.33 9.1477e-41
5.64 6.42 3.32 9.1477e-41
5.67 6.42 3.32 9.1477e-41
5.7 6.42 3.32 9.1477e-41
5.73 6.42 3.32 9.1477e-41
5.77 6.42 3.32 9.1477e-41
5.8 6.42 3.32 9.1477e-41
5.83 6.42 3.32 9.1477e-41
5.86 6.42 3.32 9.1477e-41
5.9 6.42 3.31 9.1477e-41
5.95 6.42 3.3 9.1477e-41
5.98 6.42 3.31 9.1477e-41
6.02 6.42 3.3 9.1477e-41
6.06 6.42 3.3 9.1477e-41
6.1 6.42 3.29 9.1477e-41
6.14 6.42 3.29 9.1477e-41
6.16 6.42 3.31 9.1477e-41
6.17 6.42 3.34 9.1477e-41
6.21 6.42 3.33 9.1477e-41
6.26 6.42 3.33 9.1477e-41
6.31 6.42 3.32 9.1477e-41
6.36 6.42 3.31 9.1477e-41
6.41 6.42 3.3 9.1477e-41
6.46 6.42 3.3 9.1477e-41
6.51 6.42 3.28 9.1477e-41
4.2 6.44 1.56 9.1477e-41
4.22 6.44 2.04 9.1477e-41
4.25 6.44 2.04 3.57e-43
4.28 6.44 2.04 3.57e-43
4.3 6.44 2.04 3.57e-43
4.32 6.44 2.04 3.57e-43
4.33 6.44 2.04 3.57e-43
4.35 6.44 2.04 3.57e-43
4.37 6.44 2.04 3.57e-43
4.38 6.44 2.04 3.57e-43
4.4 6.44 2.04 3.57e-43
4.42 6.44 3.07 9.1477e-41
4.43 6.44 3.17 9.1477e-41
4.45 6.44 3.19 9.1477e-41
4.46 6.44 3.22 9.1477e-41
4.48 6.44 3.23 9.1477e-41
4.51 6.44 3.23 9.1477e-41
4.53 6.44 3.23 9.1477e-41
4.55 6.44 3.23 9.1477e-41
4.57 6.44 3.23 9.1477e-41
4.59 6.44 3.25 9.1477e-41
4.62 6.44 3.23 9.1477e-41
4.64 6.44 3.23 9.1477e-41
4.66 6.44 3.25 9.1477e-41
4.68 6.44 3.24 9.1477e-41
4.7 6.44 3.26 9.1477e-41
4.73 6.44 3.26 9.1477e-41
4.75 6.44 3.26 9.1477e-41
4.77 6.44 3.27 9.1477e-41
4.79 6.44 3.27 9.1477e-41
4.82 6.44 3.27 9.1477e-41
4.84 6.44 3.28 9.1477e-41
4.86 6.44 3.28 9.1477e-41
4.88 6.44 3.29 9.1477e-41
4.9 6.44 3.29 9.1477e-41
4.93 6.44 3.29 9.1477e-41
4.95 6.44 3.29 9.1477e-41
4.98 6.44 3.28 9.1477e-41
5 6.44 3.3 9.1477e-41
5.02 6.44 3.3 9.1477e-41
5.05 6.44 3.3 9.1477e-41
5.07 6.44 3.31 9.1477e-41
5.09 6.44 3.31 9.1477e-41
5.12 6.44 3.31 9.1477e-41
5.14 6.44 3.31 9.1477e-41
5.16 6.44 3.32 9.1477e-41
5.19 6.44 3.32 9.1477e-41
5.22 6.44 3.31 9.1477e-41
5.24 6.44 3.32 9.1477e-41
5.27 6.44 3.32 9.1477e-41
5.3 6.44 3.32 9.1477e-41
5.32 6.44 3.33 9.1477e-41
5.35 6.44 3.33 9.1477e-41
5.37 6.44 3.33 9.1477e-41
5.4 6.44 3.33 9.1477e-41
5.43 6.44 3.33 9.1477e-41
5.46 6.44 3.32 9.1477e-41
5.49 6.44 3.32 9.1477e-41
5.52 6.44 3.32 9.1477e-41
5.55 6.44 3.32 9.1477e-41
5.57 6.44 3.33 9.1477e-41
5.61 6.44 3.33 9.1477e-41
5.63 6.44 3.33 9.1477e-41
5.67 6.44 3.32 9.1477e-41
5.7 6.44 3.33 9.1477e-41
5.73 6.44 3.32 9.1477e-41
5.76 6.44 3.33 9.1477e-41
5.8 6.44 3.32 9.1477e-41
5.83 6.44 3.32 9.1477e-41
5.86 6.44 3.32 9.1477e-41
5.9 6.44 3.31 9.1477e-41
5.94 6.44 3.3 9.1477e-41
5.98 6.44 3.31 9.1477e-41
6.02 6.44 3.31 9.1477e-41
6.06 6.44 3.3 9.1477e-41
6.1 6.44 3.29 9.1477e-41
6.14 6.44 3.29 9.1477e-41
6.16 6.44 3.31 9.1477e-41
6.19 6.44 3.32 9.1477e-41
6.23 6.44 3.31 9.1477e-41
6.28 6.44 3.31 9.1477e-41
6.33 6.44 3.29 9.1477e-41
6.37 6.44 3.29 9.1477e-41
6.42 6.44 3.28 9.1477e-41
6.48 6.44 3.28 9.1477e-41
6.53 6.44 3.26 9.1477e-41
4.2 6.46 1.58 9.1477e-41
4.22 6.46 2.05 9.1477e-41
4.25 6.46 2.05 3.57e-43
4.28 6.46 2.05 3.57e-43
4.3 6.46 2.05 3.57e-43
4.32 6.46 2.05 3.57e-43
4.33 6.46 2.05 3.57e-43
4.35 6.46 2.05 3.57e-43
4.37 6.46 2.05 3.57e-43
4.38 6.46 2.05 3.57e-43
4.4 6.46 2.05 3.57e-43
4.42 6.46 3.07 9.1477e-41
4.43 6.46 3.18 9.1477e-41
4.45 6.46 3.18 9.1477e-41
4.46 6.46 3.22 9.1477e-41
4.48 6.46 3.23 9.1477e-41
4.51 6.46 3.22 9.1477e-41
4.53 6.46 3.22 9.1477e-41
4.55 6.46 3.23 9.1477e-41
4.57 6.46 3.23 9.1477e-41
4.59 6.46 3.25 9.1477e-41
4.62 6.46 3.23 9.1477e-41
4.64 6.46 3.23 9.1477e-41
4.66 6.46 3.25 9.1477e-41
4.68 6.46 3.24 9.1477e-41
4.7 6.46 3.26 9.1477e-41
4.73 6.46 3.26 9.1477e-41
4.75 6.46 3.25 9.1477e-41
4.77 6.46 3.27 9.1477e-41
4.8 6.46 3.26 9.1477e-41
4.81 6.46 3.28 9.1477e-41
4.84 6.46 3.28 9.1477e-41
4.86 6.46 3.28 9.1477e-41
4.88 6.46 3.28 9.1477e-41
4.9 6.46 3.3 9.1477e-41
4.93 6.46 3.28 9.1477e-41
4.95 6.46 3.29 9.1477e-41
4.97 6.46 3.29 9.1477e-41
5 6.46 3.29 9.1477e-41
5.02 6.46 3.3 9.1477e-41
5.05 6.46 3.3 9.1477e-41
5.07 6.46 3.31 9.1477e-41
5.1 6.46 3.3 9.1477e-41
5.12 6.46 3.31 9.1477e-41
5.14 6.46 3.31 9.1477e-41
5.17 6.46 3.31 9.1477e-41
5.19 6.46 3.32 9.1477e-41
5.22 6.46 3.31 9.1477e-41
5.24 6.46 3.32 9.1477e-41
5.27 6.46 3.32 9.1477e-41
5.3 6.46 3.32 9.1477e-41
5.32 6.46 3.33 9.1477e-41
5.35 6.46 3.33 9.1477e-41
5.38 6.46 3.32 9.1477e-41
5.41 6.46 3.32 9.1477e-41
5.43 6.46 3.32 9.1477e-41
5.46 6.46 3.32 9.1477e-41
5.49 6.46 3.33 9.1477e-41
5.51 6.46 3.33 9.1477e-41
5.54 6.46 3.33 9.1477e-41
5.57 6.46 3.33 9.1477e-41
5.61 6.46 3.32 9.1477e-41
5.64 6.46 3.32 9.1477e-41
5.66 6.46 3.33 9.1477e-41
5.7 6.46 3.33 9.1477e-41
5.73 6.46 3.32 9.1477e-41
5.76 6.46 3.33 9.1477e-41
5.8 6.46 3.32 9.1477e-41
5.83 6.46 3.32 9.1477e-41
5.86 6.46 3.32 9.1477e-41
5.9 6.46 3.31 9.1477e-41
5.94 6.46 3.3 9.1477e-41
5.98 6.46 3.31 9.1477e-41
6.02 6.46 3.31 9.1477e-41
6.06 6.46 3.29 9.1477e-41
6.1 6.46 3.29 9.1477e-41
6.14 6.46 3.29 9.1477e-41
6.16 6.46 3.3 9.1477e-41
6.21 6.46 3.29 9.1477e-41
6.25 6.46 3.28 9.1477e-41
6.3 6.46 3.27 9.1477e-41
6.35 6.46 3.27 9.1477e-41
6.39 6.46 3.27 9.1477e-41
6.44 6.46 3.27 9.1477e-41
6.5 6.46 3.25 9.1477e-41
6.56 6.46 3.23 9.1477e-41
4.2 6.48 1.57 9.1477e-41
4.22 6.48 2.06 9.1477e-41
4.25 6.48 2.06 3.57e-43
4.28 6.48 2.06 3.57e-43
4.3 6.48 2.06 3.57e-43
4.32 6.48 2.06 3.57e-43
4.33 6.48 2.06 3.57e-43
4.35 6.48 2.06 3.57e-43
4.37 6.48 2.06 3.57e-43
4.38 6.48 2.06 3.57e-43
4.4 6.48 2.06 3.57e-43
4.42 6.48 3.07 9.1477e-41
4.43 6.48 3.18 9.1477e-41
4.45 6.48 3.18 9.1477e-41
4.46 6.48 3.22 9.1477e-41
4.49 6.48 3.22 9.1477e-41
4.51 6.48 3.22 9.1477e-41
4.53 6.48 3.22 9.1477e-41
4.55 6.48 3.24 9.1477e-41
4.57 6.48 3.24 9.1477e-41
4.59 6.48 3.25 9.1477e-41
4.62 6.48 3.23 9.1477e-41
4.64 6.48 3.23 9.1477e-41
4.66 6.48 3.25 9.1477e-41
4.68 6.48 3.25 9.1477e-41
4.7 6.48 3.26 9.1477e-41
4.73 6.48 3.26 9.1477e-41
4.75 6.48 3.25 9.1477e-41
4.77 6.48 3.27 9.1477e-41
4.79 6.48 3.27 9.1477e-41
4.82 6.48 3.27 9.1477e-41
4.84 6.48 3.27 9.1477e-41
4.86 6.48 3.27 9.1477e-41
4.88 6.48 3.29 9.1477e-41
4.9 6.48 3.29 9.1477e-41
4.93 6.48 3.28 9.1477e-41
4.95 6.48 3.28 9.1477e-41
4.98 6.48 3.28 9.1477e-41
5 6.48 3.3 9.1477e-41
5.02 6.48 3.3 9.1477e-41
5.04 6.48 3.31 9.1477e-41
5.07 6.48 3.31 9.1477e-41
5.1 6.48 3.3 9.1477e-41
5.12 6.48 3.31 9.1477e-41
5.14 6.48 3.31 9.1477e-41
5.17 6.48 3.31 9.1477e-41
5.19 6.48 3.31 9.1477e-41
5.22 6.48 3.31 9.1477e-41
5.24 6.48 3.32 9.1477e-41
5.27 6.48 3.32 9.1477e-41
5.29 6.48 3.34 9.1477e-41
5.32 6.48 3.33 9.1477e-41
5.35 6.48 3.32 9.1477e-41
5.37 6.48 3.33 9.1477e-41
5.4 6.48 3.33 9.1477e-41
5.43 6.48 3.33 9.1477e-41
5.45 6.48 3.33 9.1477e-41
5.49 6.48 3.33 9.1477e-41
5.52 6.48 3.32 9.1477e-41
5.55 6.48 3.32 9.1477e-41
5.57 6.48 3.33 9.1477e-41
5.61 6.48 3.33 9.1477e-41
5.63 6.48 3.33 9.1477e-41
5.67 6.48 3.32 9.1477e-41
5.7 6.48 3.32 9.1477e-41
5.73 6.48 3.32 9.1477e-41
5.77 6.48 3.32 9.1477e-41
5.8 6.48 3.32 9.1477e-41
5.83 6.48 3.32 9.1477e-41
5.86 6.48 3.32 9.1477e-41
5.91 6.48 3.3 9.1477e-41
5.94 6.48 3.31 9.1477e-41
5.98 6.48 3.3 9.1477e-41
6.02 6.48 3.31 9.1477e-41
6.06 6.48 3.3 9.1477e-41
6.1 6.48 3.29 9.1477e-41
6.14 6.48 3.28 9.1477e-41
6.17 6.48 3.29 9.1477e-41
6.22 6.48 3.28 9.1477e-41
6.27 6.48 3.28 9.1477e-41
6.31 6.48 3.27 9.1477e-41
6.36 6.48 3.26 9.1477e-41
6.41 6.48 3.25 9.1477e-41
6.46 6.48 3.25 9.1477e-41
6.52 6.48 3.22 9.1477e-41
6.58 6.48 3.21 9.1477e-41
4.17 6.5 1.15 9.1477e-41
4.2 6.5 1.57 9.1477e-41
4.22 6.5 2.05 9.1477e-41
4.25 6.5 2.05 3.57e-43
4.28 6.5 2.05 3.57e-43
4.3 6.5 2.05 3.57e-43
4.32 6.5 2.05 3.57e-43
4.33 6.5 2.05 3.57e-43
4.35 6.5 2.05 3.57e-43
4.37 6.5 2.05 3.57e-43
4.38 6.5 2.05 3.57e-43
4.4 6.5 2.05 3.57e-43
4.42 6.5 3.07 9.1477e-41
4.43 6.5 3.18 9.1477e-41
4.45 6.5 3.19 9.1477e-41
4.46 6.5 3.21 9.1477e-41
4.48 6.5 3.23 9.1477e-41
4.51 6.5 3.23 9.1477e-41
4.53 6.5 3.22 9.1477e-41
4.55 6.5 3.23 9.1477e-41
4.57 6.5 3.22 9.1477e-41
4.59 6.5 3.25 9.1477e-41
4.61 6.5 3.24 9.1477e-41
4.64 6.5 3.24 9.1477e-41
4.66 6.5 3.25 9.1477e-41
4.68 6.5 3.25 9.1477e-41
4.7 6.5 3.25 9.1477e-41
4.72 6.5 3.26 9.1477e-41
4.75 6.5 3.25 9.1477e-41
4.77 6.5 3.27 9.1477e-41
4.79 6.5 3.27 9.1477e-41
4.82 6.5 3.27 9.1477e-41
4.83 6.5 3.29 9.1477e-41
4.86 6.5 3.28 9.1477e-41
4.88 6.5 3.29 9.1477e-41
4.91 6.5 3.28 9.1477e-41
4.93 6.5 3.28 9.1477e-41
4.95 6.5 3.28 9.1477e-41
4.98 6.5 3.28 9.1477e-41
5 6.5 3.3 9.1477e-41
5.03 6.5 3.29 9.1477e-41
5.05 6.5 3.3 9.1477e-41
5.07 6.5 3.31 9.1477e-41
5.09 6.5 3.31 9.1477e-41
5.12 6.5 3.3 9.1477e-41
5.14 6.5 3.31 9.1477e-41
5.17 6.5 3.31 9.1477e-41
5.19 6.5 3.31 9.1477e-41
5.22 6.5 3.31 9.1477e-41
5.24 6.5 3.32 9.1477e-41
5.27 6.5 3.32 9.1477e-41
5.3 6.5 3.33 9.1477e-41
5.32 6.5 3.33 9.1477e-41
5.35 6.5 3.33 9.1477e-41
5.38 6.5 3.32 9.1477e-41
5.4 6.5 3.33 9.1477e-41
5.43 6.5 3.32 9.1477e-41
5.46 6.5 3.32 9.1477e-41
5.49 6.5 3.33 9.1477e-41
5.52 6.5 3.32 9.1477e-41
5.54 6.5 3.33 9.1477e-41
5.58 6.5 3.32 9.1477e-41
5.61 6.5 3.33 9.1477e-41
5.63 6.5 3.33 9.1477e-41
5.66 6.5 3.33 9.1477e-41
5.7 6.5 3.33 9.1477e-41
5.73 6.5 3.32 9.1477e-41
5.76 6.5 3.33 9.1477e-41
5.8 6.5 3.32 9.1477e-41
5.83 6.5 3.32 9.1477e-41
5.86 6.5 3.32 9.1477e-41
5.9 6.5 3.31 9.1477e-41
5.94 6.5 3.31 9.1477e-41
5.98 6.5 3.31 9.1477e-41
6.02 6.5 3.31 9.1477e-41
6.06 6.5 3.3 9.1477e-41
6.1 6.5 3.29 9.1477e-41
6.14 6.5 3.28 9.1477e-41
6.17 6.5 3.29 9.1477e-41
6.22 6.5 3.28 9.1477e-41
6.27 6.5 3.28 9.1477e-41
6.31 6.5 3.27 9.1477e-41
6.37 6.5 3.25 9.1477e-41
6.42 6.5 3.24 9.1477e-41
6.47 6.5 3.23 9.1477e-41
6.53 6.5 3.22 9.1477e-41
6.59 6.5 3.2 9.1477e-41
4.17 6.52 1.19 9.1477e-41
4.2 6.52 1.58 9.1477e-41
4.22 6.52 2.07 9.1477e-41
4.25 6.52 2.07 3.57e-43
4.28 6.52 2.07 3.57e-43
4.3 6.52 2.07 3.57e-43
4.32 6.52 2.07 3.57e-43
4.33 6.52 2.07 3.57e-43
4.35 6.52 2.07 3.57e-43
4.37 6.52 2.07 3.57e-43
4.38 6.52 2.07 3.57e-43
4.4 6.52 2.07 3.57e-43
4.42 6.52 3.07 9.1477e-41
4.43 6.52 3.18 9.1477e-41
4.45 6.52 3.18 9.1477e-41
4.46 6.52 3.23 9.1477e-41
4.48 6.52 3.23 9.1477e-41
4.51 6.52 3.22 9.1477e-41
4.53 6.52 3.22 9.1477e-41
4.55 6.52 3.23 9.1477e-41
4.57 6.52 3.24 9.1477e-41
4.59 6.52 3.25 9.1477e-41
4.62 6.52 3.23 9.1477e-41
4.64 6.52 3.23 9.1477e-41
4.66 6.52 3.25 9.1477e-41
4.68 6.52 3.25 9.1477e-41
4.7 6.52 3.26 9.1477e-41
4.73 6.52 3.26 9.1477e-41
4.75 6.52 3.26 9.1477e-41
4.77 6.52 3.27 9.1477e-41
4.79 6.52 3.27 9.1477e-41
4.81 6.52 3.28 9.1477e-41
4.83 6.52 3.29 9.1477e-41
4.86 6.52 3.27 9.1477e-41
4.88 6.52 3.28 9.1477e-41
4.9 6.52 3.29 9.1477e-41
4.93 6.52 3.28 9.1477e-41
4.95 6.52 3.29 9.1477e-41
4.98 6.52 3.28 9.1477e-41
5 6.52 3.3 9.1477e-41
5.03 6.52 3.29 9.1477e-41
5.05 6.52 3.3 9.1477e-41
5.07 6.52 3.31 9.1477e-41
5.1 6.52 3.3 9.1477e-41
5.12 6.52 3.31 9.1477e-41
5.14 6.52 3.31 9.1477e-41
5.17 6.52 3.31 9.1477e-41
5.19 6.52 3.32 9.1477e-41
5.21 6.52 3.32 9.1477e-41
5.24 6.52 3.32 9.1477e-41
5.27 6.52 3.32 9.1477e-41
5.3 6.52 3.33 9.1477e-41
5.32 6.52 3.33 9.1477e-41
5.35 6.52 3.33 9.1477e-41
5.38 6.52 3.32 9.1477e-41
5.4 6.52 3.33 9.1477e-41
5.43 6.52 3.32 9.1477e-41
5.45 6.52 3.33 9.1477e-41
5.49 6.52 3.33 9.1477e-41
5.52 6.52 3.32 9.1477e-41
5.54 6.52 3.33 9.1477e-41
5.57 6.52 3.33 9.1477e-41
5.61 6.52 3.33 9.1477e-41
5.64 6.52 3.32 9.1477e-41
5.66 6.52 3.33 9.1477e-41
5.7 6.52 3.32 9.1477e-41
5.73 6.52 3.32 9.1477e-41
5.76 6.52 3.33 9.1477e-41
5.79 6.52 3.32 9.1477e-41
5.83 6.52 3.31 9.1477e-41
5.87 6.52 3.31 9.1477e-41
5.9 6.52 3.31 9.1477e-41
5.94 6.52 3.3 9.1477e-41
5.98 6.52 3.31 9.1477e-41
6.02 6.52 3.31 9.1477e-41
6.06 6.52 3.3 9.1477e-41
6.1 6.52 3.29 9.1477e-41
6.14 6.52 3.29 9.1477e-41
6.17 6.52 3.29 9.1477e-41
6.21 6.52 3.29 9.1477e-41
6.27 6.52 3.28 9.1477e-41
6.32 6.52 3.26 9.1477e-41
6.37 6.52 3.25 9.1477e-41
6.42 6.52 3.24 9.1477e-41
6.48 6.52 3.22 9.1477e-41
6.54 6.52 3.21 9.1477e-41
6.6 6.52 3.2 9.1477e-41
4.17 6.54 1.19 9.1477e-41
4.2 6.54 1.56 9.1477e-41
4.22 6.54 2.06 9.1477e-41
4.25 6.54 2.06 3.57e-43
4.28 6.54 2.06 3.57e-43
4.3 6.54 2.06 3.57e-43
4.32 6.54 2.06 3.57e-43
4.33 6.54 2.06 3.57e-43
4.35 6.54 2.06 3.57e-43
4.37 6.54 2.06 3.57e-43
4.38 6.54 2.06 3.57e-43
4.4 6.54 2.06 3.57e-43
4.42 6.54 3.07 9.1477e-41
4.43 6.54 3.18 9.1477e-41
4.45 6.54 3.19 9.1477e-41
4.46 6.54 3.22 9.1477e-41
4.48 6.54 3.23 9.1477e-41
4.51 6.54 3.22 9.1477e-41
4.53 6.54 3.23 9.1477e-41
4.55 6.54 3.24 9.1477e-41
4.57 6.54 3.23 9.1477e-41
4.6 6.54 3.24 9.1477e-41
4.62 6.54 3.23 9.1477e-41
4.64 6.54 3.24 9.1477e-41
4.66 6.54 3.25 9.1477e-41
4.68 6.54 3.25 9.1477e-41
4.7 6.54 3.26 9.1477e-41
4.72 6.54 3.26 9.1477e-41
4.74 6.54 3.27 9.1477e-41
4.77 6.54 3.27 9.1477e-41
4.79 6.54 3.27 9.1477e-41
4.81 6.54 3.28 9.1477e-41
4.83 6.54 3.29 9.1477e-41
4.86 6.54 3.27 9.1477e-41
4.88 6.54 3.28 9.1477e-41
4.91 6.54 3.28 9.1477e-41
4.93 6.54 3.28 9.1477e-41
4.95 6.54 3.28 9.1477e-41
4.98 6.54 3.28 9.1477e-41
5 6.54 3.3 9.1477e-41
5.03 6.54 3.29 9.1477e-41
5.05 6.54 3.3 9.1477e-41
5.07 6.54 3.31 9.1477e-41
5.09 6.54 3.31 9.1477e-41
5.12 6.54 3.31 9.1477e-41
5.15 6.54 3.3 9.1477e-41
5.16 6.54 3.32 9.1477e-41
5.19 6.54 3.31 9.1477e-41
5.22 6.54 3.31 9.1477e-41
5.24 6.54 3.32 9.1477e-41
5.27 6.54 3.32 9.1477e-41
5.3 6.54 3.33 9.1477e-41
5.32 6.54 3.33 9.1477e-41
5.35 6.54 3.33 9.1477e-41
5.38 6.54 3.32 9.1477e-41
5.4 6.54 3.34 9.1477e-41
5.43 6.54 3.32 9.1477e-41
5.45 6.54 3.33 9.1477e-41
5.49 6.54 3.33 9.1477e-41
5.52 6.54 3.32 9.1477e-41
5.54 6.54 3.33 9.1477e-41
5.57 6.54 3.33 9.1477e-41
5.61 6.54 3.33 9.1477e-41
5.64 6.54 3.32 9.1477e-41
5.66 6.54 3.33 9.1477e-41
5.7 6.54 3.33 9.1477e-41
5.73 6.54 3.32 9.1477e-41
5.76 6.54 3.33 9.1477e-41
5.8 6.54 3.31 9.1477e-41
5.83 6.54 3.32 9.1477e-41
5.86 6.54 3.33 9.1477e-41
5.9 6.54 3.31 9.1477e-41
5.94 6.54 3.31 9.1477e-41
5.98 6.54 3.31 9.1477e-41
6.02 6.54 3.31 9.1477e-41
6.06 6.54 3.3 9.1477e-41
6.09 6.54 3.3 9.1477e-41
6.13 6.54 3.3 9.1477e-41
6.18 6.54 3.28 9.1477e-41
6.23 6.54 3.27 9.1477e-41
6.27 6.54 3.27 9.1477e-41
6.32 6.54 3.26 9.1477e-41
6.37 6.54 3.25 9.1477e-41
6.42 6.54 3.24 9.1477e-41
6.48 6.54 3.22 9.1477e-41
6.54 6.54 3.21 9.1477e-41
6.6 6.54 3.2 9.1477e-41
4.17 6.56 1.2 9.1477e-41
4.2 6.56 1.56 9.1477e-41
4.22 6.56 2.07 9.1477e-41
4.25 6.56 2.07 3.57e-43
4.28 6.56 2.07 3.57e-43
4.3 6.56 2.07 3.57e-43
4.32 6.56 2.07 3.57e-43
4.33 6.56 2.07 3.57e-43
4.35 6.56 2.07 3.57e-43
4.37 6.56 2.07 3.57e-43
4.38 6.56 2.07 3.57e-43
4.4 6.56 2.07 3.57e-43
4.42 6.56 3.07 9.1477e-41
4.43 6.56 3.18 9.1477e-41
4.45 6.56 3.18 9.1477e-41
4.46 6.56 3.23 9.1477e-41
4.48 6.56 3.23 9.1477e-41
4.51 6.56 3.23 9.1477e-41
4.53 6.56 3.23 9.1477e-41
4.55 6.56 3.23 9.1477e-41
4.57 6.56 3.24 9.1477e-41
4.59 6.56 3.25 9.1477e-41
4.61 6.56 3.24 9.1477e-41
4.64 6.56 3.23 9.1477e-41
4.66 6.56 3.25 9.1477e-41
4.68 6.56 3.25 9.1477e-41
4.7 6.56 3.26 9.1477e-41
4.73 6.56 3.26 9.1477e-41
4.75 6.56 3.26 9.1477e-41
4.77 6.56 3.28 9.1477e-41
4.79 6.56 3.27 9.1477e-41
4.81 6.56 3.28 9.1477e-41
4.84 6.56 3.28 9.1477e-41
4.86 6.56 3.27 9.1477e-41
4.89 6.56 3.27 9.1477e-41
4.9 6.56 3.29 9.1477e-41
4.93 6.56 3.28 9.1477e-41
4.95 6.56 3.28 9.1477e-41
4.98 6.56 3.28 9.1477e-41
5 6.56 3.29 9.1477e-41
5.02 6.56 3.3 9.1477e-41
5.05 6.56 3.3 9.1477e-41
5.07 6.56 3.31 9.1477e-41
5.1 6.56 3.3 9.1477e-41
5.12 6.56 3.31 9.1477e-41
5.14 6.56 3.31 9.1477e-41
5.16 6.56 3.32 9.1477e-41
5.19 6.56 3.31 9.1477e-41
5.21 6.56 3.32 9.1477e-41
5.24 6.56 3.32 9.1477e-41
5.27 6.56 3.33 9.1477e-41
5.3 6.56 3.33 9.1477e-41
5.32 6.56 3.33 9.1477e-41
5.35 6.56 3.32 9.1477e-41
5.37 6.56 3.33 9.1477e-41
5.4 6.56 3.33 9.1477e-41
5.43 6.56 3.32 9.1477e-41
5.46 6.56 3.32 9.1477e-41
5.49 6.56 3.33 9.1477e-41
5.51 6.56 3.33 9.1477e-41
5.55 6.56 3.32 9.1477e-41
5.57 6.56 3.33 9.1477e-41
5.61 6.56 3.33 9.1477e-41
5.63 6.56 3.33 9.1477e-41
5.67 6.56 3.32 9.1477e-41
5.7 6.56 3.33 9.1477e-41
5.73 6.56 3.32 9.1477e-41
5.76 6.56 3.33 9.1477e-41
5.79 6.56 3.32 9.1477e-41
5.83 6.56 3.31 9.1477e-41
5.87 6.56 3.31 9.1477e-41
5.9 6.56 3.31 9.1477e-41
5.94 6.56 3.31 9.1477e-41
5.98 6.56 3.31 9.1477e-41
6.01 6.56 3.31 9.1477e-41
6.06 6.56 3.3 9.1477e-41
6.09 6.56 3.3 9.1477e-41
6.13 6.56 3.3 9.1477e-41
6.18 6.56 3.28 9.1477e-41
6.23 6.56 3.26 9.1477e-41
6.27 6.56 3.28 9.1477e-41
6.31 6.56 3.27 9.1477e-41
6.37 6.56 3.25 9.1477e-41
6.42 6.56 3.24 9.1477e-41
6.48 6.56 3.22 9.1477e-41
6.54 6.56 3.21 9.1477e-41
6.6 6.56 3.2 9.1477e-41
4.17 6.58 1.2 9.1477e-41
4.2 6.58 1.58 9.1477e-41
4.22 6.58 2.07 9.1477e-41
4.25 6.58 2.07 3.57e-43
4.28 6.58 2.07 3.57e-43
4.3 6.58 2.07 3.57e-43
4.32 6.58 2.07 3.57e-43
4.33 6.58 2.07 3.57e-43
4.35 6.58 2.07 3.57e-43
4.37 6.58 2.07 3.57e-43
4.38 6.58 2.07 3.57e-43
4.4 6.58 2.07 3.57e-43
4.42 6.58 3.07 9.1477e-41
4.43 6.58 3.17 9.1477e-41
4.45 6.58 3.18 9.1477e-41
4.46 6.58 3.22 9.1477e-41
4.48 6.58 3.23 9.1477e-41
4.51 6.58 3.23 9.1477e-41
4.53 6.58 3.23 9.1477e-41
4.55 6.58 3.23 9.1477e-41
4.57 6.58 3.23 9.1477e-41
4.59 6.58 3.25 9.1477e-41
4.61 6.58 3.24 9.1477e-41
4.64 6.58 3.24 9.1477e-41
4.66 6.58 3.25 9.1477e-41
4.68 6.58 3.25 9.1477e-41
4.7 6.58 3.26 9.1477e-41
4.73 6.58 3.26 9.1477e-41
4.75 6.58 3.26 9.1477e-41
4.77 6.58 3.28 9.1477e-41
4.79 6.58 3.27 9.1477e-41
4.81 6.58 3.28 9.1477e-41
4.84 6.58 3.28 9.1477e-41
4.86 6.58 3.28 9.1477e-41
4.88 6.58 3.28 9.1477e-41
4.91 6.58 3.28 9.1477e-41
4.93 6.58 3.28 9.1477e-41
4.96 6.58 3.27 9.1477e-41
4.97 6.58 3.29 9.1477e-41
5 6.58 3.3 9.1477e-41
5.03 6.58 3.29 9.1477e-41
5.05 6.58 3.3 9.1477e-41
5.07 6.58 3.31 9.1477e-41
5.1 6.58 3.3 9.1477e-41
5.12 6.58 3.31 9.1477e-41
5.14 6.58 3.31 9.1477e-41
5.17 6.58 3.31 9.1477e-41
5.19 6.58 3.32 9.1477e-41
5.22 6.58 3.31 9.1477e-41
5.24 6.58 3.32 9.1477e-41
5.27 6.58 3.32 9.1477e-41
5.3 6.58 3.33 9.1477e-41
5.32 6.58 3.33 9.1477e-41
5.35 6.58 3.33 9.1477e-41
5.37 6.58 3.33 9.1477e-41
5.4 6.58 3.33 9.1477e-41
5.43 6.58 3.33 9.1477e-41
5.46 6.58 3.32 9.1477e-41
5.49 6.58 3.33 9.1477e-41
5.52 6.58 3.31 9.1477e-41
5.54 6.58 3.33 9.1477e-41
5.58 6.58 3.32 9.1477e-41
5.61 6.58 3.33 9.1477e-41
5.64 6.58 3.32 9.1477e-41
5.67 6.58 3.32 9.1477e-41
5.7 6.58 3.33 9.1477e-41
5.73 6.58 3.32 9.1477e-41
5.77 6.58 3.32 9.1477e-41
5.8 6.58 3.32 9.1477e-41
5.83 6.58 3.32 9.1477e-41
5.86 6.58 3.32 9.1477e-41
5.9 6.58 3.31 9.1477e-41
5.94 6.58 3.3 9.1477e-41
5.97 6.58 3.32 9.1477e-41
6.02 6.58 3.31 9.1477e-41
6.06 6.58 3.3 9.1477e-41
6.1 6.58 3.29 9.1477e-41
6.14 6.58 3.29 9.1477e-41
6.18 6.58 3.28 9.1477e-41
6.23 6.58 3.27 9.1477e-41
6.27 6.58 3.28 9.1477e-41
6.32 6.58 3.26 9.1477e-41
6.37 6.58 3.25 9.1477e-41
6.42 6.58 3.24 9.1477e-41
6.48 6.58 3.22 9.1477e-41
6.53 6.58 3.22 9.1477e-41
6.6 6.58 3.2 9.1477e-41
4.17 6.6 1.2 9.1477e-41
4.2 6.6 1.6 9.1477e-41
4.22 6.6 2.06 9.1477e-41
4.25 6.6 2.06 3.57e-43
4.28 6.6 2.06 3.57e-43
4.3 6.6 2.06 3.57e-43
4.32 6.6 2.06 3.57e-43
4.33 6.6 2.06 3.57e-43
4.35 6.6 2.06 3.57e-43
4.37 6.6 2.06 3.57e-43
4.38 6.6 2.06 3.57e-43
4.4 6.6 2.06 3.57e-43
4.42 6.6 3.07 9.1477e-41
4.43 6.6 3.17 9.1477e-41
4.45 6.6 3.19 9.1477e-41
4.46 6.6 3.22 9.1477e-41
4.48 6.6 3.23 9.1477e-41
4.51 6.6 3.22 9.1477e-41
4.53 6.6 3.23 9.1477e-41
4.55 6.6 3.23 9.1477e-41
4.57 6.6 3.23 9.1477e-41
4.59 6.6 3.25 9.1477e-41
4.62 6.6 3.23 9.1477e-41
4.64 6.6 3.23 9.1477e-41
4.66 6.6 3.25 9.1477e-41
4.68 6.6 3.25 9.1477e-41
4.7 6.6 3.25 9.1477e-41
4.73 6.6 3.26 9.1477e-41
4.75 6.6 3.26 9.1477e-41
4.77 6.6 3.27 9.1477e-41
4.79 6.6 3.27 9.1477e-41
4.81 6.6 3.28 9.1477e-41
4.84 6.6 3.28 9.1477e-41
4.86 6.6 3.28 9.1477e-41
4.88 6.6 3.28 9.1477e-41
4.91 6.6 3.28 9.1477e-41
4.93 6.6 3.28 9.1477e-41
4.95 6.6 3.28 9.1477e-41
4.98 6.6 3.28 9.1477e-41
5 6.6 3.29 9.1477e-41
5.02 6.6 3.3 9.1477e-41
5.05 6.6 3.3 9.1477e-41
5.08 6.6 3.3 9.1477e-41
5.1 6.6 3.3 9.1477e-41
5.12 6.6 3.31 9.1477e-41
5.14 6.6 3.32 9.1477e-41
5.16 6.6 3.32 9.1477e-41
5.19 6.6 3.31 9.1477e-41
5.22 6.6 3.31 9.1477e-41
5.24 6.6 3.32 9.1477e-41
5.27 6.6 3.32 9.1477e-41
5.3 6.6 3.33 9.1477e-41
5.32 6.6 3.33 9.1477e-41
5.35 6.6 3.32 9.1477e-41
5.38 6.6 3.32 9.1477e-41
5.4 6.6 3.33 9.1477e-41
5.43 6.6 3.33 9.1477e-41
5.45 6.6 3.33 9.1477e-41
5.49 6.6 3.33 9.1477e-41
5.52 6.6 3.32 9.1477e-41
5.54 6.6 3.33 9.1477e-41
5.57 6.6 3.33 9.1477e-41
5.61 6.6 3.33 9.1477e-41
5.63 6.6 3.33 9.1477e-41
5.66 6.6 3.33 9.1477e-41
5.7 6.6 3.33 9.1477e-41
5.73 6.6 3.32 9.1477e-41
5.76 6.6 3.33 9.1477e-41
5.8 6.6 3.32 9.1477e-41
5.83 6.6 3.33 9.1477e-41
5.86 6.6 3.33 9.1477e-41
5.9 6.6 3.32 9.1477e-41
5.94 6.6 3.31 9.1477e-41
5.98 6.6 3.31 9.1477e-41
6.02 6.6 3.31 9.1477e-41
6.06 6.6 3.3 9.1477e-41
6.09 6.6 3.3 9.1477e-41
6.14 6.6 3.29 9.1477e-41
6.18 6.6 3.28 9.1477e-41
6.23 6.6 3.26 9.1477e-41
6.27 6.6 3.28 9.1477e-41
6.31 6.6 3.27 9.1477e-41
6.36 6.6 3.26 9.1477e-41
6.43 6.6 3.23 9.1477e-41
6.47 6.6 3.24 9.1477e-41
6.54 6.6 3.21 9.1477e-41
6.6 6.6 3.2 9.1477e-41
4.17 6.62 1.2 9.1477e-41
4.2 6.62 1.55 9.1477e-41
4.22 6.62 2.06 9.1477e-41
4.25 6.62 2.06 3.57e-43
4.28 6.62 2.06 3.57e-43
4.3 6.62 2.06 3.57e-43
4.32 6.62 2.06 3.57e-43
4.33 6.62 2.06 3.57e-43
4.35 6.62 2.06 3.57e-43
4.37 6.62 2.06 3.57e-43
4.38 6.62 2.06 3.57e-43
4.4 6.62 3 9.1477e-41
4.41 6.62 3.08 9.1477e-41
4.43 6.62 3.17 9.1477e-41
4.45 6.62 3.19 9.1477e-41
4.46 6.62 3.22 9.1477e-41
4.48 6.62 3.24 9.1477e-41
4.51 6.62 3.23 9.1477e-41
4.53 6.62 3.23 9.1477e-41
4.55 6.62 3.23 9.1477e-41
4.57 6.62 3.24 9.1477e-41
4.59 6.62 3.25 9.1477e-41
4.62 6.62 3.23 9.1477e-41
4.64 6.62 3.23 9.1477e-41
4.66 6.62 3.25 9.1477e-41
4.68 6.62 3.25 9.1477e-41
4.7 6.62 3.26 9.1477e-41
4.72 6.62 3.26 9.1477e-41
4.75 6.62 3.26 9.1477e-41
4.77 6.62 3.27 9.1477e-41
4.79 6.62 3.27 9.1477e-41
4.82 6.62 3.27 9.1477e-41
4.83 6.62 3.29 9.1477e-41
4.86 6.62 3.28 9.1477e-41
4.88 6.62 3.28 9.1477e-41
4.9 6.62 3.29 9.1477e-41
4.93 6.62 3.28 9.1477e-41
4.95 6.62 3.28 9.1477e-41
4.97 6.62 3.29 9.1477e-41
5 6.62 3.29 9.1477e-41
5.02 6.62 3.3 9.1477e-41
5.04 6.62 3.31 9.1477e-41
5.07 6.62 3.31 9.1477e-41
5.1 6.62 3.3 9.1477e-41
5.12 6.62 3.31 9.1477e-41
5.14 6.62 3.32 9.1477e-41
5.17 6.62 3.31 9.1477e-41
5.19 6.62 3.32 9.1477e-41
5.22 6.62 3.31 9.1477e-41
5.24 6.62 3.32 9.1477e-41
5.27 6.62 3.32 9.1477e-41
5.29 6.62 3.34 9.1477e-41
5.32 6.62 3.33 9.1477e-41
5.35 6.62 3.33 9.1477e-41
5.38 6.62 3.32 9.1477e-41
5.4 6.62 3.33 9.1477e-41
5.43 6.62 3.33 9.1477e-41
5.46 6.62 3.32 9.1477e-41
5.49 6.62 3.33 9.1477e-41
5.51 6.62 3.33 9.1477e-41
5.54 6.62 3.33 9.1477e-41
5.57 6.62 3.33 9.1477e-41
5.6 6.62 3.34 9.1477e-41
5.63 6.62 3.33 9.1477e-41
5.67 6.62 3.32 9.1477e-41
5.7 6.62 3.32 9.1477e-41
5.73 6.62 3.32 9.1477e-41
5.77 6.62 3.32 9.1477e-41
5.79 6.62 3.32 9.1477e-41
5.83 6.62 3.31 9.1477e-41
5.86 6.62 3.32 9.1477e-41
5.9 6.62 3.31 9.1477e-41
5.94 6.62 3.31 9.1477e-41
5.98 6.62 3.31 9.1477e-41
6.02 6.62 3.31 9.1477e-41
6.05 6.62 3.31 9.1477e-41
6.09 6.62 3.3 9.1477e-41
6.14 6.62 3.29 9.1477e-41
6.18 6.62 3.28 9.1477e-41
6.23 6.62 3.27 9.1477e-41
6.27 6.62 3.27 9.1477e-41
6.32 6.62 3.26 9.1477e-41
6.37 6.62 3.25 9.1477e-41
6.42 6.62 3.24 9.1477e-41
6.48 6.62 3.22 9.1477e-41
6.54 6.62 3.21 9.1477e-41
6.6 6.62 3.2 9.1477e-41
4.17 6.64 1.17 9.1477e-41
4.2 6.64 1.52 9.1477e-41
4.22 6.64 2.06 9.1477e-41
4.25 6.64 2.06 3.57e-43
4.28 6.64 2.06 3.57e-43
4.3 6.64 2.06 3.57e-43
4.32 6.64 2.06 3.57e-43
4.33 6.64 2.06 3.57e-43
4.35 6.64 2.06 3.57e-43
4.37 6.64 2.06 3.57e-43
4.38 6.64 2.06 3.57e-43
4.4 6.64 3 9.1477e-41
4.41 6.64 3.09 9.1477e-41
4.43 6.64 3.17 9.1477e-41
4.45 6.64 3.18 9.1477e-41
4.46 6.64 3.22 9.1477e-41
4.48 6.64 3.23 9.1477e-41
4.51 6.64 3.23 9.1477e-41
4.53 6.64 3.23 9.1477e-41
4.55 6.64 3.24 9.1477e-41
4.57 6.64 3.22 9.1477e-41
4.59 6.64 3.25 9.1477e-41
4.61 6.64 3.24 9.1477e-41
4.64 6.64 3.23 9.1477e-41
4.66 6.64 3.25 9.1477e-41
4.68 6.64 3.25 9.1477e-41
4.7 6.64 3.26 9.1477e-41
4.73 6.64 3.26 9.1477e-41
4.74 6.64 3.27 9.1477e-41
4.77 6.64 3.27 9.1477e-41
4.79 6.64 3.28 9.1477e-41
4.82 6.64 3.27 9.1477e-41
4.83 6.64 3.29 9.1477e-41
4.86 6.64 3.28 9.1477e-41
4.88 6.64 3.28 9.1477e-41
4.9 6.64 3.29 9.1477e-41
4.93 6.64 3.28 9.1477e-41
4.95 6.64 3.29 9.1477e-41
4.98 6.64 3.28 9.1477e-41
5 6.64 3.3 9.1477e-41
5.02 6.64 3.3 9.1477e-41
5.05 6.64 3.3 9.1477e-41
5.07 6.64 3.31 9.1477e-41
5.09 6.64 3.31 9.1477e-41
5.12 6.64 3.31 9.1477e-41
5.14 6.64 3.31 9.1477e-41
5.17 6.64 3.31 9.1477e-41
5.19 6.64 3.31 9.1477e-41
5.22 6.64 3.31 9.1477e-41
5.24 6.64 3.32 9.1477e-41
5.27 6.64 3.32 9.1477e-41
5.3 6.64 3.33 9.1477e-41
5.32 6.64 3.33 9.1477e-41
5.35 6.64 3.32 9.1477e-41
5.38 6.64 3.32 9.1477e-41
5.4 6.64 3.33 9.1477e-41
5.43 6.64 3.33 9.1477e-41
5.46 6.64 3.32 9.1477e-41
5.49 6.64 3.33 9.1477e-41
5.51 6.64 3.33 9.1477e-41
5.55 6.64 3.32 9.1477e-41
5.57 6.64 3.33 9.1477e-41
5.61 6.64 3.33 9.1477e-41
5.64 6.64 3.32 9.1477e-41
5.67 6.64 3.32 9.1477e-41
5.7 6.64 3.33 9.1477e-41
5.73 6.64 3.32 9.1477e-41
5.77 6.64 3.32 9.1477e-41
5.79 6.64 3.32 9.1477e-41
5.83 6.64 3.31 9.1477e-41
5.86 6.64 3.32 9.1477e-41
5.9 6.64 3.31 9.1477e-41
5.94 6.64 3.31 9.1477e-41
5.98 6.64 3.31 9.1477e-41
6.01 6.64 3.31 9.1477e-41
6.06 6.64 3.3 9.1477e-41
6.09 6.64 3.3 9.1477e-41
6.14 6.64 3.29 9.1477e-41
6.18 6.64 3.28 9.1477e-41
6.23 6.64 3.27 9.1477e-41
6.27 6.64 3.28 9.1477e-41
6.32 6.64 3.26 9.1477e-41
6.37 6.64 3.25 9.1477e-41
6.42 6.64 3.24 9.1477e-41
6.48 6.64 3.22 9.1477e-41
6.53 6.64 3.22 9.1477e-41
6.6 6.64 3.2 9.1477e-41
4.2 6.66 1.5 9.1477e-41
4.22 6.66 2.06 9.1477e-41
4.25 6.66 2.06 3.57e-43
4.28 6.66 2.06 3.57e-43
4.3 6.66 2.06 3.57e-43
4.32 6.66 2.06 3.57e-43
4.33 6.66 2.06 3.57e-43
4.35 6.66 2.06 3.57e-43
4.37 6.66 2.06 3.57e-43
4.38 6.66 2.06 3.57e-43
4.4 6.66 3 9.1477e-41
4.41 6.66 3.09 9.1477e-41
4.43 6.66 3.18 9.1477e-41
4.45 6.66 3.18 9.1477e-41
4.46 6.66 3.22 9.1477e-41
4.48 6.66 3.23 9.1477e-41
4.51 6.66 3.23 9.1477e-41
4.53 6.66 3.22 9.1477e-41
4.55 6.66 3.24 9.1477e-41
4.57 6.66 3.23 9.1477e-41
4.59 6.66 3.25 9.1477e-41
4.61 6.66 3.24 9.1477e-41
4.64 6.66 3.24 9.1477e-41
4.66 6.66 3.26 9.1477e-41
4.68 6.66 3.26 9.1477e-41
4.7 6.66 3.25 9.1477e-41
4.72 6.66 3.26 9.1477e-41
4.75 6.66 3.25 9.1477e-41
4.77 6.66 3.28 9.1477e-41
4.79 6.66 3.27 9.1477e-41
4.81 6.66 3.28 9.1477e-41
4.84 6.66 3.28 9.1477e-41
4.86 6.66 3.28 9.1477e-41
4.88 6.66 3.28 9.1477e-41
4.91 6.66 3.28 9.1477e-41
4.93 6.66 3.28 9.1477e-41
4.95 6.66 3.28 9.1477e-41
4.97 6.66 3.29 9.1477e-41
