# .PCD v.7 - Point Cloud Data file format
VERSION .7
FIELDS x y z rgb
SIZE 4 4 4 4
TYPE F F F F
WIDTH 1878
HEIGHT 1
POINTS 1878
DATA ascii
2.98 3.12 3.3 9.1477e-41
3 3.12 3.29 9.1477e-41
3.03 3.12 3.29 9.1477e-41
3.05 3.12 3.28 9.1477e-41
3.08 3.12 3.28 9.1477e-41
3.1 3.12 3.27 9.1477e-41
3.12 3.12 3.27 9.1477e-41
3.14 3.12 3.27 9.1477e-41
3.16 3.12 3.26 9.1477e-41
3.18 3.12 3.25 9.1477e-41
3.21 3.12 3.25 9.1477e-41
3.23 3.12 3.23 9.1477e-41
3.25 3.12 3.24 9.1477e-41
3.27 3.12 3.23 9.1477e-41
3.29 3.12 3.19 9.1477e-41
3.3 3.12 3.18 9.1477e-41
3.31 3.12 3.18 3.57e-43
3.31 3.12 3.18 3.57e-43
3.33 3.12 3.18 3.57e-43
3.34 3.12 3.18 3.57e-43
3.35 3.12 3.18 3.57e-43
3.35 3.12 3.18 3.57e-43
3.36 3.12 3.18 3.57e-43
3.37 3.12 3.18 3.57e-43
3.38 3.12 3.18 3.57e-43
3.38 3.12 3.18 3.57e-43
3.39 3.12 3.18 3.57e-43
3.39 3.12 2.22 9.1477e-41
3.39 3.12 2.22 3.57e-43
3.37 3.12 1.78 9.1477e-41
3.37 3.12 1.78 3.57e-43
3.37 3.12 1.78 3.57e-43
3.35 3.12 0.69 9.1477e-41
1.13 3.15 3.29 9.1477e-41
1.19 3.15 3.29 9.1477e-41
1.26 3.15 3.31 9.1477e-41
1.32 3.15 3.31 9.1477e-41
1.39 3.15 3.33 9.1477e-41
1.44 3.15 3.33 9.1477e-41
1.49 3.15 3.34 9.1477e-41
1.54 3.15 3.35 9.1477e-41
1.59 3.15 3.35 9.1477e-41
1.64 3.15 3.36 9.1477e-41
1.69 3.15 3.36 9.1477e-41
1.73 3.15 3.36 9.1477e-41
1.77 3.15 3.36 9.1477e-41
1.81 3.15 3.36 9.1477e-41
1.86 3.15 3.37 9.1477e-41
1.9 3.15 3.37 9.1477e-41
1.93 3.15 3.37 9.1477e-41
1.97 3.15 3.36 9.1477e-41
2 3.15 3.36 9.1477e-41
2.03 3.15 3.36 9.1477e-41
2.08 3.15 3.37 9.1477e-41
2.11 3.15 3.37 9.1477e-41
2.15 3.15 3.36 9.1477e-41
2.19 3.15 3.37 9.1477e-41
2.21 3.15 3.36 9.1477e-41
2.25 3.15 3.37 9.1477e-41
2.28 3.15 3.36 9.1477e-41
2.32 3.15 3.37 9.1477e-41
2.34 3.15 3.36 9.1477e-41
2.38 3.15 3.37 9.1477e-41
2.41 3.15 3.37 9.1477e-41
2.44 3.15 3.36 9.1477e-41
2.47 3.15 3.37 9.1477e-41
2.5 3.15 3.36 9.1477e-41
2.53 3.15 3.36 9.1477e-41
2.56 3.15 3.36 9.1477e-41
2.59 3.15 3.36 9.1477e-41
2.61 3.15 3.35 9.1477e-41
2.64 3.15 3.35 9.1477e-41
2.67 3.15 3.36 9.1477e-41
2.69 3.15 3.34 9.1477e-41
2.71 3.15 3.34 9.1477e-41
2.74 3.15 3.34 9.1477e-41
2.77 3.15 3.34 9.1477e-41
2.79 3.15 3.33 9.1477e-41
2.82 3.15 3.33 9.1477e-41
2.84 3.15 3.33 9.1477e-41
2.86 3.15 3.32 9.1477e-41
2.89 3.15 3.31 9.1477e-41
2.91 3.15 3.31 9.1477e-41
2.94 3.15 3.31 9.1477e-41
2.96 3.15 3.31 9.1477e-41
2.98 3.15 3.3 9.1477e-41
3 3.15 3.28 9.1477e-41
3.03 3.15 3.29 9.1477e-41
3.05 3.15 3.28 9.1477e-41
3.08 3.15 3.28 9.1477e-41
3.09 3.15 3.26 9.1477e-41
3.12 3.15 3.27 9.1477e-41
3.14 3.15 3.27 9.1477e-41
3.16 3.15 3.26 9.1477e-41
3.18 3.15 3.25 9.1477e-41
3.21 3.15 3.25 9.1477e-41
3.23 3.15 3.24 9.1477e-41
3.25 3.15 3.24 9.1477e-41
3.27 3.15 3.23 9.1477e-41
3.29 3.15 3.19 9.1477e-41
3.3 3.15 3.18 9.1477e-41
3.31 3.15 3.18 3.57e-43
3.31 3.15 3.18 3.57e-43
3.33 3.15 3.18 3.57e-43
3.34 3.15 3.18 3.57e-43
3.35 3.15 3.18 3.57e-43
3.35 3.15 3.18 3.57e-43
3.36 3.15 3.18 3.57e-43
3.37 3.15 3.18 3.57e-43
3.38 3.15 3.18 3.57e-43
3.38 3.15 3.18 3.57e-43
3.39 3.15 3.18 3.57e-43
3.39 3.15 2.22 9.1477e-41
3.39 3.15 2.22 3.57e-43
3.37 3.15 2.22 3.57e-43
3.37 3.15 2.22 3.57e-43
3.37 3.15 1.09 9.1477e-41
1.2 3.18 3.3 9.1477e-41
1.26 3.18 3.31 9.1477e-41
1.33 3.18 3.32 9.1477e-41
1.38 3.18 3.32 9.1477e-41
1.44 3.18 3.34 9.1477e-41
1.49 3.18 3.34 9.1477e-41
1.55 3.18 3.35 9.1477e-41
1.59 3.18 3.35 9.1477e-41
1.65 3.18 3.37 9.1477e-41
1.69 3.18 3.36 9.1477e-41
1.73 3.18 3.36 9.1477e-41
1.77 3.18 3.36 9.1477e-41
1.82 3.18 3.37 9.1477e-41
1.86 3.18 3.37 9.1477e-41
1.89 3.18 3.36 9.1477e-41
1.93 3.18 3.37 9.1477e-41
1.97 3.18 3.36 9.1477e-41
2.01 3.18 3.37 9.1477e-41
2.04 3.18 3.36 9.1477e-41
2.07 3.18 3.36 9.1477e-41
2.11 3.18 3.37 9.1477e-41
2.15 3.18 3.37 9.1477e-41
2.18 3.18 3.36 9.1477e-41
2.21 3.18 3.36 9.1477e-41
2.25 3.18 3.37 9.1477e-41
2.28 3.18 3.37 9.1477e-41
2.31 3.18 3.36 9.1477e-41
2.35 3.18 3.37 9.1477e-41
2.38 3.18 3.36 9.1477e-41
2.41 3.18 3.37 9.1477e-41
2.44 3.18 3.36 9.1477e-41
2.47 3.18 3.37 9.1477e-41
2.5 3.18 3.37 9.1477e-41
2.53 3.18 3.37 9.1477e-41
2.56 3.18 3.36 9.1477e-41
2.59 3.18 3.36 9.1477e-41
2.61 3.18 3.35 9.1477e-41
2.64 3.18 3.35 9.1477e-41
2.66 3.18 3.35 9.1477e-41
2.69 3.18 3.35 9.1477e-41
2.71 3.18 3.34 9.1477e-41
2.74 3.18 3.34 9.1477e-41
2.77 3.18 3.34 9.1477e-41
2.8 3.18 3.34 9.1477e-41
2.82 3.18 3.33 9.1477e-41
2.85 3.18 3.34 9.1477e-41
2.87 3.18 3.33 9.1477e-41
2.89 3.18 3.31 9.1477e-41
2.91 3.18 3.31 9.1477e-41
2.94 3.18 3.31 9.1477e-41
2.96 3.18 3.3 9.1477e-41
2.98 3.18 3.3 9.1477e-41
3 3.18 3.29 9.1477e-41
3.03 3.18 3.29 9.1477e-41
3.05 3.18 3.28 9.1477e-41
3.07 3.18 3.27 9.1477e-41
3.1 3.18 3.27 9.1477e-41
3.12 3.18 3.27 9.1477e-41
3.14 3.18 3.27 9.1477e-41
3.16 3.18 3.26 9.1477e-41
3.19 3.18 3.26 9.1477e-41
3.21 3.18 3.24 9.1477e-41
3.23 3.18 3.24 9.1477e-41
3.25 3.18 3.24 9.1477e-41
3.27 3.18 3.23 9.1477e-41
3.29 3.18 3.19 9.1477e-41
3.31 3.18 3.19 9.1477e-41
3.31 3.18 3.19 3.57e-43
3.31 3.18 3.19 3.57e-43
3.33 3.18 3.19 3.57e-43
3.34 3.18 3.19 3.57e-43
3.35 3.18 3.19 3.57e-43
3.35 3.18 3.19 3.57e-43
3.36 3.18 3.19 3.57e-43
3.37 3.18 3.19 3.57e-43
3.38 3.18 3.19 3.57e-43
3.38 3.18 3.19 3.57e-43
3.39 3.18 3.19 3.57e-43
3.39 3.18 2.22 9.1477e-41
3.39 3.18 2.22 3.57e-43
3.37 3.18 1.78 9.1477e-41
3.36 3.18 1.78 3.57e-43
3.37 3.18 1.09 9.1477e-41
1.13 3.21 3.29 9.1477e-41
1.2 3.21 3.3 9.1477e-41
1.26 3.21 3.31 9.1477e-41
1.32 3.21 3.31 9.1477e-41
1.38 3.21 3.32 9.1477e-41
1.44 3.21 3.34 9.1477e-41
1.49 3.21 3.34 9.1477e-41
1.55 3.21 3.35 9.1477e-41
1.59 3.21 3.35 9.1477e-41
1.64 3.21 3.36 9.1477e-41
1.69 3.21 3.36 9.1477e-41
1.73 3.21 3.36 9.1477e-41
1.77 3.21 3.36 9.1477e-41
1.82 3.21 3.37 9.1477e-41
1.85 3.21 3.36 9.1477e-41
1.9 3.21 3.37 9.1477e-41
1.93 3.21 3.37 9.1477e-41
1.97 3.21 3.36 9.1477e-41
2.01 3.21 3.37 9.1477e-41
2.04 3.21 3.36 9.1477e-41
2.08 3.21 3.37 9.1477e-41
2.11 3.21 3.37 9.1477e-41
2.15 3.21 3.37 9.1477e-41
2.17 3.21 3.35 9.1477e-41
2.21 3.21 3.36 9.1477e-41
2.25 3.21 3.37 9.1477e-41
2.28 3.21 3.37 9.1477e-41
2.32 3.21 3.37 9.1477e-41
2.35 3.21 3.37 9.1477e-41
2.38 3.21 3.36 9.1477e-41
2.41 3.21 3.37 9.1477e-41
2.44 3.21 3.36 9.1477e-41
2.47 3.21 3.37 9.1477e-41
2.5 3.21 3.36 9.1477e-41
2.53 3.21 3.36 9.1477e-41
2.56 3.21 3.36 9.1477e-41
2.58 3.21 3.35 9.1477e-41
2.61 3.21 3.35 9.1477e-41
2.63 3.21 3.34 9.1477e-41
2.66 3.21 3.35 9.1477e-41
2.69 3.21 3.35 9.1477e-41
2.71 3.21 3.34 9.1477e-41
2.74 3.21 3.34 9.1477e-41
2.77 3.21 3.34 9.1477e-41
2.79 3.21 3.33 9.1477e-41
2.81 3.21 3.32 9.1477e-41
2.84 3.21 3.33 9.1477e-41
2.87 3.21 3.33 9.1477e-41
2.89 3.21 3.31 9.1477e-41
2.91 3.21 3.31 9.1477e-41
2.94 3.21 3.31 9.1477e-41
2.96 3.21 3.3 9.1477e-41
2.98 3.21 3.3 9.1477e-41
3.01 3.21 3.3 9.1477e-41
3.03 3.21 3.29 9.1477e-41
3.05 3.21 3.28 9.1477e-41
3.07 3.21 3.27 9.1477e-41
3.1 3.21 3.27 9.1477e-41
3.12 3.21 3.27 9.1477e-41
3.14 3.21 3.27 9.1477e-41
3.16 3.21 3.26 9.1477e-41
3.18 3.21 3.25 9.1477e-41
3.21 3.21 3.25 9.1477e-41
3.23 3.21 3.25 9.1477e-41
3.26 3.21 3.25 9.1477e-41
3.27 3.21 3.23 9.1477e-41
3.29 3.21 3.2 9.1477e-41
3.31 3.21 3.19 9.1477e-41
3.3 3.21 3.19 3.57e-43
3.31 3.21 3.19 3.57e-43
3.33 3.21 3.19 3.57e-43
3.34 3.21 3.19 3.57e-43
3.35 3.21 3.19 3.57e-43
3.35 3.21 3.19 3.57e-43
3.36 3.21 3.19 3.57e-43
3.37 3.21 3.19 3.57e-43
3.38 3.21 3.19 3.57e-43
3.38 3.21 3.19 3.57e-43
3.39 3.21 3.19 3.57e-43
3.39 3.21 2.22 9.1477e-41
3.39 3.21 2.22 3.57e-43
3.37 3.21 2.22 3.57e-43
3.36 3.21 2.22 3.57e-43
3.37 3.21 1.09 9.1477e-41
1.19 3.24 3.29 9.1477e-41
1.26 3.24 3.31 9.1477e-41
1.32 3.24 3.31 9.1477e-41
1.38 3.24 3.32 9.1477e-41
1.44 3.24 3.34 9.1477e-41
1.49 3.24 3.34 9.1477e-41
1.54 3.24 3.35 9.1477e-41
1.6 3.24 3.36 9.1477e-41
1.64 3.24 3.36 9.1477e-41
1.69 3.24 3.36 9.1477e-41
1.73 3.24 3.36 9.1477e-41
1.78 3.24 3.37 9.1477e-41
1.82 3.24 3.37 9.1477e-41
1.85 3.24 3.36 9.1477e-41
1.9 3.24 3.37 9.1477e-41
1.93 3.24 3.37 9.1477e-41
1.97 3.24 3.37 9.1477e-41
2.01 3.24 3.37 9.1477e-41
2.04 3.24 3.36 9.1477e-41
2.07 3.24 3.36 9.1477e-41
2.11 3.24 3.37 9.1477e-41
2.15 3.24 3.36 9.1477e-41
2.19 3.24 3.37 9.1477e-41
2.22 3.24 3.37 9.1477e-41
2.25 3.24 3.37 9.1477e-41
2.28 3.24 3.37 9.1477e-41
2.32 3.24 3.37 9.1477e-41
2.35 3.24 3.37 9.1477e-41
2.38 3.24 3.36 9.1477e-41
2.41 3.24 3.36 9.1477e-41
2.44 3.24 3.36 9.1477e-41
2.47 3.24 3.37 9.1477e-41
2.5 3.24 3.37 9.1477e-41
2.53 3.24 3.36 9.1477e-41
2.56 3.24 3.36 9.1477e-41
2.59 3.24 3.36 9.1477e-41
2.61 3.24 3.36 9.1477e-41
2.64 3.24 3.35 9.1477e-41
2.66 3.24 3.34 9.1477e-41
2.69 3.24 3.35 9.1477e-41
2.71 3.24 3.34 9.1477e-41
2.74 3.24 3.34 9.1477e-41
2.77 3.24 3.34 9.1477e-41
2.79 3.24 3.33 9.1477e-41
2.82 3.24 3.33 9.1477e-41
2.84 3.24 3.33 9.1477e-41
2.87 3.24 3.33 9.1477e-41
2.89 3.24 3.31 9.1477e-41
2.91 3.24 3.31 9.1477e-41
2.94 3.24 3.31 9.1477e-41
2.96 3.24 3.3 9.1477e-41
2.98 3.24 3.3 9.1477e-41
3 3.24 3.29 9.1477e-41
3.03 3.24 3.29 9.1477e-41
3.05 3.24 3.28 9.1477e-41
3.08 3.24 3.28 9.1477e-41
3.1 3.24 3.28 9.1477e-41
3.12 3.24 3.27 9.1477e-41
3.14 3.24 3.27 9.1477e-41
3.16 3.24 3.25 9.1477e-41
3.19 3.24 3.26 9.1477e-41
3.21 3.24 3.25 9.1477e-41
3.23 3.24 3.24 9.1477e-41
3.25 3.24 3.24 9.1477e-41
3.27 3.24 3.23 9.1477e-41
3.29 3.24 3.19 9.1477e-41
3.31 3.24 3.19 9.1477e-41
3.31 3.24 3.19 3.57e-43
3.31 3.24 3.19 3.57e-43
3.33 3.24 3.19 3.57e-43
3.34 3.24 3.19 3.57e-43
3.35 3.24 3.19 3.57e-43
3.35 3.24 3.19 3.57e-43
3.36 3.24 3.19 3.57e-43
3.37 3.24 3.19 3.57e-43
3.38 3.24 3.19 3.57e-43
3.38 3.24 3.19 3.57e-43
3.39 3.24 3.19 3.57e-43
3.39 3.24 2.22 9.1477e-41
3.39 3.24 2.22 3.57e-43
3.37 3.24 2.22 3.57e-43
3.37 3.24 2.22 3.57e-43
3.37 3.24 2.22 3.57e-43
1.19 3.27 3.29 9.1477e-41
1.25 3.27 3.3 9.1477e-41
1.32 3.27 3.31 9.1477e-41
1.39 3.27 3.33 9.1477e-41
1.44 3.27 3.33 9.1477e-41
1.49 3.27 3.34 9.1477e-41
1.55 3.27 3.35 9.1477e-41
1.59 3.27 3.35 9.1477e-41
1.64 3.27 3.36 9.1477e-41
1.69 3.27 3.36 9.1477e-41
1.73 3.27 3.36 9.1477e-41
1.78 3.27 3.37 9.1477e-41
1.82 3.27 3.37 9.1477e-41
1.86 3.27 3.37 9.1477e-41
1.89 3.27 3.36 9.1477e-41
1.93 3.27 3.36 9.1477e-41
1.97 3.27 3.36 9.1477e-41
2 3.27 3.36 9.1477e-41
2.04 3.27 3.36 9.1477e-41
2.07 3.27 3.36 9.1477e-41
2.11 3.27 3.36 9.1477e-41
2.15 3.27 3.37 9.1477e-41
2.19 3.27 3.37 9.1477e-41
2.22 3.27 3.37 9.1477e-41
2.25 3.27 3.36 9.1477e-41
2.28 3.27 3.37 9.1477e-41
2.32 3.27 3.37 9.1477e-41
2.34 3.27 3.36 9.1477e-41
2.38 3.27 3.36 9.1477e-41
2.41 3.27 3.37 9.1477e-41
2.44 3.27 3.36 9.1477e-41
2.47 3.27 3.37 9.1477e-41
2.5 3.27 3.36 9.1477e-41
2.53 3.27 3.36 9.1477e-41
2.55 3.27 3.35 9.1477e-41
2.59 3.27 3.36 9.1477e-41
2.61 3.27 3.35 9.1477e-41
2.64 3.27 3.35 9.1477e-41
2.66 3.27 3.35 9.1477e-41
2.68 3.27 3.34 9.1477e-41
2.71 3.27 3.33 9.1477e-41
2.74 3.27 3.33 9.1477e-41
2.77 3.27 3.34 9.1477e-41
2.79 3.27 3.33 9.1477e-41
2.82 3.27 3.33 9.1477e-41
2.84 3.27 3.32 9.1477e-41
2.86 3.27 3.32 9.1477e-41
2.89 3.27 3.31 9.1477e-41
2.91 3.27 3.31 9.1477e-41
2.94 3.27 3.31 9.1477e-41
2.96 3.27 3.3 9.1477e-41
2.98 3.27 3.3 9.1477e-41
3 3.27 3.29 9.1477e-41
3.03 3.27 3.29 9.1477e-41
3.05 3.27 3.28 9.1477e-41
3.08 3.27 3.28 9.1477e-41
3.1 3.27 3.27 9.1477e-41
3.12 3.27 3.27 9.1477e-41
3.14 3.27 3.27 9.1477e-41
3.16 3.27 3.26 9.1477e-41
3.18 3.27 3.25 9.1477e-41
3.21 3.27 3.25 9.1477e-41
3.23 3.27 3.23 9.1477e-41
3.25 3.27 3.24 9.1477e-41
3.27 3.27 3.23 9.1477e-41
3.29 3.27 3.2 9.1477e-41
3.3 3.27 3.18 9.1477e-41
3.31 3.27 3.18 3.57e-43
3.31 3.27 3.18 3.57e-43
3.33 3.27 3.18 3.57e-43
3.34 3.27 3.18 3.57e-43
3.35 3.27 3.18 3.57e-43
3.35 3.27 3.18 3.57e-43
3.36 3.27 3.18 3.57e-43
3.37 3.27 3.18 3.57e-43
3.38 3.27 3.18 3.57e-43
3.38 3.27 3.18 3.57e-43
3.39 3.27 3.18 3.57e-43
3.39 3.27 2.22 9.1477e-41
3.39 3.27 2.22 3.57e-43
3.37 3.27 2.22 3.57e-43
3.37 3.27 2.22 3.57e-43
3.37 3.27 1.09 9.1477e-41
1.13 3.3 3.29 9.1477e-41
1.19 3.3 3.29 9.1477e-41
1.26 3.3 3.31 9.1477e-41
1.32 3.3 3.31 9.1477e-41
1.39 3.3 3.33 9.1477e-41
1.44 3.3 3.33 9.1477e-41
1.49 3.3 3.34 9.1477e-41
1.55 3.3 3.35 9.1477e-41
1.6 3.3 3.36 9.1477e-41
1.64 3.3 3.35 9.1477e-41
1.69 3.3 3.36 9.1477e-41
1.73 3.3 3.36 9.1477e-41
1.77 3.3 3.36 9.1477e-41
1.82 3.3 3.37 9.1477e-41
1.86 3.3 3.37 9.1477e-41
1.89 3.3 3.36 9.1477e-41
1.93 3.3 3.37 9.1477e-41
1.97 3.3 3.36 9.1477e-41
2.01 3.3 3.37 9.1477e-41
2.04 3.3 3.36 9.1477e-41
2.08 3.3 3.37 9.1477e-41
2.11 3.3 3.37 9.1477e-41
2.15 3.3 3.36 9.1477e-41
2.19 3.3 3.37 9.1477e-41
2.21 3.3 3.36 9.1477e-41
2.25 3.3 3.37 9.1477e-41
2.28 3.3 3.37 9.1477e-41
2.32 3.3 3.37 9.1477e-41
2.34 3.3 3.36 9.1477e-41
2.38 3.3 3.36 9.1477e-41
2.41 3.3 3.36 9.1477e-41
2.44 3.3 3.36 9.1477e-41
2.47 3.3 3.37 9.1477e-41
2.5 3.3 3.36 9.1477e-41
2.53 3.3 3.37 9.1477e-41
2.55 3.3 3.35 9.1477e-41
2.59 3.3 3.36 9.1477e-41
2.61 3.3 3.36 9.1477e-41
2.63 3.3 3.34 9.1477e-41
2.66 3.3 3.35 9.1477e-41
2.69 3.3 3.34 9.1477e-41
2.71 3.3 3.34 9.1477e-41
2.74 3.3 3.33 9.1477e-41
2.77 3.3 3.34 9.1477e-41
2.79 3.3 3.33 9.1477e-41
2.81 3.3 3.32 9.1477e-41
2.84 3.3 3.33 9.1477e-41
2.86 3.3 3.32 9.1477e-41
2.89 3.3 3.31 9.1477e-41
2.91 3.3 3.31 9.1477e-41
2.94 3.3 3.31 9.1477e-41
2.96 3.3 3.31 9.1477e-41
2.98 3.3 3.29 9.1477e-41
3 3.3 3.29 9.1477e-41
3.03 3.3 3.29 9.1477e-41
3.05 3.3 3.28 9.1477e-41
3.07 3.3 3.27 9.1477e-41
3.1 3.3 3.28 9.1477e-41
3.12 3.3 3.27 9.1477e-41
3.14 3.3 3.27 9.1477e-41
3.16 3.3 3.26 9.1477e-41
3.18 3.3 3.25 9.1477e-41
3.21 3.3 3.24 9.1477e-41
3.23 3.3 3.24 9.1477e-41
3.25 3.3 3.24 9.1477e-41
3.27 3.3 3.23 9.1477e-41
3.29 3.3 3.2 9.1477e-41
3.3 3.3 3.2 3.57e-43
3.31 3.3 3.2 3.57e-43
3.31 3.3 3.2 3.57e-43
3.33 3.3 3.2 3.57e-43
3.34 3.3 3.2 3.57e-43
3.35 3.3 3.2 3.57e-43
3.35 3.3 3.2 3.57e-43
3.36 3.3 3.2 3.57e-43
3.37 3.3 3.2 3.57e-43
3.38 3.3 3.2 3.57e-43
3.38 3.3 3.2 3.57e-43
3.39 3.3 3.2 3.57e-43
3.39 3.3 2.22 9.1477e-41
3.39 3.3 2.22 3.57e-43
3.37 3.3 2.22 3.57e-43
3.37 3.3 2.22 3.57e-43
3.37 3.3 1.09 9.1477e-41
1.14 3.33 3.29 9.1477e-41
1.19 3.33 3.29 9.1477e-41
1.27 3.33 3.31 9.1477e-41
1.33 3.33 3.32 9.1477e-41
1.39 3.33 3.33 9.1477e-41
1.44 3.33 3.34 9.1477e-41
1.5 3.33 3.35 9.1477e-41
1.55 3.33 3.35 9.1477e-41
1.59 3.33 3.35 9.1477e-41
1.65 3.33 3.37 9.1477e-41
1.69 3.33 3.36 9.1477e-41
1.73 3.33 3.36 9.1477e-41
1.78 3.33 3.37 9.1477e-41
1.81 3.33 3.36 9.1477e-41
1.86 3.33 3.37 9.1477e-41
1.89 3.33 3.36 9.1477e-41
1.93 3.33 3.37 9.1477e-41
1.97 3.33 3.37 9.1477e-41
2.01 3.33 3.37 9.1477e-41
2.04 3.33 3.36 9.1477e-41
2.08 3.33 3.37 9.1477e-41
2.12 3.33 3.37 9.1477e-41
2.15 3.33 3.37 9.1477e-41
2.19 3.33 3.37 9.1477e-41
2.22 3.33 3.37 9.1477e-41
2.25 3.33 3.37 9.1477e-41
2.28 3.33 3.37 9.1477e-41
2.32 3.33 3.37 9.1477e-41
2.35 3.33 3.37 9.1477e-41
2.38 3.33 3.37 9.1477e-41
2.41 3.33 3.37 9.1477e-41
2.44 3.33 3.36 9.1477e-41
2.47 3.33 3.37 9.1477e-41
2.5 3.33 3.36 9.1477e-41
2.53 3.33 3.36 9.1477e-41
2.55 3.33 3.35 9.1477e-41
2.58 3.33 3.35 9.1477e-41
2.61 3.33 3.35 9.1477e-41
2.64 3.33 3.35 9.1477e-41
2.66 3.33 3.35 9.1477e-41
2.69 3.33 3.34 9.1477e-41
2.71 3.33 3.34 9.1477e-41
2.74 3.33 3.34 9.1477e-41
2.77 3.33 3.34 9.1477e-41
2.79 3.33 3.33 9.1477e-41
2.82 3.33 3.33 9.1477e-41
2.84 3.33 3.33 9.1477e-41
2.87 3.33 3.33 9.1477e-41
2.89 3.33 3.31 9.1477e-41
2.91 3.33 3.3 9.1477e-41
2.94 3.33 3.32 9.1477e-41
2.96 3.33 3.3 9.1477e-41
2.98 3.33 3.29 9.1477e-41
3 3.33 3.29 9.1477e-41
3.03 3.33 3.29 9.1477e-41
3.05 3.33 3.29 9.1477e-41
3.08 3.33 3.28 9.1477e-41
3.1 3.33 3.27 9.1477e-41
3.12 3.33 3.27 9.1477e-41
3.14 3.33 3.27 9.1477e-41
3.16 3.33 3.26 9.1477e-41
3.18 3.33 3.25 9.1477e-41
3.21 3.33 3.24 9.1477e-41
3.23 3.33 3.23 9.1477e-41
3.25 3.33 3.24 9.1477e-41
3.27 3.33 3.22 9.1477e-41
3.29 3.33 3.19 9.1477e-41
3.3 3.33 3.19 3.57e-43
3.31 3.33 3.19 3.57e-43
3.31 3.33 3.19 3.57e-43
3.33 3.33 3.19 3.57e-43
3.34 3.33 3.19 3.57e-43
3.35 3.33 3.19 3.57e-43
3.35 3.33 3.19 3.57e-43
3.36 3.33 3.19 3.57e-43
3.37 3.33 3.19 3.57e-43
3.38 3.33 3.19 3.57e-43
3.38 3.33 3.19 3.57e-43
3.39 3.33 3.19 3.57e-43
3.39 3.33 2.22 9.1477e-41
3.39 3.33 2.22 3.57e-43
3.37 3.33 1.78 9.1477e-41
3.37 3.33 1.78 3.57e-43
3.37 3.33 1.09 9.1477e-41
1.13 3.36 3.29 9.1477e-41
1.2 3.36 3.3 9.1477e-41
1.26 3.36 3.31 9.1477e-41
1.33 3.36 3.32 9.1477e-41
1.39 3.36 3.33 9.1477e-41
1.44 3.36 3.34 9.1477e-41
1.49 3.36 3.34 9.1477e-41
1.54 3.36 3.35 9.1477e-41
1.6 3.36 3.36 9.1477e-41
1.64 3.36 3.36 9.1477e-41
1.69 3.36 3.36 9.1477e-41
1.73 3.36 3.36 9.1477e-41
1.78 3.36 3.37 9.1477e-41
1.82 3.36 3.37 9.1477e-41
1.86 3.36 3.37 9.1477e-41
1.9 3.36 3.37 9.1477e-41
1.93 3.36 3.37 9.1477e-41
1.97 3.36 3.37 9.1477e-41
2.01 3.36 3.37 9.1477e-41
2.05 3.36 3.37 9.1477e-41
2.08 3.36 3.37 9.1477e-41
2.11 3.36 3.37 9.1477e-41
2.15 3.36 3.37 9.1477e-41
2.19 3.36 3.37 9.1477e-41
2.22 3.36 3.37 9.1477e-41
2.25 3.36 3.37 9.1477e-41
2.28 3.36 3.37 9.1477e-41
2.32 3.36 3.37 9.1477e-41
2.35 3.36 3.37 9.1477e-41
2.38 3.36 3.37 9.1477e-41
2.41 3.36 3.36 9.1477e-41
2.44 3.36 3.36 9.1477e-41
2.47 3.36 3.37 9.1477e-41
2.5 3.36 3.36 9.1477e-41
2.53 3.36 3.36 9.1477e-41
2.56 3.36 3.36 9.1477e-41
2.58 3.36 3.35 9.1477e-41
2.61 3.36 3.35 9.1477e-41
2.64 3.36 3.35 9.1477e-41
2.66 3.36 3.34 9.1477e-41
2.68 3.36 3.34 9.1477e-41
2.71 3.36 3.34 9.1477e-41
2.74 3.36 3.33 9.1477e-41
2.77 3.36 3.34 9.1477e-41
2.79 3.36 3.33 9.1477e-41
2.82 3.36 3.33 9.1477e-41
2.84 3.36 3.33 9.1477e-41
2.86 3.36 3.32 9.1477e-41
2.89 3.36 3.31 9.1477e-41
2.91 3.36 3.31 9.1477e-41
2.94 3.36 3.32 9.1477e-41
2.96 3.36 3.3 9.1477e-41
2.98 3.36 3.29 9.1477e-41
3 3.36 3.29 9.1477e-41
3.03 3.36 3.29 9.1477e-41
3.05 3.36 3.28 9.1477e-41
3.08 3.36 3.28 9.1477e-41
3.09 3.36 3.26 9.1477e-41
3.12 3.36 3.27 9.1477e-41
3.14 3.36 3.27 9.1477e-41
3.16 3.36 3.26 9.1477e-41
3.18 3.36 3.25 9.1477e-41
3.21 3.36 3.24 9.1477e-41
3.23 3.36 3.24 9.1477e-41
3.25 3.36 3.24 9.1477e-41
3.27 3.36 3.22 9.1477e-41
3.29 3.36 3.2 9.1477e-41
3.3 3.36 3.2 3.57e-43
3.31 3.36 3.2 3.57e-43
3.31 3.36 3.2 3.57e-43
3.33 3.36 3.2 3.57e-43
3.34 3.36 3.2 3.57e-43
3.35 3.36 3.2 3.57e-43
3.35 3.36 3.2 3.57e-43
3.36 3.36 3.2 3.57e-43
3.37 3.36 3.2 3.57e-43
3.38 3.36 3.2 3.57e-43
3.38 3.36 3.2 3.57e-43
3.39 3.36 3.2 3.57e-43
3.39 3.36 2.22 9.1477e-41
3.39 3.36 2.22 3.57e-43
3.37 3.36 1.78 9.1477e-41
3.37 3.36 1.78 3.57e-43
3.37 3.36 1.09 9.1477e-41
1.14 3.39 3.29 9.1477e-41
1.19 3.39 3.29 9.1477e-41
1.26 3.39 3.31 9.1477e-41
1.33 3.39 3.32 9.1477e-41
1.38 3.39 3.32 9.1477e-41
1.44 3.39 3.33 9.1477e-41
1.49 3.39 3.34 9.1477e-41
1.55 3.39 3.35 9.1477e-41
1.59 3.39 3.35 9.1477e-41
1.64 3.39 3.36 9.1477e-41
1.69 3.39 3.36 9.1477e-41
1.73 3.39 3.36 9.1477e-41
1.78 3.39 3.37 9.1477e-41
1.82 3.39 3.37 9.1477e-41
1.86 3.39 3.37 9.1477e-41
1.9 3.39 3.37 9.1477e-41
1.94 3.39 3.37 9.1477e-41
1.97 3.39 3.37 9.1477e-41
2.01 3.39 3.37 9.1477e-41
2.05 3.39 3.37 9.1477e-41
2.09 3.39 3.38 9.1477e-41
2.12 3.39 3.37 9.1477e-41
2.15 3.39 3.37 9.1477e-41
2.19 3.39 3.37 9.1477e-41
2.22 3.39 3.37 9.1477e-41
2.26 3.39 3.38 9.1477e-41
2.29 3.39 3.38 9.1477e-41
2.32 3.39 3.37 9.1477e-41
2.36 3.39 3.38 9.1477e-41
2.38 3.39 3.37 9.1477e-41
2.41 3.39 3.36 9.1477e-41
2.44 3.39 3.36 9.1477e-41
2.47 3.39 3.36 9.1477e-41
2.5 3.39 3.36 9.1477e-41
2.53 3.39 3.36 9.1477e-41
2.55 3.39 3.35 9.1477e-41
2.58 3.39 3.35 9.1477e-41
2.6 3.39 3.34 9.1477e-41
2.64 3.39 3.35 9.1477e-41
2.66 3.39 3.35 9.1477e-41
2.69 3.39 3.34 9.1477e-41
2.71 3.39 3.34 9.1477e-41
2.74 3.39 3.34 9.1477e-41
2.77 3.39 3.34 9.1477e-41
2.79 3.39 3.33 9.1477e-41
2.82 3.39 3.33 9.1477e-41
2.84 3.39 3.32 9.1477e-41
2.87 3.39 3.33 9.1477e-41
2.89 3.39 3.31 9.1477e-41
2.91 3.39 3.3 9.1477e-41
2.94 3.39 3.31 9.1477e-41
2.96 3.39 3.3 9.1477e-41
2.98 3.39 3.3 9.1477e-41
3 3.39 3.29 9.1477e-41
3.03 3.39 3.29 9.1477e-41
3.05 3.39 3.28 9.1477e-41
3.08 3.39 3.28 9.1477e-41
3.1 3.39 3.27 9.1477e-41
3.12 3.39 3.27 9.1477e-41
3.14 3.39 3.27 9.1477e-41
3.16 3.39 3.25 9.1477e-41
3.18 3.39 3.25 9.1477e-41
3.21 3.39 3.24 9.1477e-41
3.23 3.39 3.24 9.1477e-41
3.25 3.39 3.23 9.1477e-41
3.27 3.39 3.23 9.1477e-41
3.28 3.39 3.18 9.1477e-41
3.3 3.39 3.18 3.57e-43
3.31 3.39 3.18 3.57e-43
3.31 3.39 3.18 3.57e-43
3.33 3.39 3.18 3.57e-43
3.34 3.39 3.18 3.57e-43
3.35 3.39 3.18 3.57e-43
3.35 3.39 3.18 3.57e-43
3.36 3.39 3.18 3.57e-43
3.37 3.39 3.18 3.57e-43
3.38 3.39 3.18 3.57e-43
3.38 3.39 3.18 3.57e-43
3.39 3.39 3.18 3.57e-43
3.39 3.39 2.22 9.1477e-41
3.39 3.39 2.22 3.57e-43
3.37 3.39 1.78 9.1477e-41
3.37 3.39 1.78 3.57e-43
3.37 3.39 1.09 9.1477e-41
1.14 3.42 3.29 9.1477e-41
1.2 3.42 3.3 9.1477e-41
1.26 3.42 3.31 9.1477e-41
1.33 3.42 3.32 9.1477e-41
1.39 3.42 3.33 9.1477e-41
1.44 3.42 3.34 9.1477e-41
1.49 3.42 3.34 9.1477e-41
1.55 3.42 3.35 9.1477e-41
1.6 3.42 3.36 9.1477e-41
1.64 3.42 3.36 9.1477e-41
1.69 3.42 3.36 9.1477e-41
1.73 3.42 3.36 9.1477e-41
1.78 3.42 3.37 9.1477e-41
1.82 3.42 3.37 9.1477e-41
1.86 3.42 3.37 9.1477e-41
1.9 3.42 3.37 9.1477e-41
1.94 3.42 3.37 9.1477e-41
1.97 3.42 3.36 9.1477e-41
2.01 3.42 3.37 9.1477e-41
2.05 3.42 3.37 9.1477e-41
2.09 3.42 3.38 9.1477e-41
2.12 3.42 3.37 9.1477e-41
2.15 3.42 3.37 9.1477e-41
2.19 3.42 3.37 9.1477e-41
2.22 3.42 3.37 9.1477e-41
2.25 3.42 3.37 9.1477e-41
2.28 3.42 3.37 9.1477e-41
2.32 3.42 3.38 9.1477e-41
2.35 3.42 3.37 9.1477e-41
2.39 3.42 3.38 9.1477e-41
2.41 3.42 3.37 9.1477e-41
2.45 3.42 3.37 9.1477e-41
2.47 3.42 3.37 9.1477e-41
2.5 3.42 3.37 9.1477e-41
2.52 3.42 3.36 9.1477e-41
2.56 3.42 3.36 9.1477e-41
2.58 3.42 3.35 9.1477e-41
2.61 3.42 3.36 9.1477e-41
2.64 3.42 3.35 9.1477e-41
2.66 3.42 3.35 9.1477e-41
2.68 3.42 3.34 9.1477e-41
2.71 3.42 3.34 9.1477e-41
2.75 3.42 3.35 9.1477e-41
2.77 3.42 3.34 9.1477e-41
2.78 3.42 3.31 9.1477e-41
2.82 3.42 3.33 9.1477e-41
2.84 3.42 3.33 9.1477e-41
2.86 3.42 3.32 9.1477e-41
2.88 3.42 3.31 9.1477e-41
2.91 3.42 3.31 9.1477e-41
2.93 3.42 3.3 9.1477e-41
2.96 3.42 3.31 9.1477e-41
2.98 3.42 3.3 9.1477e-41
3.01 3.42 3.3 9.1477e-41
3.03 3.42 3.29 9.1477e-41
3.05 3.42 3.28 9.1477e-41
3.08 3.42 3.28 9.1477e-41
3.1 3.42 3.27 9.1477e-41
3.12 3.42 3.27 9.1477e-41
3.14 3.42 3.26 9.1477e-41
3.16 3.42 3.26 9.1477e-41
3.18 3.42 3.25 9.1477e-41
3.21 3.42 3.24 9.1477e-41
3.23 3.42 3.24 9.1477e-41
3.25 3.42 3.24 9.1477e-41
3.27 3.42 3.23 9.1477e-41
3.29 3.42 3.19 9.1477e-41
3.3 3.42 3.19 3.57e-43
3.31 3.42 3.19 3.57e-43
3.31 3.42 3.19 3.57e-43
3.33 3.42 3.19 3.57e-43
3.34 3.42 3.19 3.57e-43
3.35 3.42 3.19 3.57e-43
3.35 3.42 3.19 3.57e-43
3.36 3.42 3.19 3.57e-43
3.37 3.42 3.19 3.57e-43
3.38 3.42 3.19 3.57e-43
3.38 3.42 3.19 3.57e-43
3.39 3.42 3.19 3.57e-43
3.39 3.42 2.22 9.1477e-41
3.39 3.42 2.22 3.57e-43
3.37 3.42 1.78 9.1477e-41
3.37 3.42 1.78 3.57e-43
3.37 3.42 1.09 9.1477e-41
1.13 3.45 3.29 9.1477e-41
1.2 3.45 3.3 9.1477e-41
1.26 3.45 3.31 9.1477e-41
1.33 3.45 3.32 9.1477e-41
1.38 3.45 3.32 9.1477e-41
1.44 3.45 3.33 9.1477e-41
1.49 3.45 3.34 9.1477e-41
1.54 3.45 3.35 9.1477e-41
1.59 3.45 3.35 9.1477e-41
1.64 3.45 3.36 9.1477e-41
1.69 3.45 3.36 9.1477e-41
1.73 3.45 3.36 9.1477e-41
1.78 3.45 3.37 9.1477e-41
1.81 3.45 3.36 9.1477e-41
1.86 3.45 3.37 9.1477e-41
1.9 3.45 3.37 9.1477e-41
1.94 3.45 3.37 9.1477e-41
1.97 3.45 3.37 9.1477e-41
2.01 3.45 3.37 9.1477e-41
2.05 3.45 3.37 9.1477e-41
2.08 3.45 3.37 9.1477e-41
2.12 3.45 3.37 9.1477e-41
2.15 3.45 3.37 9.1477e-41
2.19 3.45 3.38 9.1477e-41
2.23 3.45 3.38 9.1477e-41
2.26 3.45 3.38 9.1477e-41
2.28 3.45 3.37 9.1477e-41
2.32 3.45 3.37 9.1477e-41
2.35 3.45 3.37 9.1477e-41
2.38 3.45 3.37 9.1477e-41
2.41 3.45 3.36 9.1477e-41
2.44 3.45 3.36 9.1477e-41
2.47 3.45 3.36 9.1477e-41
2.5 3.45 3.36 9.1477e-41
2.52 3.45 3.36 9.1477e-41
2.55 3.45 3.35 9.1477e-41
2.58 3.45 3.35 9.1477e-41
2.61 3.45 3.35 9.1477e-41
2.63 3.45 3.34 9.1477e-41
2.66 3.45 3.35 9.1477e-41
2.68 3.45 3.34 9.1477e-41
2.71 3.45 3.33 9.1477e-41
2.74 3.45 3.34 9.1477e-41
2.77 3.45 3.34 9.1477e-41
2.79 3.45 3.33 9.1477e-41
2.81 3.45 3.32 9.1477e-41
2.84 3.45 3.33 9.1477e-41
2.87 3.45 3.33 9.1477e-41
2.89 3.45 3.32 9.1477e-41
2.91 3.45 3.31 9.1477e-41
2.94 3.45 3.31 9.1477e-41
2.96 3.45 3.31 9.1477e-41
2.98 3.45 3.3 9.1477e-41
3.01 3.45 3.3 9.1477e-41
3.03 3.45 3.29 9.1477e-41
3.05 3.45 3.28 9.1477e-41
3.08 3.45 3.28 9.1477e-41
3.1 3.45 3.27 9.1477e-41
3.12 3.45 3.27 9.1477e-41
3.14 3.45 3.27 9.1477e-41
3.16 3.45 3.26 9.1477e-41
3.18 3.45 3.25 9.1477e-41
3.21 3.45 3.25 9.1477e-41
3.23 3.45 3.24 9.1477e-41
3.25 3.45 3.24 9.1477e-41
3.27 3.45 3.23 9.1477e-41
3.28 3.45 3.18 9.1477e-41
3.3 3.45 3.18 9.1477e-41
3.31 3.45 3.18 3.57e-43
3.31 3.45 3.18 3.57e-43
3.33 3.45 3.18 3.57e-43
3.34 3.45 3.18 3.57e-43
3.35 3.45 3.18 3.57e-43
3.35 3.45 3.18 3.57e-43
3.36 3.45 3.18 3.57e-43
3.37 3.45 3.18 3.57e-43
3.38 3.45 3.18 3.57e-43
3.38 3.45 3.18 3.57e-43
3.39 3.45 3.18 3.57e-43
3.39 3.45 2.22 9.1477e-41
3.39 3.45 2.22 3.57e-43
3.37 3.45 1.78 9.1477e-41
3.37 3.45 1.78 3.57e-43
3.37 3.45 1.09 9.1477e-41
1.13 3.48 3.28 9.1477e-41
1.2 3.48 3.3 9.1477e-41
1.27 3.48 3.31 9.1477e-41
1.33 3.48 3.32 9.1477e-41
1.39 3.48 3.33 9.1477e-41
1.44 3.48 3.34 9.1477e-41
1.49 3.48 3.34 9.1477e-41
1.55 3.48 3.35 9.1477e-41
1.59 3.48 3.35 9.1477e-41
1.64 3.48 3.36 9.1477e-41
1.69 3.48 3.36 9.1477e-41
1.74 3.48 3.37 9.1477e-41
1.78 3.48 3.37 9.1477e-41
1.82 3.48 3.37 9.1477e-41
1.86 3.48 3.37 9.1477e-41
1.9 3.48 3.37 9.1477e-41
1.94 3.48 3.37 9.1477e-41
1.98 3.48 3.38 9.1477e-41
2.01 3.48 3.37 9.1477e-41
2.05 3.48 3.37 9.1477e-41
2.09 3.48 3.38 9.1477e-41
2.12 3.48 3.37 9.1477e-41
2.15 3.48 3.37 9.1477e-41
2.19 3.48 3.37 9.1477e-41
2.23 3.48 3.38 9.1477e-41
2.25 3.48 3.37 9.1477e-41
2.29 3.48 3.38 9.1477e-41
2.32 3.48 3.38 9.1477e-41
2.36 3.48 3.38 9.1477e-41
2.38 3.48 3.37 9.1477e-41
2.41 3.48 3.37 9.1477e-41
2.45 3.48 3.37 9.1477e-41
2.47 3.48 3.36 9.1477e-41
2.49 3.48 3.35 9.1477e-41
2.52 3.48 3.36 9.1477e-41
2.55 3.48 3.35 9.1477e-41
2.58 3.48 3.35 9.1477e-41
2.61 3.48 3.35 9.1477e-41
2.63 3.48 3.34 9.1477e-41
2.66 3.48 3.34 9.1477e-41
2.69 3.48 3.34 9.1477e-41
2.71 3.48 3.33 9.1477e-41
2.74 3.48 3.33 9.1477e-41
2.77 3.48 3.34 9.1477e-41
2.79 3.48 3.33 9.1477e-41
2.81 3.48 3.32 9.1477e-41
2.84 3.48 3.33 9.1477e-41
2.87 3.48 3.33 9.1477e-41
2.89 3.48 3.31 9.1477e-41
2.91 3.48 3.3 9.1477e-41
2.94 3.48 3.31 9.1477e-41
2.95 3.48 3.29 9.1477e-41
2.98 3.48 3.3 9.1477e-41
3.01 3.48 3.3 9.1477e-41
3.03 3.48 3.29 9.1477e-41
3.05 3.48 3.28 9.1477e-41
3.08 3.48 3.28 9.1477e-41
3.1 3.48 3.27 9.1477e-41
3.12 3.48 3.27 9.1477e-41
3.14 3.48 3.27 9.1477e-41
3.16 3.48 3.26 9.1477e-41
3.18 3.48 3.25 9.1477e-41
3.21 3.48 3.24 9.1477e-41
3.23 3.48 3.24 9.1477e-41
3.25 3.48 3.23 9.1477e-41
3.27 3.48 3.23 9.1477e-41
3.29 3.48 3.19 9.1477e-41
3.3 3.48 3.18 9.1477e-41
3.31 3.48 3.18 3.57e-43
3.31 3.48 3.18 3.57e-43
3.33 3.48 3.18 3.57e-43
3.34 3.48 3.18 3.57e-43
3.35 3.48 3.18 3.57e-43
3.35 3.48 3.18 3.57e-43
3.36 3.48 3.18 3.57e-43
3.37 3.48 3.18 3.57e-43
3.38 3.48 3.18 3.57e-43
3.38 3.48 3.18 3.57e-43
3.39 3.48 3.18 3.57e-43
3.39 3.48 2.22 9.1477e-41
3.39 3.48 2.22 3.57e-43
3.37 3.48 1.78 9.1477e-41
3.37 3.48 1.78 3.57e-43
3.37 3.48 1.09 9.1477e-41
1.13 3.51 3.29 9.1477e-41
1.2 3.51 3.3 9.1477e-41
1.27 3.51 3.31 9.1477e-41
1.33 3.51 3.32 9.1477e-41
1.38 3.51 3.32 9.1477e-41
1.44 3.51 3.33 9.1477e-41
1.49 3.51 3.34 9.1477e-41
1.55 3.51 3.35 9.1477e-41
1.59 3.51 3.35 9.1477e-41
1.65 3.51 3.37 9.1477e-41
1.69 3.51 3.36 9.1477e-41
1.73 3.51 3.36 9.1477e-41
1.78 3.51 3.37 9.1477e-41
1.82 3.51 3.37 9.1477e-41
1.86 3.51 3.37 9.1477e-41
1.9 3.51 3.37 9.1477e-41
1.94 3.51 3.37 9.1477e-41
1.97 3.51 3.36 9.1477e-41
2.01 3.51 3.37 9.1477e-41
2.05 3.51 3.37 9.1477e-41
2.09 3.51 3.38 9.1477e-41
2.12 3.51 3.37 9.1477e-41
2.16 3.51 3.38 9.1477e-41
2.19 3.51 3.37 9.1477e-41
2.22 3.51 3.37 9.1477e-41
2.25 3.51 3.37 9.1477e-41
2.29 3.51 3.38 9.1477e-41
2.32 3.51 3.38 9.1477e-41
2.35 3.51 3.37 9.1477e-41
2.38 3.51 3.37 9.1477e-41
2.41 3.51 3.37 9.1477e-41
2.44 3.51 3.36 9.1477e-41
2.47 3.51 3.37 9.1477e-41
2.5 3.51 3.37 9.1477e-41
2.52 3.51 3.36 9.1477e-41
2.56 3.51 3.36 9.1477e-41
2.58 3.51 3.35 9.1477e-41
2.61 3.51 3.36 9.1477e-41
2.63 3.51 3.34 9.1477e-41
2.66 3.51 3.35 9.1477e-41
2.68 3.51 3.34 9.1477e-41
2.71 3.51 3.34 9.1477e-41
2.74 3.51 3.34 9.1477e-41
2.77 3.51 3.34 9.1477e-41
2.79 3.51 3.33 9.1477e-41
2.82 3.51 3.33 9.1477e-41
2.84 3.51 3.33 9.1477e-41
2.87 3.51 3.33 9.1477e-41
2.89 3.51 3.31 9.1477e-41
2.91 3.51 3.3 9.1477e-41
2.94 3.51 3.31 9.1477e-41
2.96 3.51 3.31 9.1477e-41
2.98 3.51 3.29 9.1477e-41
3.01 3.51 3.3 9.1477e-41
3.03 3.51 3.29 9.1477e-41
3.05 3.51 3.28 9.1477e-41
3.07 3.51 3.27 9.1477e-41
3.1 3.51 3.27 9.1477e-41
3.12 3.51 3.27 9.1477e-41
3.14 3.51 3.27 9.1477e-41
3.16 3.51 3.26 9.1477e-41
3.18 3.51 3.25 9.1477e-41
3.21 3.51 3.24 9.1477e-41
3.23 3.51 3.24 9.1477e-41
3.25 3.51 3.24 9.1477e-41
3.27 3.51 3.22 9.1477e-41
3.29 3.51 3.19 9.1477e-41
3.3 3.51 3.18 9.1477e-41
3.3 3.51 3.18 3.57e-43
3.31 3.51 3.18 3.57e-43
3.33 3.51 3.18 3.57e-43
3.34 3.51 3.18 3.57e-43
3.35 3.51 3.18 3.57e-43
3.35 3.51 3.18 3.57e-43
3.36 3.51 3.18 3.57e-43
3.37 3.51 3.18 3.57e-43
3.38 3.51 3.18 3.57e-43
3.38 3.51 3.18 3.57e-43
3.39 3.51 3.18 3.57e-43
3.39 3.51 2.22 9.1477e-41
3.39 3.51 2.22 3.57e-43
3.37 3.51 1.78 9.1477e-41
3.37 3.51 1.78 3.57e-43
3.37 3.51 1.09 9.1477e-41
1.13 3.54 3.29 9.1477e-41
1.19 3.54 3.29 9.1477e-41
1.27 3.54 3.31 9.1477e-41
1.33 3.54 3.32 9.1477e-41
1.39 3.54 3.33 9.1477e-41
1.44 3.54 3.34 9.1477e-41
1.5 3.54 3.35 9.1477e-41
1.55 3.54 3.35 9.1477e-41
1.6 3.54 3.36 9.1477e-41
1.64 3.54 3.36 9.1477e-41
1.69 3.54 3.36 9.1477e-41
1.73 3.54 3.36 9.1477e-41
1.78 3.54 3.37 9.1477e-41
1.82 3.54 3.37 9.1477e-41
1.86 3.54 3.37 9.1477e-41
1.9 3.54 3.37 9.1477e-41
1.93 3.54 3.37 9.1477e-41
1.97 3.54 3.37 9.1477e-41
2.01 3.54 3.37 9.1477e-41
2.05 3.54 3.37 9.1477e-41
2.08 3.54 3.37 9.1477e-41
2.12 3.54 3.37 9.1477e-41
2.15 3.54 3.37 9.1477e-41
2.19 3.54 3.38 9.1477e-41
2.22 3.54 3.37 9.1477e-41
2.26 3.54 3.38 9.1477e-41
2.28 3.54 3.37 9.1477e-41
2.32 3.54 3.38 9.1477e-41
2.35 3.54 3.37 9.1477e-41
2.38 3.54 3.37 9.1477e-41
2.41 3.54 3.37 9.1477e-41
2.44 3.54 3.36 9.1477e-41
2.47 3.54 3.36 9.1477e-41
2.5 3.54 3.36 9.1477e-41
2.52 3.54 3.36 9.1477e-41
2.55 3.54 3.35 9.1477e-41
2.58 3.54 3.35 9.1477e-41
2.61 3.54 3.35 9.1477e-41
2.63 3.54 3.34 9.1477e-41
2.66 3.54 3.35 9.1477e-41
2.69 3.54 3.34 9.1477e-41
2.71 3.54 3.33 9.1477e-41
2.74 3.54 3.34 9.1477e-41
2.77 3.54 3.34 9.1477e-41
2.79 3.54 3.33 9.1477e-41
2.81 3.54 3.32 9.1477e-41
2.84 3.54 3.32 9.1477e-41
2.86 3.54 3.32 9.1477e-41
2.89 3.54 3.31 9.1477e-41
2.91 3.54 3.31 9.1477e-41
2.93 3.54 3.3 9.1477e-41
2.96 3.54 3.3 9.1477e-41
2.98 3.54 3.3 9.1477e-41
3 3.54 3.29 9.1477e-41
3.03 3.54 3.29 9.1477e-41
3.05 3.54 3.28 9.1477e-41
3.07 3.54 3.27 9.1477e-41
3.1 3.54 3.27 9.1477e-41
3.12 3.54 3.27 9.1477e-41
3.14 3.54 3.27 9.1477e-41
3.16 3.54 3.26 9.1477e-41
3.18 3.54 3.25 9.1477e-41
3.21 3.54 3.24 9.1477e-41
3.23 3.54 3.24 9.1477e-41
3.25 3.54 3.24 9.1477e-41
3.27 3.54 3.22 9.1477e-41
3.29 3.54 3.19 9.1477e-41
3.3 3.54 3.18 9.1477e-41
3.31 3.54 3.1 9.1477e-41
3.31 3.54 3.05 9.1477e-41
3.32 3.54 2.98 9.1477e-41
3.33 3.54 2.93 9.1477e-41
3.34 3.54 2.86 9.1477e-41
3.35 3.54 2.79 9.1477e-41
3.35 3.54 2.72 9.1477e-41
3.36 3.54 2.63 9.1477e-41
3.37 3.54 2.54 9.1477e-41
3.38 3.54 2.44 9.1477e-41
3.38 3.54 2.34 9.1477e-41
3.39 3.54 2.2 9.1477e-41
3.39 3.54 2.2 3.57e-43
3.37 3.54 1.78 9.1477e-41
3.37 3.54 1.78 3.57e-43
3.37 3.54 1.09 9.1477e-41
1.13 3.57 3.29 9.1477e-41
1.2 3.57 3.3 9.1477e-41
1.26 3.57 3.31 9.1477e-41
1.33 3.57 3.32 9.1477e-41
1.39 3.57 3.33 9.1477e-41
1.44 3.57 3.33 9.1477e-41
1.5 3.57 3.35 9.1477e-41
1.54 3.57 3.35 9.1477e-41
1.59 3.57 3.35 9.1477e-41
1.64 3.57 3.35 9.1477e-41
1.69 3.57 3.36 9.1477e-41
1.73 3.57 3.36 9.1477e-41
1.78 3.57 3.37 9.1477e-41
1.81 3.57 3.36 9.1477e-41
1.86 3.57 3.37 9.1477e-41
1.91 3.57 3.38 9.1477e-41
1.94 3.57 3.37 9.1477e-41
1.97 3.57 3.37 9.1477e-41
2.01 3.57 3.37 9.1477e-41
2.05 3.57 3.38 9.1477e-41
2.09 3.57 3.38 9.1477e-41
2.12 3.57 3.37 9.1477e-41
2.15 3.57 3.37 9.1477e-41
2.19 3.57 3.37 9.1477e-41
2.23 3.57 3.38 9.1477e-41
2.25 3.57 3.37 9.1477e-41
2.28 3.57 3.37 9.1477e-41
2.32 3.57 3.38 9.1477e-41
2.35 3.57 3.37 9.1477e-41
2.38 3.57 3.37 9.1477e-41
2.41 3.57 3.37 9.1477e-41
2.44 3.57 3.36 9.1477e-41
2.47 3.57 3.37 9.1477e-41
2.5 3.57 3.36 9.1477e-41
2.53 3.57 3.37 9.1477e-41
2.56 3.57 3.36 9.1477e-41
2.58 3.57 3.35 9.1477e-41
2.61 3.57 3.35 9.1477e-41
2.64 3.57 3.35 9.1477e-41
2.67 3.57 3.36 9.1477e-41
2.68 3.57 3.34 9.1477e-41
2.71 3.57 3.33 9.1477e-41
2.74 3.57 3.34 9.1477e-41
2.77 3.57 3.34 9.1477e-41
2.79 3.57 3.32 9.1477e-41
2.82 3.57 3.33 9.1477e-41
2.84 3.57 3.33 9.1477e-41
2.87 3.57 3.33 9.1477e-41
2.89 3.57 3.31 9.1477e-41
2.91 3.57 3.31 9.1477e-41
2.94 3.57 3.31 9.1477e-41
2.96 3.57 3.31 9.1477e-41
2.98 3.57 3.3 9.1477e-41
3 3.57 3.29 9.1477e-41
3.03 3.57 3.29 9.1477e-41
3.05 3.57 3.28 9.1477e-41
3.07 3.57 3.27 9.1477e-41
3.1 3.57 3.27 9.1477e-41
3.12 3.57 3.27 9.1477e-41
3.14 3.57 3.26 9.1477e-41
3.16 3.57 3.26 9.1477e-41
3.18 3.57 3.25 9.1477e-41
3.21 3.57 3.25 9.1477e-41
3.23 3.57 3.24 9.1477e-41
3.25 3.57 3.24 9.1477e-41
3.27 3.57 3.23 9.1477e-41
3.29 3.57 3.19 9.1477e-41
3.3 3.57 3.18 9.1477e-41
3.31 3.57 3.1 9.1477e-41
3.31 3.57 3.05 9.1477e-41
3.32 3.57 2.98 9.1477e-41
3.33 3.57 2.93 9.1477e-41
3.34 3.57 2.86 9.1477e-41
3.35 3.57 2.79 9.1477e-41
3.35 3.57 2.72 9.1477e-41
3.36 3.57 2.63 9.1477e-41
3.37 3.57 2.55 9.1477e-41
3.37 3.57 2.42 9.1477e-41
3.38 3.57 2.33 9.1477e-41
3.38 3.57 2.18 9.1477e-41
3.39 3.57 2.18 3.57e-43
3.37 3.57 2.18 3.57e-43
3.37 3.57 2.18 3.57e-43
3.37 3.57 1.09 9.1477e-41
1.13 3.6 3.29 9.1477e-41
1.19 3.6 3.29 9.1477e-41
1.26 3.6 3.31 9.1477e-41
1.33 3.6 3.32 9.1477e-41
1.39 3.6 3.33 9.1477e-41
1.44 3.6 3.34 9.1477e-41
1.49 3.6 3.34 9.1477e-41
1.54 3.6 3.34 9.1477e-41
1.6 3.6 3.36 9.1477e-41
1.64 3.6 3.35 9.1477e-41
1.69 3.6 3.36 9.1477e-41
1.73 3.6 3.36 9.1477e-41
1.78 3.6 3.37 9.1477e-41
1.82 3.6 3.37 9.1477e-41
1.86 3.6 3.37 9.1477e-41
1.9 3.6 3.37 9.1477e-41
1.93 3.6 3.37 9.1477e-41
1.97 3.6 3.37 9.1477e-41
2.01 3.6 3.37 9.1477e-41
2.05 3.6 3.38 9.1477e-41
2.08 3.6 3.37 9.1477e-41
2.12 3.6 3.37 9.1477e-41
2.15 3.6 3.37 9.1477e-41
2.19 3.6 3.37 9.1477e-41
2.22 3.6 3.37 9.1477e-41
2.26 3.6 3.38 9.1477e-41
2.28 3.6 3.37 9.1477e-41
2.32 3.6 3.38 9.1477e-41
2.35 3.6 3.37 9.1477e-41
2.38 3.6 3.37 9.1477e-41
2.41 3.6 3.36 9.1477e-41
2.45 3.6 3.37 9.1477e-41
2.47 3.6 3.37 9.1477e-41
2.5 3.6 3.36 9.1477e-41
2.53 3.6 3.36 9.1477e-41
2.55 3.6 3.35 9.1477e-41
2.58 3.6 3.35 9.1477e-41
2.61 3.6 3.36 9.1477e-41
2.64 3.6 3.35 9.1477e-41
2.66 3.6 3.34 9.1477e-41
2.68 3.6 3.34 9.1477e-41
2.71 3.6 3.33 9.1477e-41
2.74 3.6 3.33 9.1477e-41
2.77 3.6 3.34 9.1477e-41
2.79 3.6 3.33 9.1477e-41
2.82 3.6 3.34 9.1477e-41
2.85 3.6 3.34 9.1477e-41
2.87 3.6 3.33 9.1477e-41
2.89 3.6 3.31 9.1477e-41
2.91 3.6 3.31 9.1477e-41
2.94 3.6 3.31 9.1477e-41
2.96 3.6 3.31 9.1477e-41
2.98 3.6 3.3 9.1477e-41
3 3.6 3.29 9.1477e-41
3.03 3.6 3.29 9.1477e-41
3.05 3.6 3.28 9.1477e-41
3.07 3.6 3.27 9.1477e-41
3.1 3.6 3.27 9.1477e-41
3.12 3.6 3.27 9.1477e-41
3.14 3.6 3.27 9.1477e-41
3.16 3.6 3.26 9.1477e-41
3.18 3.6 3.25 9.1477e-41
3.21 3.6 3.25 9.1477e-41
3.23 3.6 3.24 9.1477e-41
3.25 3.6 3.24 9.1477e-41
3.27 3.6 3.23 9.1477e-41
3.29 3.6 3.19 9.1477e-41
3.31 3.6 3.19 9.1477e-41
3.31 3.6 3.11 9.1477e-41
3.31 3.6 3.04 9.1477e-41
3.32 3.6 2.99 9.1477e-41
3.33 3.6 2.92 9.1477e-41
3.34 3.6 2.86 9.1477e-41
3.34 3.6 2.78 9.1477e-41
3.35 3.6 2.78 3.57e-43
3.36 3.6 2.78 3.57e-43
3.37 3.6 2.78 3.57e-43
3.37 3.6 2.78 3.57e-43
3.38 3.6 2.78 3.57e-43
3.38 3.6 2.18 9.1477e-41
3.39 3.6 2.18 3.57e-43
3.37 3.6 1.78 9.1477e-41
3.37 3.6 1.78 3.57e-43
3.37 3.6 1.09 9.1477e-41
1.13 3.63 3.29 9.1477e-41
1.19 3.63 3.29 9.1477e-41
1.26 3.63 3.31 9.1477e-41
1.33 3.63 3.32 9.1477e-41
1.39 3.63 3.33 9.1477e-41
1.44 3.63 3.34 9.1477e-41
1.49 3.63 3.34 9.1477e-41
1.54 3.63 3.35 9.1477e-41
1.59 3.63 3.35 9.1477e-41
1.64 3.63 3.36 9.1477e-41
1.69 3.63 3.36 9.1477e-41
1.73 3.63 3.36 9.1477e-41
1.78 3.63 3.37 9.1477e-41
1.82 3.63 3.37 9.1477e-41
1.85 3.63 3.36 9.1477e-41
1.9 3.63 3.37 9.1477e-41
1.93 3.63 3.37 9.1477e-41
1.97 3.63 3.37 9.1477e-41
2.01 3.63 3.37 9.1477e-41
2.04 3.63 3.36 9.1477e-41
2.08 3.63 3.37 9.1477e-41
2.11 3.63 3.37 9.1477e-41
2.16 3.63 3.38 9.1477e-41
2.19 3.63 3.37 9.1477e-41
2.22 3.63 3.37 9.1477e-41
2.26 3.63 3.38 9.1477e-41
2.28 3.63 3.37 9.1477e-41
2.32 3.63 3.38 9.1477e-41
2.35 3.63 3.37 9.1477e-41
2.38 3.63 3.37 9.1477e-41
2.41 3.63 3.37 9.1477e-41
2.44 3.63 3.36 9.1477e-41
2.47 3.63 3.37 9.1477e-41
2.5 3.63 3.36 9.1477e-41
2.53 3.63 3.36 9.1477e-41
2.55 3.63 3.35 9.1477e-41
2.58 3.63 3.35 9.1477e-41
2.61 3.63 3.35 9.1477e-41
2.63 3.63 3.34 9.1477e-41
2.66 3.63 3.34 9.1477e-41
2.69 3.63 3.34 9.1477e-41
2.71 3.63 3.34 9.1477e-41
2.74 3.63 3.34 9.1477e-41
2.77 3.63 3.34 9.1477e-41
2.79 3.63 3.33 9.1477e-41
2.81 3.63 3.32 9.1477e-41
2.84 3.63 3.33 9.1477e-41
2.86 3.63 3.32 9.1477e-41
2.88 3.63 3.31 9.1477e-41
2.91 3.63 3.31 9.1477e-41
2.94 3.63 3.31 9.1477e-41
2.96 3.63 3.3 9.1477e-41
2.98 3.63 3.29 9.1477e-41
3.01 3.63 3.3 9.1477e-41
3.03 3.63 3.28 9.1477e-41
3.05 3.63 3.28 9.1477e-41
3.07 3.63 3.27 9.1477e-41
3.1 3.63 3.27 9.1477e-41
3.12 3.63 3.27 9.1477e-41
3.15 3.63 3.28 9.1477e-41
3.16 3.63 3.26 9.1477e-41
3.18 3.63 3.25 9.1477e-41
3.21 3.63 3.24 9.1477e-41
3.23 3.63 3.24 9.1477e-41
3.25 3.63 3.24 9.1477e-41
3.27 3.63 3.23 9.1477e-41
3.29 3.63 3.19 9.1477e-41
3.3 3.63 3.18 9.1477e-41
3.31 3.63 3.18 3.57e-43
3.31 3.63 3.18 3.57e-43
3.32 3.63 3.18 3.57e-43
3.33 3.63 3.18 3.57e-43
3.34 3.63 3.18 3.57e-43
3.34 3.63 3.18 3.57e-43
3.35 3.63 3.18 3.57e-43
3.36 3.63 3.18 3.57e-43
3.37 3.63 3.18 3.57e-43
3.37 3.63 3.18 3.57e-43
3.38 3.63 3.18 3.57e-43
3.38 3.63 2.18 9.1477e-41
3.39 3.63 2.18 3.57e-43
3.37 3.63 1.78 9.1477e-41
3.37 3.63 1.78 3.57e-43
3.37 3.63 1.09 9.1477e-41
1.13 3.66 3.29 9.1477e-41
1.2 3.66 3.3 9.1477e-41
1.26 3.66 3.31 9.1477e-41
1.33 3.66 3.32 9.1477e-41
1.39 3.66 3.33 9.1477e-41
1.44 3.66 3.33 9.1477e-41
1.49 3.66 3.34 9.1477e-41
1.55 3.66 3.35 9.1477e-41
1.6 3.66 3.36 9.1477e-41
1.65 3.66 3.37 9.1477e-41
1.69 3.66 3.36 9.1477e-41
1.73 3.66 3.36 9.1477e-41
1.78 3.66 3.37 9.1477e-41
1.82 3.66 3.37 9.1477e-41
1.86 3.66 3.37 9.1477e-41
1.9 3.66 3.37 9.1477e-41
1.93 3.66 3.37 9.1477e-41
1.97 3.66 3.37 9.1477e-41
2.01 3.66 3.37 9.1477e-41
2.05 3.66 3.37 9.1477e-41
2.09 3.66 3.38 9.1477e-41
2.11 3.66 3.37 9.1477e-41
2.15 3.66 3.37 9.1477e-41
2.18 3.66 3.36 9.1477e-41
2.22 3.66 3.37 9.1477e-41
2.25 3.66 3.37 9.1477e-41
2.28 3.66 3.37 9.1477e-41
2.32 3.66 3.37 9.1477e-41
2.36 3.66 3.38 9.1477e-41
2.38 3.66 3.37 9.1477e-41
2.41 3.66 3.37 9.1477e-41
2.44 3.66 3.36 9.1477e-41
2.47 3.66 3.36 9.1477e-41
2.5 3.66 3.36 9.1477e-41
2.52 3.66 3.36 9.1477e-41
2.56 3.66 3.36 9.1477e-41
2.58 3.66 3.35 9.1477e-41
2.61 3.66 3.36 9.1477e-41
2.63 3.66 3.34 9.1477e-41
2.66 3.66 3.35 9.1477e-41
2.68 3.66 3.34 9.1477e-41
2.71 3.66 3.34 9.1477e-41
2.74 3.66 3.34 9.1477e-41
2.77 3.66 3.34 9.1477e-41
2.79 3.66 3.33 9.1477e-41
2.81 3.66 3.32 9.1477e-41
2.84 3.66 3.33 9.1477e-41
2.86 3.66 3.32 9.1477e-41
2.89 3.66 3.31 9.1477e-41
2.91 3.66 3.31 9.1477e-41
2.94 3.66 3.31 9.1477e-41
2.95 3.66 3.29 9.1477e-41
2.98 3.66 3.3 9.1477e-41
3 3.66 3.29 9.1477e-41
3.03 3.66 3.29 9.1477e-41
3.05 3.66 3.28 9.1477e-41
3.07 3.66 3.27 9.1477e-41
3.1 3.66 3.27 9.1477e-41
3.12 3.66 3.27 9.1477e-41
3.14 3.66 3.27 9.1477e-41
3.16 3.66 3.26 9.1477e-41
3.18 3.66 3.25 9.1477e-41
3.21 3.66 3.24 9.1477e-41
3.23 3.66 3.24 9.1477e-41
3.25 3.66 3.24 9.1477e-41
3.27 3.66 3.23 9.1477e-41
3.29 3.66 3.19 9.1477e-41
3.3 3.66 3.18 9.1477e-41
3.3 3.66 3.18 3.57e-43
3.31 3.66 3.18 3.57e-43
3.32 3.66 3.18 3.57e-43
3.33 3.66 3.18 3.57e-43
3.34 3.66 3.18 3.57e-43
3.34 3.66 3.18 3.57e-43
3.35 3.66 3.18 3.57e-43
3.36 3.66 3.18 3.57e-43
3.37 3.66 3.18 3.57e-43
3.37 3.66 3.18 3.57e-43
3.38 3.66 3.18 3.57e-43
3.38 3.66 2.18 9.1477e-41
3.39 3.66 2.18 3.57e-43
3.37 3.66 1.78 9.1477e-41
3.37 3.66 1.78 3.57e-43
3.37 3.66 1.09 9.1477e-41
1.13 3.69 3.29 9.1477e-41
1.19 3.69 3.29 9.1477e-41
1.26 3.69 3.31 9.1477e-41
1.33 3.69 3.32 9.1477e-41
1.39 3.69 3.33 9.1477e-41
1.44 3.69 3.33 9.1477e-41
1.49 3.69 3.34 9.1477e-41
1.54 3.69 3.35 9.1477e-41
1.6 3.69 3.36 9.1477e-41
1.64 3.69 3.36 9.1477e-41
1.69 3.69 3.36 9.1477e-41
1.73 3.69 3.36 9.1477e-41
1.78 3.69 3.37 9.1477e-41
1.82 3.69 3.37 9.1477e-41
1.86 3.69 3.37 9.1477e-41
1.89 3.69 3.36 9.1477e-41
1.93 3.69 3.37 9.1477e-41
1.97 3.69 3.37 9.1477e-41
2.01 3.69 3.37 9.1477e-41
2.04 3.69 3.36 9.1477e-41
2.08 3.69 3.37 9.1477e-41
2.11 3.69 3.37 9.1477e-41
2.15 3.69 3.37 9.1477e-41
2.18 3.69 3.36 9.1477e-41
2.22 3.69 3.37 9.1477e-41
2.25 3.69 3.37 9.1477e-41
2.28 3.69 3.37 9.1477e-41
2.32 3.69 3.37 9.1477e-41
2.35 3.69 3.37 9.1477e-41
2.38 3.69 3.37 9.1477e-41
2.41 3.69 3.37 9.1477e-41
2.44 3.69 3.36 9.1477e-41
2.47 3.69 3.37 9.1477e-41
2.5 3.69 3.36 9.1477e-41
2.52 3.69 3.36 9.1477e-41
2.56 3.69 3.36 9.1477e-41
2.58 3.69 3.35 9.1477e-41
2.61 3.69 3.35 9.1477e-41
2.64 3.69 3.35 9.1477e-41
2.66 3.69 3.35 9.1477e-41
2.69 3.69 3.34 9.1477e-41
2.71 3.69 3.33 9.1477e-41
2.74 3.69 3.34 9.1477e-41
2.76 3.69 3.33 9.1477e-41
2.79 3.69 3.33 9.1477e-41
2.81 3.69 3.32 9.1477e-41
2.84 3.69 3.33 9.1477e-41
2.87 3.69 3.33 9.1477e-41
2.89 3.69 3.31 9.1477e-41
2.91 3.69 3.31 9.1477e-41
2.94 3.69 3.31 9.1477e-41
2.95 3.69 3.29 9.1477e-41
2.98 3.69 3.3 9.1477e-41
3 3.69 3.29 9.1477e-41
3.03 3.69 3.29 9.1477e-41
3.05 3.69 3.28 9.1477e-41
3.07 3.69 3.27 9.1477e-41
3.1 3.69 3.27 9.1477e-41
3.12 3.69 3.27 9.1477e-41
3.14 3.69 3.26 9.1477e-41
3.16 3.69 3.26 9.1477e-41
3.18 3.69 3.24 9.1477e-41
3.21 3.69 3.24 9.1477e-41
3.23 3.69 3.23 9.1477e-41
3.25 3.69 3.24 9.1477e-41
3.27 3.69 3.22 9.1477e-41
3.28 3.69 3.18 9.1477e-41
3.3 3.69 3.18 9.1477e-41
3.3 3.69 3.18 3.57e-43
3.31 3.69 3.18 3.57e-43
3.32 3.69 3.18 3.57e-43
3.33 3.69 3.18 3.57e-43
3.34 3.69 3.18 3.57e-43
3.34 3.69 3.18 3.57e-43
3.35 3.69 3.18 3.57e-43
3.36 3.69 3.18 3.57e-43
3.37 3.69 3.18 3.57e-43
3.37 3.69 3.18 3.57e-43
3.38 3.69 3.18 3.57e-43
3.38 3.69 2.18 9.1477e-41
3.39 3.69 2.18 3.57e-43
3.37 3.69 1.78 9.1477e-41
3.37 3.69 1.78 3.57e-43
3.37 3.69 1.09 9.1477e-41
1.13 3.72 3.29 9.1477e-41
1.2 3.72 3.3 9.1477e-41
1.26 3.72 3.31 9.1477e-41
1.32 3.72 3.31 9.1477e-41
1.39 3.72 3.33 9.1477e-41
1.44 3.72 3.34 9.1477e-41
1.49 3.72 3.34 9.1477e-41
1.54 3.72 3.35 9.1477e-41
1.59 3.72 3.35 9.1477e-41
1.64 3.72 3.36 9.1477e-41
1.69 3.72 3.36 9.1477e-41
1.73 3.72 3.36 9.1477e-41
1.78 3.72 3.37 9.1477e-41
1.82 3.72 3.37 9.1477e-41
1.86 3.72 3.37 9.1477e-41
1.89 3.72 3.36 9.1477e-41
1.93 3.72 3.37 9.1477e-41
1.97 3.72 3.37 9.1477e-41
2.01 3.72 3.37 9.1477e-41
2.05 3.72 3.37 9.1477e-41
2.08 3.72 3.37 9.1477e-41
2.12 3.72 3.37 9.1477e-41
2.15 3.72 3.37 9.1477e-41
2.19 3.72 3.37 9.1477e-41
2.22 3.72 3.37 9.1477e-41
2.25 3.72 3.37 9.1477e-41
2.28 3.72 3.37 9.1477e-41
2.32 3.72 3.37 9.1477e-41
2.34 3.72 3.36 9.1477e-41
2.38 3.72 3.37 9.1477e-41
2.41 3.72 3.37 9.1477e-41
2.44 3.72 3.36 9.1477e-41
2.47 3.72 3.37 9.1477e-41
2.5 3.72 3.36 9.1477e-41
2.53 3.72 3.36 9.1477e-41
2.56 3.72 3.36 9.1477e-41
2.59 3.72 3.36 9.1477e-41
2.6 3.72 3.34 9.1477e-41
2.64 3.72 3.35 9.1477e-41
2.66 3.72 3.35 9.1477e-41
2.69 3.72 3.34 9.1477e-41
2.72 3.72 3.35 9.1477e-41
2.74 3.72 3.33 9.1477e-41
2.77 3.72 3.34 9.1477e-41
2.79 3.72 3.33 9.1477e-41
2.82 3.72 3.33 9.1477e-41
2.84 3.72 3.33 9.1477e-41
2.87 3.72 3.33 9.1477e-41
2.89 3.72 3.31 9.1477e-41
2.91 3.72 3.3 9.1477e-41
2.93 3.72 3.3 9.1477e-41
2.96 3.72 3.3 9.1477e-41
2.98 3.72 3.29 9.1477e-41
3 3.72 3.29 9.1477e-41
3.03 3.72 3.29 9.1477e-41
3.05 3.72 3.28 9.1477e-41
3.08 3.72 3.28 9.1477e-41
3.1 3.72 3.27 9.1477e-41
3.12 3.72 3.27 9.1477e-41
3.14 3.72 3.26 9.1477e-41
3.16 3.72 3.26 9.1477e-41
3.18 3.72 3.25 9.1477e-41
3.21 3.72 3.24 9.1477e-41
3.23 3.72 3.23 9.1477e-41
3.25 3.72 3.24 9.1477e-41
3.27 3.72 3.23 9.1477e-41
3.28 3.72 3.18 9.1477e-41
3.3 3.72 3.18 3.57e-43
3.3 3.72 3.18 3.57e-43
3.31 3.72 3.18 3.57e-43
3.32 3.72 3.18 3.57e-43
3.33 3.72 3.18 3.57e-43
3.34 3.72 3.18 3.57e-43
3.34 3.72 3.18 3.57e-43
3.35 3.72 3.18 3.57e-43
3.36 3.72 3.18 3.57e-43
3.37 3.72 3.18 3.57e-43
3.37 3.72 3.18 3.57e-43
3.38 3.72 3.18 3.57e-43
3.38 3.72 2.18 9.1477e-41
3.39 3.72 2.18 3.57e-43
3.37 3.72 1.78 9.1477e-41
3.37 3.72 1.78 3.57e-43
3.37 3.72 1.09 9.1477e-41
1.13 3.75 3.29 9.1477e-41
1.19 3.75 3.29 9.1477e-41
1.26 3.75 3.31 9.1477e-41
1.32 3.75 3.31 9.1477e-41
1.38 3.75 3.32 9.1477e-41
1.44 3.75 3.33 9.1477e-41
1.49 3.75 3.34 9.1477e-41
1.54 3.75 3.35 9.1477e-41
1.59 3.75 3.35 9.1477e-41
1.64 3.75 3.36 9.1477e-41
1.69 3.75 3.36 9.1477e-41
1.73 3.75 3.36 9.1477e-41
1.78 3.75 3.37 9.1477e-41
1.82 3.75 3.37 9.1477e-41
1.86 3.75 3.37 9.1477e-41
1.9 3.75 3.37 9.1477e-41
1.93 3.75 3.37 9.1477e-41
1.97 3.75 3.37 9.1477e-41
2.01 3.75 3.37 9.1477e-41
2.05 3.75 3.37 9.1477e-41
2.08 3.75 3.37 9.1477e-41
2.11 3.75 3.37 9.1477e-41
2.15 3.75 3.36 9.1477e-41
2.19 3.75 3.37 9.1477e-41
2.22 3.75 3.37 9.1477e-41
2.25 3.75 3.37 9.1477e-41
2.29 3.75 3.38 9.1477e-41
2.31 3.75 3.36 9.1477e-41
2.35 3.75 3.37 9.1477e-41
2.38 3.75 3.37 9.1477e-41
2.41 3.75 3.37 9.1477e-41
2.43 3.75 3.36 9.1477e-41
2.47 3.75 3.37 9.1477e-41
2.5 3.75 3.36 9.1477e-41
2.53 3.75 3.36 9.1477e-41
2.56 3.75 3.36 9.1477e-41
2.58 3.75 3.35 9.1477e-41
2.61 3.75 3.35 9.1477e-41
2.64 3.75 3.35 9.1477e-41
2.66 3.75 3.35 9.1477e-41
2.69 3.75 3.34 9.1477e-41
2.71 3.75 3.34 9.1477e-41
2.74 3.75 3.34 9.1477e-41
2.77 3.75 3.34 9.1477e-41
2.79 3.75 3.33 9.1477e-41
2.82 3.75 3.33 9.1477e-41
2.84 3.75 3.33 9.1477e-41
2.87 3.75 3.33 9.1477e-41
2.89 3.75 3.31 9.1477e-41
2.91 3.75 3.31 9.1477e-41
2.94 3.75 3.31 9.1477e-41
2.96 3.75 3.3 9.1477e-41
2.98 3.75 3.3 9.1477e-41
3.01 3.75 3.3 9.1477e-41
3.03 3.75 3.29 9.1477e-41
3.05 3.75 3.28 9.1477e-41
3.08 3.75 3.28 9.1477e-41
3.1 3.75 3.27 9.1477e-41
3.12 3.75 3.27 9.1477e-41
3.14 3.75 3.26 9.1477e-41
3.16 3.75 3.26 9.1477e-41
3.19 3.75 3.26 9.1477e-41
3.21 3.75 3.24 9.1477e-41
3.23 3.75 3.23 9.1477e-41
3.26 3.75 3.25 9.1477e-41
3.27 3.75 3.22 9.1477e-41
3.28 3.75 3.18 9.1477e-41
3.3 3.75 3.18 3.57e-43
3.3 3.75 3.18 3.57e-43
3.31 3.75 3.18 3.57e-43
3.32 3.75 3.18 3.57e-43
3.33 3.75 3.18 3.57e-43
3.34 3.75 3.18 3.57e-43
3.34 3.75 3.18 3.57e-43
3.35 3.75 3.18 3.57e-43
3.36 3.75 3.18 3.57e-43
3.37 3.75 3.18 3.57e-43
3.37 3.75 3.18 3.57e-43
3.38 3.75 3.18 3.57e-43
3.38 3.75 2.18 9.1477e-41
3.39 3.75 2.18 3.57e-43
3.37 3.75 1.78 9.1477e-41
3.37 3.75 1.78 3.57e-43
3.37 3.75 1.09 9.1477e-41
1.13 3.78 3.29 9.1477e-41
1.19 3.78 3.29 9.1477e-41
1.25 3.78 3.3 9.1477e-41
1.32 3.78 3.31 9.1477e-41
1.38 3.78 3.32 9.1477e-41
1.44 3.78 3.33 9.1477e-41
1.49 3.78 3.34 9.1477e-41
1.54 3.78 3.35 9.1477e-41
1.59 3.78 3.35 9.1477e-41
1.64 3.78 3.36 9.1477e-41
1.69 3.78 3.36 9.1477e-41
1.73 3.78 3.36 9.1477e-41
1.78 3.78 3.37 9.1477e-41
1.81 3.78 3.36 9.1477e-41
1.86 3.78 3.37 9.1477e-41
1.9 3.78 3.37 9.1477e-41
1.94 3.78 3.37 9.1477e-41
1.97 3.78 3.36 9.1477e-41
2.01 3.78 3.37 9.1477e-41
2.05 3.78 3.37 9.1477e-41
2.08 3.78 3.37 9.1477e-41
2.11 3.78 3.37 9.1477e-41
2.15 3.78 3.36 9.1477e-41
2.19 3.78 3.37 9.1477e-41
2.21 3.78 3.36 9.1477e-41
2.25 3.78 3.36 9.1477e-41
2.28 3.78 3.37 9.1477e-41
2.32 3.78 3.37 9.1477e-41
2.35 3.78 3.37 9.1477e-41
2.38 3.78 3.37 9.1477e-41
2.41 3.78 3.37 9.1477e-41
2.44 3.78 3.36 9.1477e-41
2.47 3.78 3.37 9.1477e-41
2.5 3.78 3.36 9.1477e-41
2.53 3.78 3.36 9.1477e-41
2.56 3.78 3.36 9.1477e-41
2.58 3.78 3.35 9.1477e-41
2.61 3.78 3.35 9.1477e-41
2.64 3.78 3.35 9.1477e-41
2.66 3.78 3.34 9.1477e-41
2.69 3.78 3.34 9.1477e-41
2.71 3.78 3.33 9.1477e-41
2.74 3.78 3.34 9.1477e-41
2.77 3.78 3.34 9.1477e-41
2.79 3.78 3.33 9.1477e-41
2.82 3.78 3.33 9.1477e-41
2.84 3.78 3.33 9.1477e-41
2.86 3.78 3.32 9.1477e-41
2.89 3.78 3.31 9.1477e-41
2.91 3.78 3.31 9.1477e-41
2.94 3.78 3.31 9.1477e-41
2.96 3.78 3.31 9.1477e-41
2.98 3.78 3.3 9.1477e-41
3 3.78 3.28 9.1477e-41
3.03 3.78 3.29 9.1477e-41
3.05 3.78 3.28 9.1477e-41
3.08 3.78 3.28 9.1477e-41
3.1 3.78 3.27 9.1477e-41
3.12 3.78 3.27 9.1477e-41
3.14 3.78 3.26 9.1477e-41
3.16 3.78 3.26 9.1477e-41
3.18 3.78 3.25 9.1477e-41
3.21 3.78 3.24 9.1477e-41
3.23 3.78 3.23 9.1477e-41
3.25 3.78 3.24 9.1477e-41
3.27 3.78 3.22 9.1477e-41
3.29 3.78 3.19 9.1477e-41
3.3 3.78 3.19 3.57e-43
3.3 3.78 3.19 3.57e-43
3.31 3.78 3.19 3.57e-43
3.32 3.78 3.19 3.57e-43
3.33 3.78 3.19 3.57e-43
3.34 3.78 3.19 3.57e-43
3.34 3.78 3.19 3.57e-43
3.35 3.78 3.19 3.57e-43
3.36 3.78 3.19 3.57e-43
3.37 3.78 3.19 3.57e-43
3.37 3.78 3.19 3.57e-43
3.38 3.78 3.19 3.57e-43
3.38 3.78 2.18 9.1477e-41
3.39 3.78 2.18 3.57e-43
3.37 3.78 1.78 9.1477e-41
3.37 3.78 1.78 3.57e-43
3.37 3.78 1.09 9.1477e-41
