# .PCD v.7 - Point Cloud Data file format
VERSION .7
FIELDS x y z rgb
SIZE 4 4 4 4
TYPE F F F F
WIDTH 1895
HEIGHT 1
POINTS 1895
DATA ascii
5.1 3.2 3.3 9.1477e-41
5.12 3.2 3.3 9.1477e-41
5.14 3.2 3.31 9.1477e-41
5.17 3.2 3.3 9.1477e-41
5.19 3.2 3.31 9.1477e-41
5.22 3.2 3.31 9.1477e-41
5.24 3.2 3.32 9.1477e-41
5.27 3.2 3.32 9.1477e-41
5.3 3.2 3.33 9.1477e-41
5.33 3.2 3.32 9.1477e-41
5.35 3.2 3.32 9.1477e-41
5.38 3.2 3.32 9.1477e-41
5.4 3.2 3.33 9.1477e-41
5.43 3.2 3.32 9.1477e-41
5.46 3.2 3.32 9.1477e-41
5.49 3.2 3.32 9.1477e-41
5.52 3.2 3.32 9.1477e-41
5.55 3.2 3.32 9.1477e-41
5.57 3.2 3.33 9.1477e-41
5.61 3.2 3.33 9.1477e-41
5.64 3.2 3.32 9.1477e-41
5.67 3.2 3.32 9.1477e-41
5.7 3.2 3.32 9.1477e-41
5.73 3.2 3.32 9.1477e-41
5.77 3.2 3.32 9.1477e-41
5.79 3.2 3.32 9.1477e-41
5.83 3.2 3.31 9.1477e-41
5.86 3.2 3.33 9.1477e-41
5.89 3.2 3.33 9.1477e-41
5.92 3.2 3.33 9.1477e-41
5.96 3.2 3.32 9.1477e-41
6 3.2 3.32 9.1477e-41
6.03 3.2 3.33 9.1477e-41
6.06 3.2 3.33 9.1477e-41
6.11 3.2 3.32 9.1477e-41
6.15 3.2 3.32 9.1477e-41
6.19 3.2 3.32 9.1477e-41
6.23 3.2 3.3 9.1477e-41
6.28 3.2 3.31 9.1477e-41
6.32 3.2 3.31 9.1477e-41
6.36 3.2 3.3 9.1477e-41
6.41 3.2 3.3 9.1477e-41
6.46 3.2 3.29 9.1477e-41
6.51 3.2 3.28 9.1477e-41
6.57 3.2 3.27 9.1477e-41
6.63 3.2 3.25 9.1477e-41
6.69 3.2 3.24 9.1477e-41
6.75 3.2 3.23 9.1477e-41
4.43 3.52 1.8 3.57e-43
4.44 3.52 2.06 9.1477e-41
4.47 3.52 2.06 3.57e-43
4.69 3.52 2.06 3.57e-43
4.73 3.52 2.06 3.57e-43
4.78 3.52 0.47 9.1477e-41
4.52 3.52 2.65 9.1477e-41
4.54 3.52 2.73 9.1477e-41
4.55 3.52 2.8 9.1477e-41
4.56 3.52 2.88 9.1477e-41
4.58 3.52 2.94 9.1477e-41
4.59 3.52 3 9.1477e-41
4.61 3.52 3.04 9.1477e-41
4.62 3.52 3.12 9.1477e-41
4.63 3.52 3.17 9.1477e-41
4.65 3.52 3.18 9.1477e-41
4.67 3.52 3.22 9.1477e-41
4.69 3.52 3.23 9.1477e-41
4.71 3.52 3.23 9.1477e-41
4.73 3.52 3.24 9.1477e-41
4.75 3.52 3.25 9.1477e-41
4.78 3.52 3.25 9.1477e-41
4.8 3.52 3.24 9.1477e-41
4.82 3.52 3.25 9.1477e-41
4.84 3.52 3.26 9.1477e-41
4.86 3.52 3.26 9.1477e-41
4.89 3.52 3.26 9.1477e-41
4.91 3.52 3.27 9.1477e-41
4.93 3.52 3.28 9.1477e-41
4.96 3.52 3.27 9.1477e-41
4.98 3.52 3.27 9.1477e-41
5 3.52 3.29 9.1477e-41
5.03 3.52 3.29 9.1477e-41
5.05 3.52 3.29 9.1477e-41
5.08 3.52 3.3 9.1477e-41
5.1 3.52 3.3 9.1477e-41
5.12 3.52 3.3 9.1477e-41
5.15 3.52 3.3 9.1477e-41
5.17 3.52 3.31 9.1477e-41
5.19 3.52 3.31 9.1477e-41
5.22 3.52 3.31 9.1477e-41
5.24 3.52 3.32 9.1477e-41
5.27 3.52 3.32 9.1477e-41
5.3 3.52 3.33 9.1477e-41
5.33 3.52 3.32 9.1477e-41
5.35 3.52 3.33 9.1477e-41
5.38 3.52 3.32 9.1477e-41
5.4 3.52 3.33 9.1477e-41
5.43 3.52 3.33 9.1477e-41
5.46 3.52 3.32 9.1477e-41
5.49 3.52 3.33 9.1477e-41
5.51 3.52 3.33 9.1477e-41
5.54 3.52 3.33 9.1477e-41
5.57 3.52 3.33 9.1477e-41
5.6 3.52 3.34 9.1477e-41
5.63 3.52 3.33 9.1477e-41
5.66 3.52 3.33 9.1477e-41
5.7 3.52 3.32 9.1477e-41
5.72 3.52 3.33 9.1477e-41
5.76 3.52 3.33 9.1477e-41
5.79 3.52 3.33 9.1477e-41
5.82 3.52 3.33 9.1477e-41
5.85 3.52 3.34 9.1477e-41
5.89 3.52 3.33 9.1477e-41
5.92 3.52 3.33 9.1477e-41
5.96 3.52 3.33 9.1477e-41
6 3.52 3.32 9.1477e-41
6.04 3.52 3.32 9.1477e-41
6.07 3.52 3.32 9.1477e-41
6.11 3.52 3.33 9.1477e-41
6.15 3.52 3.31 9.1477e-41
6.19 3.52 3.31 9.1477e-41
6.23 3.52 3.3 9.1477e-41
6.28 3.52 3.31 9.1477e-41
6.33 3.52 3.29 9.1477e-41
6.36 3.52 3.3 9.1477e-41
6.41 3.52 3.29 9.1477e-41
6.46 3.52 3.29 9.1477e-41
6.51 3.52 3.28 9.1477e-41
6.57 3.52 3.27 9.1477e-41
6.63 3.52 3.25 9.1477e-41
6.69 3.52 3.24 9.1477e-41
6.76 3.52 3.22 9.1477e-41
4.43 3.84 1.8 3.57e-43
4.44 3.84 1.8 3.57e-43
4.47 3.84 1.8 3.57e-43
4.69 3.84 1.8 3.57e-43
4.73 3.84 1.8 3.57e-43
4.78 3.84 1.8 3.57e-43
4.52 3.84 1.8 3.57e-43
4.54 3.84 1.8 3.57e-43
4.55 3.84 1.8 3.57e-43
4.56 3.84 1.8 3.57e-43
4.58 3.84 1.8 3.57e-43
4.59 3.84 1.8 3.57e-43
4.61 3.84 3.04 9.1477e-41
4.62 3.84 3.13 9.1477e-41
4.63 3.84 3.17 9.1477e-41
4.65 3.84 3.18 9.1477e-41
4.66 3.84 3.23 9.1477e-41
4.69 3.84 3.23 9.1477e-41
4.71 3.84 3.22 9.1477e-41
4.73 3.84 3.24 9.1477e-41
4.75 3.84 3.24 9.1477e-41
4.78 3.84 3.25 9.1477e-41
4.8 3.84 3.24 9.1477e-41
4.82 3.84 3.25 9.1477e-41
4.84 3.84 3.26 9.1477e-41
4.87 3.84 3.25 9.1477e-41
4.89 3.84 3.26 9.1477e-41
4.91 3.84 3.26 9.1477e-41
4.93 3.84 3.27 9.1477e-41
4.96 3.84 3.26 9.1477e-41
4.98 3.84 3.27 9.1477e-41
5.01 3.84 3.28 9.1477e-41
5.03 3.84 3.28 9.1477e-41
5.06 3.84 3.28 9.1477e-41
5.08 3.84 3.3 9.1477e-41
5.1 3.84 3.3 9.1477e-41
5.13 3.84 3.29 9.1477e-41
5.15 3.84 3.3 9.1477e-41
5.17 3.84 3.31 9.1477e-41
5.2 3.84 3.3 9.1477e-41
5.22 3.84 3.31 9.1477e-41
5.25 3.84 3.31 9.1477e-41
5.27 3.84 3.31 9.1477e-41
5.3 3.84 3.33 9.1477e-41
5.33 3.84 3.32 9.1477e-41
5.35 3.84 3.33 9.1477e-41
5.38 3.84 3.32 9.1477e-41
5.41 3.84 3.32 9.1477e-41
5.43 3.84 3.32 9.1477e-41
5.46 3.84 3.32 9.1477e-41
5.49 3.84 3.33 9.1477e-41
5.52 3.84 3.32 9.1477e-41
5.55 3.84 3.31 9.1477e-41
5.57 3.84 3.33 9.1477e-41
5.61 3.84 3.33 9.1477e-41
5.63 3.84 3.33 9.1477e-41
5.67 3.84 3.32 9.1477e-41
5.7 3.84 3.33 9.1477e-41
5.73 3.84 3.32 9.1477e-41
5.77 3.84 3.32 9.1477e-41
5.79 3.84 3.33 9.1477e-41
5.83 3.84 3.32 9.1477e-41
5.86 3.84 3.33 9.1477e-41
5.9 3.84 3.32 9.1477e-41
5.92 3.84 3.33 9.1477e-41
5.96 3.84 3.32 9.1477e-41
6 3.84 3.32 9.1477e-41
6.04 3.84 3.32 9.1477e-41
6.07 3.84 3.32 9.1477e-41
6.11 3.84 3.32 9.1477e-41
6.15 3.84 3.31 9.1477e-41
6.19 3.84 3.31 9.1477e-41
6.24 3.84 3.3 9.1477e-41
6.28 3.84 3.3 9.1477e-41
6.32 3.84 3.3 9.1477e-41
6.36 3.84 3.3 9.1477e-41
6.41 3.84 3.29 9.1477e-41
6.47 3.84 3.28 9.1477e-41
6.52 3.84 3.27 9.1477e-41
6.58 3.84 3.26 9.1477e-41
6.63 3.84 3.25 9.1477e-41
6.69 3.84 3.24 9.1477e-41
6.76 3.84 3.22 9.1477e-41
4.43 4.16 1.46 9.1477e-41
4.43 4.16 1.8 9.1477e-41
4.44 4.16 1.8 3.57e-43
4.47 4.16 1.8 3.57e-43
4.69 4.16 1.8 3.57e-43
4.73 4.16 1.8 3.57e-43
4.78 4.16 1.8 3.57e-43
4.52 4.16 1.8 3.57e-43
4.54 4.16 1.8 3.57e-43
4.55 4.16 1.8 3.57e-43
4.56 4.16 1.8 3.57e-43
4.58 4.16 1.8 3.57e-43
4.59 4.16 1.8 3.57e-43
4.61 4.16 3.04 9.1477e-41
4.61 4.16 3.14 9.1477e-41
4.63 4.16 3.17 9.1477e-41
4.65 4.16 3.19 9.1477e-41
4.67 4.16 3.22 9.1477e-41
4.69 4.16 3.23 9.1477e-41
4.71 4.16 3.23 9.1477e-41
4.73 4.16 3.24 9.1477e-41
4.75 4.16 3.24 9.1477e-41
4.78 4.16 3.24 9.1477e-41
4.8 4.16 3.24 9.1477e-41
4.82 4.16 3.24 9.1477e-41
4.84 4.16 3.26 9.1477e-41
4.87 4.16 3.25 9.1477e-41
4.89 4.16 3.26 9.1477e-41
4.91 4.16 3.26 9.1477e-41
4.93 4.16 3.27 9.1477e-41
4.96 4.16 3.27 9.1477e-41
4.98 4.16 3.27 9.1477e-41
5.01 4.16 3.28 9.1477e-41
5.03 4.16 3.29 9.1477e-41
5.05 4.16 3.29 9.1477e-41
5.07 4.16 3.31 9.1477e-41
5.1 4.16 3.3 9.1477e-41
5.12 4.16 3.31 9.1477e-41
5.15 4.16 3.3 9.1477e-41
5.17 4.16 3.3 9.1477e-41
5.2 4.16 3.3 9.1477e-41
5.22 4.16 3.31 9.1477e-41
5.25 4.16 3.31 9.1477e-41
5.27 4.16 3.31 9.1477e-41
5.3 4.16 3.33 9.1477e-41
5.33 4.16 3.32 9.1477e-41
5.35 4.16 3.33 9.1477e-41
5.38 4.16 3.32 9.1477e-41
5.4 4.16 3.33 9.1477e-41
5.43 4.16 3.32 9.1477e-41
5.46 4.16 3.32 9.1477e-41
5.49 4.16 3.32 9.1477e-41
5.51 4.16 3.33 9.1477e-41
5.54 4.16 3.33 9.1477e-41
5.58 4.16 3.32 9.1477e-41
5.61 4.16 3.33 9.1477e-41
5.64 4.16 3.32 9.1477e-41
5.67 4.16 3.32 9.1477e-41
5.7 4.16 3.32 9.1477e-41
5.73 4.16 3.32 9.1477e-41
5.76 4.16 3.33 9.1477e-41
5.79 4.16 3.32 9.1477e-41
5.83 4.16 3.32 9.1477e-41
5.86 4.16 3.32 9.1477e-41
5.89 4.16 3.33 9.1477e-41
5.92 4.16 3.33 9.1477e-41
5.96 4.16 3.32 9.1477e-41
6 4.16 3.31 9.1477e-41
6.04 4.16 3.32 9.1477e-41
6.06 4.16 3.33 9.1477e-41
6.11 4.16 3.33 9.1477e-41
6.15 4.16 3.32 9.1477e-41
6.19 4.16 3.32 9.1477e-41
6.23 4.16 3.3 9.1477e-41
6.28 4.16 3.3 9.1477e-41
6.32 4.16 3.3 9.1477e-41
6.36 4.16 3.3 9.1477e-41
6.41 4.16 3.3 9.1477e-41
6.46 4.16 3.29 9.1477e-41
6.52 4.16 3.27 9.1477e-41
6.58 4.16 3.26 9.1477e-41
6.64 4.16 3.24 9.1477e-41
6.7 4.16 3.24 9.1477e-41
6.76 4.16 3.22 9.1477e-41
4.42 4.48 1.99 3.57e-43
4.44 4.48 1.99 3.57e-43
4.47 4.48 1.99 3.57e-43
4.69 4.48 1.99 3.57e-43
4.73 4.48 1.99 3.57e-43
4.78 4.48 1.99 3.57e-43
4.52 4.48 1.99 3.57e-43
4.54 4.48 1.99 3.57e-43
4.55 4.48 1.99 3.57e-43
4.56 4.48 1.99 3.57e-43
4.58 4.48 1.99 3.57e-43
4.59 4.48 1.99 3.57e-43
4.61 4.48 3.04 9.1477e-41
4.61 4.48 3.14 9.1477e-41
4.63 4.48 3.17 9.1477e-41
4.65 4.48 3.17 9.1477e-41
4.67 4.48 3.22 9.1477e-41
4.69 4.48 3.23 9.1477e-41
4.71 4.48 3.24 9.1477e-41
4.73 4.48 3.24 9.1477e-41
4.75 4.48 3.24 9.1477e-41
4.78 4.48 3.24 9.1477e-41
4.8 4.48 3.24 9.1477e-41
4.82 4.48 3.25 9.1477e-41
4.84 4.48 3.26 9.1477e-41
4.86 4.48 3.26 9.1477e-41
4.89 4.48 3.26 9.1477e-41
4.91 4.48 3.27 9.1477e-41
4.93 4.48 3.28 9.1477e-41
4.96 4.48 3.27 9.1477e-41
4.98 4.48 3.26 9.1477e-41
5 4.48 3.29 9.1477e-41
5.03 4.48 3.29 9.1477e-41
5.05 4.48 3.29 9.1477e-41
5.07 4.48 3.31 9.1477e-41
5.1 4.48 3.3 9.1477e-41
5.12 4.48 3.3 9.1477e-41
5.15 4.48 3.3 9.1477e-41
5.17 4.48 3.3 9.1477e-41
5.19 4.48 3.31 9.1477e-41
5.22 4.48 3.31 9.1477e-41
5.24 4.48 3.32 9.1477e-41
5.27 4.48 3.31 9.1477e-41
5.3 4.48 3.32 9.1477e-41
5.33 4.48 3.32 9.1477e-41
5.35 4.48 3.33 9.1477e-41
5.38 4.48 3.32 9.1477e-41
5.41 4.48 3.32 9.1477e-41
5.43 4.48 3.33 9.1477e-41
5.46 4.48 3.32 9.1477e-41
5.49 4.48 3.32 9.1477e-41
5.52 4.48 3.32 9.1477e-41
5.54 4.48 3.33 9.1477e-41
5.57 4.48 3.33 9.1477e-41
5.61 4.48 3.33 9.1477e-41
5.64 4.48 3.32 9.1477e-41
5.66 4.48 3.34 9.1477e-41
5.7 4.48 3.33 9.1477e-41
5.73 4.48 3.32 9.1477e-41
5.76 4.48 3.33 9.1477e-41
5.79 4.48 3.32 9.1477e-41
5.83 4.48 3.32 9.1477e-41
5.86 4.48 3.33 9.1477e-41
5.89 4.48 3.33 9.1477e-41
5.92 4.48 3.33 9.1477e-41
5.96 4.48 3.32 9.1477e-41
6 4.48 3.31 9.1477e-41
6.03 4.48 3.33 9.1477e-41
6.08 4.48 3.32 9.1477e-41
6.11 4.48 3.32 9.1477e-41
6.15 4.48 3.32 9.1477e-41
6.19 4.48 3.31 9.1477e-41
6.24 4.48 3.3 9.1477e-41
6.28 4.48 3.31 9.1477e-41
6.32 4.48 3.3 9.1477e-41
6.37 4.48 3.29 9.1477e-41
6.41 4.48 3.29 9.1477e-41
6.47 4.48 3.27 9.1477e-41
6.53 4.48 3.27 9.1477e-41
6.58 4.48 3.26 9.1477e-41
6.63 4.48 3.25 9.1477e-41
6.71 4.48 3.23 9.1477e-41
6.76 4.48 3.22 9.1477e-41
4.42 4.8 1.99 3.57e-43
4.44 4.8 1.99 3.57e-43
4.47 4.8 1.99 3.57e-43
4.69 4.8 1.99 3.57e-43
4.73 4.8 1.99 3.57e-43
4.78 4.8 1.99 3.57e-43
4.52 4.8 1.99 3.57e-43
4.54 4.8 1.99 3.57e-43
4.55 4.8 1.99 3.57e-43
4.56 4.8 1.99 3.57e-43
4.58 4.8 1.99 3.57e-43
4.59 4.8 1.99 3.57e-43
4.61 4.8 3.04 9.1477e-41
4.61 4.8 3.15 9.1477e-41
4.63 4.8 3.17 9.1477e-41
4.65 4.8 3.19 9.1477e-41
4.67 4.8 3.22 9.1477e-41
4.69 4.8 3.23 9.1477e-41
4.71 4.8 3.23 9.1477e-41
4.73 4.8 3.23 9.1477e-41
4.75 4.8 3.25 9.1477e-41
4.78 4.8 3.25 9.1477e-41
4.8 4.8 3.25 9.1477e-41
4.82 4.8 3.25 9.1477e-41
4.84 4.8 3.26 9.1477e-41
4.87 4.8 3.25 9.1477e-41
4.89 4.8 3.26 9.1477e-41
4.91 4.8 3.27 9.1477e-41
4.93 4.8 3.27 9.1477e-41
4.96 4.8 3.26 9.1477e-41
4.98 4.8 3.27 9.1477e-41
5.01 4.8 3.28 9.1477e-41
5.03 4.8 3.29 9.1477e-41
5.05 4.8 3.29 9.1477e-41
5.07 4.8 3.31 9.1477e-41
5.1 4.8 3.3 9.1477e-41
5.13 4.8 3.29 9.1477e-41
5.15 4.8 3.3 9.1477e-41
5.17 4.8 3.3 9.1477e-41
5.2 4.8 3.3 9.1477e-41
5.22 4.8 3.31 9.1477e-41
5.25 4.8 3.31 9.1477e-41
5.27 4.8 3.31 9.1477e-41
5.3 4.8 3.33 9.1477e-41
5.33 4.8 3.32 9.1477e-41
5.35 4.8 3.32 9.1477e-41
5.38 4.8 3.32 9.1477e-41
5.4 4.8 3.33 9.1477e-41
5.44 4.8 3.31 9.1477e-41
5.46 4.8 3.32 9.1477e-41
5.49 4.8 3.32 9.1477e-41
5.52 4.8 3.32 9.1477e-41
5.55 4.8 3.32 9.1477e-41
5.57 4.8 3.33 9.1477e-41
5.61 4.8 3.33 9.1477e-41
5.64 4.8 3.32 9.1477e-41
5.67 4.8 3.32 9.1477e-41
5.7 4.8 3.33 9.1477e-41
5.73 4.8 3.32 9.1477e-41
5.76 4.8 3.33 9.1477e-41
5.79 4.8 3.32 9.1477e-41
5.83 4.8 3.32 9.1477e-41
5.86 4.8 3.33 9.1477e-41
5.89 4.8 3.34 9.1477e-41
5.92 4.8 3.33 9.1477e-41
5.96 4.8 3.33 9.1477e-41
6 4.8 3.32 9.1477e-41
6.04 4.8 3.32 9.1477e-41
6.08 4.8 3.32 9.1477e-41
6.11 4.8 3.32 9.1477e-41
6.15 4.8 3.31 9.1477e-41
6.19 4.8 3.31 9.1477e-41
6.23 4.8 3.3 9.1477e-41
6.28 4.8 3.3 9.1477e-41
6.32 4.8 3.3 9.1477e-41
6.37 4.8 3.29 9.1477e-41
6.42 4.8 3.28 9.1477e-41
6.47 4.8 3.27 9.1477e-41
6.53 4.8 3.27 9.1477e-41
6.58 4.8 3.26 9.1477e-41
6.64 4.8 3.24 9.1477e-41
6.7 4.8 3.24 9.1477e-41
6.76 4.8 3.22 9.1477e-41
4.43 5.12 1.46 9.1477e-41
4.42 5.12 1.99 9.1477e-41
4.44 5.12 1.99 3.57e-43
4.47 5.12 1.99 3.57e-43
4.69 5.12 1.99 3.57e-43
4.73 5.12 1.99 3.57e-43
4.78 5.12 1.99 3.57e-43
4.52 5.12 1.99 3.57e-43
4.54 5.12 1.99 3.57e-43
4.55 5.12 1.99 3.57e-43
4.56 5.12 1.99 3.57e-43
4.58 5.12 1.99 3.57e-43
4.59 5.12 1.99 3.57e-43
4.61 5.12 3.04 9.1477e-41
4.61 5.12 3.17 9.1477e-41
4.63 5.12 3.17 9.1477e-41
4.65 5.12 3.19 9.1477e-41
4.67 5.12 3.22 9.1477e-41
4.69 5.12 3.23 9.1477e-41
4.71 5.12 3.23 9.1477e-41
4.73 5.12 3.23 9.1477e-41
4.75 5.12 3.24 9.1477e-41
4.78 5.12 3.25 9.1477e-41
4.8 5.12 3.24 9.1477e-41
4.82 5.12 3.25 9.1477e-41
4.84 5.12 3.26 9.1477e-41
4.87 5.12 3.25 9.1477e-41
4.89 5.12 3.25 9.1477e-41
4.91 5.12 3.26 9.1477e-41
4.93 5.12 3.27 9.1477e-41
4.96 5.12 3.26 9.1477e-41
4.98 5.12 3.27 9.1477e-41
5 5.12 3.29 9.1477e-41
5.03 5.12 3.28 9.1477e-41
5.05 5.12 3.29 9.1477e-41
5.07 5.12 3.31 9.1477e-41
5.09 5.12 3.31 9.1477e-41
5.12 5.12 3.31 9.1477e-41
5.15 5.12 3.3 9.1477e-41
5.18 5.12 3.29 9.1477e-41
5.2 5.12 3.3 9.1477e-41
5.22 5.12 3.31 9.1477e-41
5.25 5.12 3.3 9.1477e-41
5.27 5.12 3.31 9.1477e-41
5.3 5.12 3.32 9.1477e-41
5.33 5.12 3.31 9.1477e-41
5.36 5.12 3.31 9.1477e-41
5.38 5.12 3.32 9.1477e-41
5.41 5.12 3.31 9.1477e-41
5.43 5.12 3.32 9.1477e-41
5.46 5.12 3.32 9.1477e-41
5.49 5.12 3.32 9.1477e-41
5.53 5.12 3.32 9.1477e-41
5.55 5.12 3.32 9.1477e-41
5.58 5.12 3.31 9.1477e-41
5.61 5.12 3.32 9.1477e-41
5.65 5.12 3.31 9.1477e-41
5.67 5.12 3.31 9.1477e-41
5.71 5.12 3.3 9.1477e-41
5.74 5.12 3.31 9.1477e-41
5.77 5.12 3.32 9.1477e-41
5.8 5.12 3.32 9.1477e-41
5.84 5.12 3.31 9.1477e-41
5.86 5.12 3.32 9.1477e-41
5.9 5.12 3.32 9.1477e-41
5.94 5.12 3.31 9.1477e-41
5.96 5.12 3.32 9.1477e-41
6 5.12 3.31 9.1477e-41
6.03 5.12 3.33 9.1477e-41
6.08 5.12 3.31 9.1477e-41
6.11 5.12 3.32 9.1477e-41
6.16 5.12 3.31 9.1477e-41
6.2 5.12 3.3 9.1477e-41
6.23 5.12 3.3 9.1477e-41
6.29 5.12 3.3 9.1477e-41
6.33 5.12 3.29 9.1477e-41
6.38 5.12 3.28 9.1477e-41
6.42 5.12 3.28 9.1477e-41
6.48 5.12 3.27 9.1477e-41
6.53 5.12 3.27 9.1477e-41
6.58 5.12 3.25 9.1477e-41
6.64 5.12 3.24 9.1477e-41
6.7 5.12 3.24 9.1477e-41
6.76 5.12 3.22 9.1477e-41
4.43 5.44 1.46 9.1477e-41
4.41 5.44 2.05 9.1477e-41
4.44 5.44 2.05 3.57e-43
4.47 5.44 2.05 3.57e-43
4.69 5.44 2.05 3.57e-43
4.73 5.44 2.05 3.57e-43
4.78 5.44 2.05 3.57e-43
4.52 5.44 2.05 3.57e-43
4.54 5.44 2.05 3.57e-43
4.55 5.44 2.05 3.57e-43
4.56 5.44 2.05 3.57e-43
4.58 5.44 2.05 3.57e-43
4.59 5.44 2.05 3.57e-43
4.61 5.44 3.04 9.1477e-41
4.61 5.44 3.17 9.1477e-41
4.63 5.44 3.17 9.1477e-41
4.65 5.44 3.2 9.1477e-41
4.67 5.44 3.22 9.1477e-41
4.69 5.44 3.22 9.1477e-41
4.71 5.44 3.22 9.1477e-41
4.73 5.44 3.24 9.1477e-41
4.75 5.44 3.24 9.1477e-41
4.78 5.44 3.25 9.1477e-41
4.8 5.44 3.24 9.1477e-41
4.82 5.44 3.25 9.1477e-41
4.85 5.44 3.26 9.1477e-41
4.87 5.44 3.25 9.1477e-41
4.89 5.44 3.26 9.1477e-41
4.91 5.44 3.26 9.1477e-41
4.94 5.44 3.26 9.1477e-41
4.96 5.44 3.25 9.1477e-41
4.98 5.44 3.27 9.1477e-41
5.01 5.44 3.28 9.1477e-41
5.03 5.44 3.28 9.1477e-41
5.05 5.44 3.29 9.1477e-41
5.08 5.44 3.3 9.1477e-41
5.1 5.44 3.3 9.1477e-41
5.12 5.44 3.3 9.1477e-41
5.15 5.44 3.3 9.1477e-41
5.18 5.44 3.29 9.1477e-41
5.2 5.44 3.3 9.1477e-41
5.23 5.44 3.3 9.1477e-41
5.25 5.44 3.31 9.1477e-41
5.28 5.44 3.3 9.1477e-41
5.3 5.44 3.32 9.1477e-41
5.33 5.44 3.31 9.1477e-41
5.36 5.44 3.31 9.1477e-41
5.38 5.44 3.32 9.1477e-41
5.41 5.44 3.31 9.1477e-41
5.44 5.44 3.31 9.1477e-41
5.46 5.44 3.32 9.1477e-41
5.5 5.44 3.3 9.1477e-41
5.53 5.44 3.32 9.1477e-41
5.56 5.44 3.31 9.1477e-41
5.59 5.44 3.3 9.1477e-41
5.62 5.44 3.31 9.1477e-41
5.63 5.44 3.33 9.1477e-41
5.65 5.44 3.35 9.1477e-41
5.67 5.44 3.37 9.1477e-41
5.69 5.44 3.38 9.1477e-41
5.71 5.44 3.39 9.1477e-41
5.74 5.44 3.39 9.1477e-41
5.78 5.44 3.38 9.1477e-41
5.83 5.44 3.37 9.1477e-41
5.91 5.44 3.3 9.1477e-41
5.94 5.44 3.31 9.1477e-41
5.98 5.44 3.3 9.1477e-41
6.01 5.44 3.31 9.1477e-41
6.04 5.44 3.32 9.1477e-41
6.08 5.44 3.31 9.1477e-41
6.12 5.44 3.31 9.1477e-41
6.16 5.44 3.31 9.1477e-41
6.19 5.44 3.31 9.1477e-41
6.24 5.44 3.3 9.1477e-41
6.28 5.44 3.3 9.1477e-41
6.33 5.44 3.29 9.1477e-41
6.37 5.44 3.29 9.1477e-41
6.43 5.44 3.27 9.1477e-41
6.47 5.44 3.28 9.1477e-41
6.53 5.44 3.26 9.1477e-41
6.59 5.44 3.25 9.1477e-41
6.65 5.44 3.23 9.1477e-41
6.71 5.44 3.23 9.1477e-41
6.77 5.44 3.21 9.1477e-41
4.39 5.76 1.47 9.1477e-41
4.41 5.76 1.67 9.1477e-41
4.41 5.76 2.04 9.1477e-41
4.44 5.76 2.04 3.57e-43
4.47 5.76 2.04 3.57e-43
4.69 5.76 2.04 3.57e-43
4.73 5.76 2.04 3.57e-43
4.78 5.76 2.04 3.57e-43
4.52 5.76 2.65 9.1477e-41
4.53 5.76 2.77 9.1477e-41
4.54 5.76 2.86 9.1477e-41
4.56 5.76 2.91 9.1477e-41
4.57 5.76 2.98 9.1477e-41
4.59 5.76 3.04 9.1477e-41
4.6 5.76 3.09 9.1477e-41
4.61 5.76 3.17 9.1477e-41
4.63 5.76 3.16 9.1477e-41
4.65 5.76 3.2 9.1477e-41
4.67 5.76 3.22 9.1477e-41
4.69 5.76 3.23 9.1477e-41
4.71 5.76 3.23 9.1477e-41
4.72 5.76 3.28 9.1477e-41
4.73 5.76 3.33 9.1477e-41
4.75 5.76 3.32 9.1477e-41
4.77 5.76 3.35 9.1477e-41
4.79 5.76 3.35 9.1477e-41
4.82 5.76 3.34 9.1477e-41
4.84 5.76 3.34 9.1477e-41
4.86 5.76 3.35 9.1477e-41
4.88 5.76 3.35 9.1477e-41
4.91 5.76 3.35 9.1477e-41
4.93 5.76 3.35 9.1477e-41
4.95 5.76 3.36 9.1477e-41
4.97 5.76 3.36 9.1477e-41
4.99 5.76 3.36 9.1477e-41
5.02 5.76 3.37 9.1477e-41
5.04 5.76 3.37 9.1477e-41
5.06 5.76 3.38 9.1477e-41
5.09 5.76 3.39 9.1477e-41
5.11 5.76 3.4 9.1477e-41
5.14 5.76 3.38 9.1477e-41
5.2 5.76 3.3 9.1477e-41
5.23 5.76 3.3 9.1477e-41
5.25 5.76 3.3 9.1477e-41
5.27 5.76 3.31 9.1477e-41
5.3 5.76 3.31 9.1477e-41
5.33 5.76 3.32 9.1477e-41
5.36 5.76 3.3 9.1477e-41
5.38 5.76 3.32 9.1477e-41
5.41 5.76 3.31 9.1477e-41
5.44 5.76 3.31 9.1477e-41
5.47 5.76 3.31 9.1477e-41
5.5 5.76 3.31 9.1477e-41
5.52 5.76 3.31 9.1477e-41
5.55 5.76 3.32 9.1477e-41
5.58 5.76 3.31 9.1477e-41
5.62 5.76 3.31 9.1477e-41
5.64 5.76 3.32 9.1477e-41
5.65 5.76 3.35 9.1477e-41
5.67 5.76 3.37 9.1477e-41
5.69 5.76 3.38 9.1477e-41
5.71 5.76 3.39 9.1477e-41
5.75 5.76 3.4 9.1477e-41
5.78 5.76 3.38 9.1477e-41
5.85 5.76 3.33 9.1477e-41
5.9 5.76 3.32 9.1477e-41
5.94 5.76 3.31 9.1477e-41
5.97 5.76 3.32 9.1477e-41
6 5.76 3.32 9.1477e-41
6.04 5.76 3.32 9.1477e-41
6.08 5.76 3.32 9.1477e-41
6.11 5.76 3.32 9.1477e-41
6.16 5.76 3.31 9.1477e-41
6.2 5.76 3.3 9.1477e-41
6.24 5.76 3.3 9.1477e-41
6.29 5.76 3.3 9.1477e-41
6.32 5.76 3.31 9.1477e-41
6.34 5.76 3.33 9.1477e-41
6.35 5.76 3.36 9.1477e-41
6.35 5.76 3.4 9.1477e-41
6.4 5.76 3.39 9.1477e-41
6.44 5.76 3.4 9.1477e-41
6.51 5.76 3.37 9.1477e-41
6.56 5.76 3.36 9.1477e-41
6.61 5.76 3.35 9.1477e-41
6.68 5.76 3.33 9.1477e-41
4.39 6.08 1.48 9.1477e-41
4.41 6.08 1.73 9.1477e-41
4.42 6.08 2.02 9.1477e-41
4.44 6.08 2.02 3.57e-43
4.47 6.08 2.02 3.57e-43
4.69 6.08 2.02 3.57e-43
4.73 6.08 2.02 3.57e-43
4.78 6.08 2.02 3.57e-43
4.52 6.08 2.02 3.57e-43
4.53 6.08 2.02 3.57e-43
4.54 6.08 2.02 3.57e-43
4.56 6.08 2.02 3.57e-43
4.57 6.08 2.02 3.57e-43
4.59 6.08 3.04 9.1477e-41
4.6 6.08 3.1 9.1477e-41
4.61 6.08 3.17 9.1477e-41
4.63 6.08 3.17 9.1477e-41
4.64 6.08 3.21 9.1477e-41
4.67 6.08 3.22 9.1477e-41
4.69 6.08 3.23 9.1477e-41
4.71 6.08 3.23 9.1477e-41
4.72 6.08 3.27 9.1477e-41
4.73 6.08 3.32 9.1477e-41
4.75 6.08 3.32 9.1477e-41
4.78 6.08 3.33 9.1477e-41
4.8 6.08 3.34 9.1477e-41
4.82 6.08 3.34 9.1477e-41
4.84 6.08 3.34 9.1477e-41
4.86 6.08 3.34 9.1477e-41
4.89 6.08 3.33 9.1477e-41
4.91 6.08 3.33 9.1477e-41
4.93 6.08 3.35 9.1477e-41
4.95 6.08 3.35 9.1477e-41
4.98 6.08 3.34 9.1477e-41
5 6.08 3.35 9.1477e-41
5.02 6.08 3.36 9.1477e-41
5.05 6.08 3.36 9.1477e-41
5.07 6.08 3.38 9.1477e-41
5.09 6.08 3.38 9.1477e-41
5.11 6.08 3.39 9.1477e-41
5.14 6.08 3.38 9.1477e-41
5.2 6.08 3.3 9.1477e-41
5.23 6.08 3.3 9.1477e-41
5.25 6.08 3.3 9.1477e-41
5.28 6.08 3.3 9.1477e-41
5.3 6.08 3.31 9.1477e-41
5.33 6.08 3.31 9.1477e-41
5.36 6.08 3.31 9.1477e-41
5.38 6.08 3.32 9.1477e-41
5.41 6.08 3.31 9.1477e-41
5.43 6.08 3.32 9.1477e-41
5.46 6.08 3.32 9.1477e-41
5.5 6.08 3.31 9.1477e-41
5.53 6.08 3.32 9.1477e-41
5.55 6.08 3.32 9.1477e-41
5.58 6.08 3.31 9.1477e-41
5.61 6.08 3.32 9.1477e-41
5.64 6.08 3.32 9.1477e-41
5.67 6.08 3.32 9.1477e-41
5.7 6.08 3.33 9.1477e-41
5.73 6.08 3.32 9.1477e-41
5.77 6.08 3.32 9.1477e-41
5.8 6.08 3.31 9.1477e-41
5.83 6.08 3.33 9.1477e-41
5.86 6.08 3.32 9.1477e-41
5.9 6.08 3.32 9.1477e-41
5.93 6.08 3.32 9.1477e-41
5.97 6.08 3.32 9.1477e-41
6 6.08 3.32 9.1477e-41
6.04 6.08 3.32 9.1477e-41
6.08 6.08 3.32 9.1477e-41
6.12 6.08 3.31 9.1477e-41
6.16 6.08 3.31 9.1477e-41
6.2 6.08 3.3 9.1477e-41
6.24 6.08 3.3 9.1477e-41
6.28 6.08 3.3 9.1477e-41
6.32 6.08 3.3 9.1477e-41
6.34 6.08 3.33 9.1477e-41
6.34 6.08 3.37 9.1477e-41
6.36 6.08 3.39 9.1477e-41
6.4 6.08 3.39 9.1477e-41
6.46 6.08 3.38 9.1477e-41
6.51 6.08 3.37 9.1477e-41
6.57 6.08 3.35 9.1477e-41
6.63 6.08 3.34 9.1477e-41
6.69 6.08 3.33 9.1477e-41
4.39 6.4 1.5 9.1477e-41
4.41 6.4 1.74 9.1477e-41
4.42 6.4 2.02 9.1477e-41
4.44 6.4 2.02 3.57e-43
4.47 6.4 2.02 3.57e-43
4.69 6.4 2.02 3.57e-43
4.73 6.4 2.02 3.57e-43
4.78 6.4 2.02 3.57e-43
4.52 6.4 2.02 3.57e-43
4.53 6.4 2.02 3.57e-43
4.54 6.4 2.02 3.57e-43
4.56 6.4 2.02 3.57e-43
4.57 6.4 2.02 3.57e-43
4.59 6.4 3.04 9.1477e-41
4.59 6.4 3.13 9.1477e-41
4.61 6.4 3.18 9.1477e-41
4.63 6.4 3.17 9.1477e-41
4.64 6.4 3.21 9.1477e-41
4.67 6.4 3.22 9.1477e-41
4.69 6.4 3.23 9.1477e-41
4.71 6.4 3.23 9.1477e-41
4.73 6.4 3.26 9.1477e-41
4.73 6.4 3.31 9.1477e-41
4.76 6.4 3.31 9.1477e-41
4.78 6.4 3.33 9.1477e-41
4.8 6.4 3.32 9.1477e-41
4.82 6.4 3.32 9.1477e-41
4.84 6.4 3.33 9.1477e-41
4.87 6.4 3.33 9.1477e-41
4.89 6.4 3.33 9.1477e-41
4.91 6.4 3.33 9.1477e-41
4.94 6.4 3.33 9.1477e-41
4.96 6.4 3.34 9.1477e-41
4.98 6.4 3.34 9.1477e-41
5.01 6.4 3.34 9.1477e-41
5.03 6.4 3.35 9.1477e-41
5.05 6.4 3.35 9.1477e-41
5.07 6.4 3.37 9.1477e-41
5.1 6.4 3.36 9.1477e-41
5.12 6.4 3.37 9.1477e-41
5.15 6.4 3.36 9.1477e-41
5.2 6.4 3.3 9.1477e-41
5.23 6.4 3.3 9.1477e-41
5.25 6.4 3.31 9.1477e-41
5.27 6.4 3.31 9.1477e-41
5.3 6.4 3.31 9.1477e-41
5.33 6.4 3.31 9.1477e-41
5.35 6.4 3.32 9.1477e-41
5.39 6.4 3.31 9.1477e-41
5.41 6.4 3.32 9.1477e-41
5.44 6.4 3.31 9.1477e-41
5.46 6.4 3.32 9.1477e-41
5.5 6.4 3.31 9.1477e-41
5.52 6.4 3.32 9.1477e-41
5.55 6.4 3.31 9.1477e-41
5.58 6.4 3.32 9.1477e-41
5.61 6.4 3.32 9.1477e-41
5.64 6.4 3.32 9.1477e-41
5.67 6.4 3.32 9.1477e-41
5.7 6.4 3.32 9.1477e-41
5.73 6.4 3.32 9.1477e-41
5.76 6.4 3.33 9.1477e-41
5.8 6.4 3.32 9.1477e-41
5.83 6.4 3.33 9.1477e-41
5.86 6.4 3.33 9.1477e-41
5.89 6.4 3.33 9.1477e-41
5.93 6.4 3.32 9.1477e-41
5.96 6.4 3.32 9.1477e-41
6 6.4 3.31 9.1477e-41
6.04 6.4 3.32 9.1477e-41
6.08 6.4 3.32 9.1477e-41
6.12 6.4 3.31 9.1477e-41
6.15 6.4 3.31 9.1477e-41
6.19 6.4 3.31 9.1477e-41
6.24 6.4 3.3 9.1477e-41
6.28 6.4 3.3 9.1477e-41
6.32 6.4 3.31 9.1477e-41
6.34 6.4 3.33 9.1477e-41
6.35 6.4 3.35 9.1477e-41
6.37 6.4 3.37 9.1477e-41
6.42 6.4 3.37 9.1477e-41
6.48 6.4 3.35 9.1477e-41
6.53 6.4 3.35 9.1477e-41
6.59 6.4 3.33 9.1477e-41
6.65 6.4 3.32 9.1477e-41
6.71 6.4 3.32 9.1477e-41
4.37 6.72 1.18 9.1477e-41
4.39 6.72 1.53 9.1477e-41
4.41 6.72 1.69 9.1477e-41
4.41 6.72 2.05 9.1477e-41
4.44 6.72 2.05 3.57e-43
4.47 6.72 2.05 3.57e-43
4.69 6.72 2.05 3.57e-43
4.73 6.72 2.05 3.57e-43
4.78 6.72 2.05 3.57e-43
4.52 6.72 2.05 3.57e-43
4.53 6.72 2.05 3.57e-43
4.54 6.72 2.05 3.57e-43
4.56 6.72 2.05 3.57e-43
4.57 6.72 2.05 3.57e-43
4.59 6.72 3.04 9.1477e-41
4.59 6.72 3.14 9.1477e-41
4.61 6.72 3.18 9.1477e-41
4.63 6.72 3.17 9.1477e-41
4.64 6.72 3.21 9.1477e-41
4.66 6.72 3.23 9.1477e-41
4.69 6.72 3.23 9.1477e-41
4.71 6.72 3.23 9.1477e-41
4.73 6.72 3.23 9.1477e-41
4.76 6.72 3.23 9.1477e-41
4.78 6.72 3.25 9.1477e-41
4.8 6.72 3.25 9.1477e-41
4.82 6.72 3.25 9.1477e-41
4.85 6.72 3.25 9.1477e-41
4.87 6.72 3.25 9.1477e-41
4.89 6.72 3.25 9.1477e-41
4.91 6.72 3.26 9.1477e-41
4.94 6.72 3.26 9.1477e-41
4.96 6.72 3.26 9.1477e-41
4.98 6.72 3.26 9.1477e-41
5.01 6.72 3.27 9.1477e-41
5.03 6.72 3.27 9.1477e-41
5.05 6.72 3.29 9.1477e-41
5.08 6.72 3.3 9.1477e-41
5.11 6.72 3.29 9.1477e-41
5.13 6.72 3.29 9.1477e-41
5.15 6.72 3.29 9.1477e-41
5.18 6.72 3.29 9.1477e-41
5.2 6.72 3.3 9.1477e-41
5.23 6.72 3.3 9.1477e-41
5.25 6.72 3.3 9.1477e-41
5.28 6.72 3.3 9.1477e-41
5.3 6.72 3.31 9.1477e-41
5.33 6.72 3.31 9.1477e-41
5.36 6.72 3.31 9.1477e-41
5.38 6.72 3.32 9.1477e-41
5.41 6.72 3.32 9.1477e-41
5.43 6.72 3.32 9.1477e-41
5.46 6.72 3.32 9.1477e-41
5.49 6.72 3.32 9.1477e-41
5.52 6.72 3.32 9.1477e-41
5.55 6.72 3.32 9.1477e-41
5.57 6.72 3.33 9.1477e-41
5.61 6.72 3.33 9.1477e-41
5.64 6.72 3.32 9.1477e-41
5.67 6.72 3.32 9.1477e-41
5.7 6.72 3.33 9.1477e-41
5.73 6.72 3.32 9.1477e-41
5.76 6.72 3.33 9.1477e-41
5.8 6.72 3.32 9.1477e-41
5.83 6.72 3.33 9.1477e-41
5.86 6.72 3.33 9.1477e-41
5.89 6.72 3.33 9.1477e-41
5.92 6.72 3.33 9.1477e-41
5.96 6.72 3.32 9.1477e-41
6 6.72 3.32 9.1477e-41
6.04 6.72 3.32 9.1477e-41
6.08 6.72 3.32 9.1477e-41
6.11 6.72 3.32 9.1477e-41
6.16 6.72 3.31 9.1477e-41
6.2 6.72 3.3 9.1477e-41
6.24 6.72 3.3 9.1477e-41
6.29 6.72 3.3 9.1477e-41
6.33 6.72 3.29 9.1477e-41
6.38 6.72 3.28 9.1477e-41
6.42 6.72 3.28 9.1477e-41
6.48 6.72 3.27 9.1477e-41
6.53 6.72 3.26 9.1477e-41
6.59 6.72 3.25 9.1477e-41
6.65 6.72 3.23 9.1477e-41
6.71 6.72 3.23 9.1477e-41
6.77 6.72 3.21 9.1477e-41
4.4 7.04 1.76 3.57e-43
4.41 7.04 2.05 9.1477e-41
4.44 7.04 2.05 3.57e-43
4.47 7.04 2.05 3.57e-43
4.69 7.04 2.05 3.57e-43
4.73 7.04 2.05 3.57e-43
4.78 7.04 2.05 3.57e-43
4.52 7.04 2.05 3.57e-43
4.53 7.04 2.05 3.57e-43
4.54 7.04 2.86 9.1477e-41
4.56 7.04 2.86 3.57e-43
4.57 7.04 2.86 3.57e-43
4.59 7.04 3.04 9.1477e-41
4.59 7.04 3.15 9.1477e-41
4.61 7.04 3.18 9.1477e-41
4.63 7.04 3.19 9.1477e-41
4.64 7.04 3.21 9.1477e-41
4.67 7.04 3.22 9.1477e-41
4.69 7.04 3.23 9.1477e-41
4.71 7.04 3.23 9.1477e-41
4.73 7.04 3.24 9.1477e-41
4.75 7.04 3.24 9.1477e-41
4.78 7.04 3.25 9.1477e-41
4.8 7.04 3.24 9.1477e-41
4.82 7.04 3.24 9.1477e-41
4.84 7.04 3.26 9.1477e-41
4.87 7.04 3.25 9.1477e-41
4.89 7.04 3.25 9.1477e-41
4.91 7.04 3.26 9.1477e-41
4.93 7.04 3.27 9.1477e-41
4.96 7.04 3.26 9.1477e-41
4.98 7.04 3.26 9.1477e-41
5.01 7.04 3.27 9.1477e-41
5.03 7.04 3.28 9.1477e-41
5.06 7.04 3.28 9.1477e-41
5.08 7.04 3.3 9.1477e-41
5.1 7.04 3.3 9.1477e-41
5.12 7.04 3.3 9.1477e-41
5.15 7.04 3.3 9.1477e-41
5.17 7.04 3.3 9.1477e-41
5.2 7.04 3.3 9.1477e-41
5.23 7.04 3.3 9.1477e-41
5.24 7.04 3.32 9.1477e-41
5.28 7.04 3.3 9.1477e-41
5.3 7.04 3.32 9.1477e-41
5.33 7.04 3.32 9.1477e-41
5.35 7.04 3.32 9.1477e-41
5.38 7.04 3.32 9.1477e-41
5.41 7.04 3.32 9.1477e-41
5.43 7.04 3.33 9.1477e-41
5.46 7.04 3.32 9.1477e-41
5.49 7.04 3.33 9.1477e-41
5.52 7.04 3.32 9.1477e-41
5.55 7.04 3.32 9.1477e-41
5.57 7.04 3.33 9.1477e-41
5.61 7.04 3.33 9.1477e-41
5.64 7.04 3.32 9.1477e-41
5.66 7.04 3.33 9.1477e-41
5.7 7.04 3.33 9.1477e-41
5.73 7.04 3.32 9.1477e-41
5.76 7.04 3.33 9.1477e-41
5.79 7.04 3.33 9.1477e-41
5.83 7.04 3.32 9.1477e-41
5.86 7.04 3.32 9.1477e-41
5.89 7.04 3.33 9.1477e-41
5.93 7.04 3.32 9.1477e-41
5.96 7.04 3.32 9.1477e-41
6 7.04 3.32 9.1477e-41
6.04 7.04 3.32 9.1477e-41
6.07 7.04 3.32 9.1477e-41
6.11 7.04 3.32 9.1477e-41
6.16 7.04 3.31 9.1477e-41
6.2 7.04 3.3 9.1477e-41
6.24 7.04 3.3 9.1477e-41
6.28 7.04 3.3 9.1477e-41
6.33 7.04 3.29 9.1477e-41
6.37 7.04 3.29 9.1477e-41
6.42 7.04 3.28 9.1477e-41
6.48 7.04 3.27 9.1477e-41
6.53 7.04 3.26 9.1477e-41
6.59 7.04 3.25 9.1477e-41
6.65 7.04 3.23 9.1477e-41
6.71 7.04 3.22 9.1477e-41
6.78 7.04 3.2 9.1477e-41
4.4 7.36 1.76 3.57e-43
4.41 7.36 2.05 9.1477e-41
4.44 7.36 2.05 3.57e-43
4.47 7.36 2.05 3.57e-43
4.69 7.36 2.05 3.57e-43
4.73 7.36 2.05 3.57e-43
4.78 7.36 2.05 3.57e-43
4.52 7.36 2.05 3.57e-43
4.53 7.36 2.05 3.57e-43
4.54 7.36 2.05 3.57e-43
4.56 7.36 2.05 3.57e-43
4.57 7.36 2.05 3.57e-43
4.59 7.36 3.04 9.1477e-41
4.59 7.36 3.15 9.1477e-41
4.61 7.36 3.18 9.1477e-41
4.63 7.36 3.19 9.1477e-41
4.64 7.36 3.21 9.1477e-41
4.67 7.36 3.22 9.1477e-41
4.69 7.36 3.23 9.1477e-41
4.71 7.36 3.22 9.1477e-41
4.73 7.36 3.23 9.1477e-41
4.75 7.36 3.24 9.1477e-41
4.78 7.36 3.25 9.1477e-41
4.8 7.36 3.24 9.1477e-41
4.82 7.36 3.26 9.1477e-41
4.84 7.36 3.26 9.1477e-41
4.87 7.36 3.25 9.1477e-41
4.89 7.36 3.25 9.1477e-41
4.91 7.36 3.26 9.1477e-41
4.94 7.36 3.26 9.1477e-41
4.96 7.36 3.26 9.1477e-41
4.98 7.36 3.26 9.1477e-41
5.01 7.36 3.28 9.1477e-41
5.03 7.36 3.28 9.1477e-41
5.06 7.36 3.28 9.1477e-41
5.08 7.36 3.3 9.1477e-41
5.1 7.36 3.3 9.1477e-41
5.12 7.36 3.3 9.1477e-41
5.15 7.36 3.29 9.1477e-41
5.18 7.36 3.29 9.1477e-41
5.2 7.36 3.3 9.1477e-41
5.22 7.36 3.31 9.1477e-41
5.24 7.36 3.32 9.1477e-41
5.27 7.36 3.31 9.1477e-41
5.3 7.36 3.32 9.1477e-41
5.33 7.36 3.32 9.1477e-41
5.35 7.36 3.32 9.1477e-41
5.38 7.36 3.32 9.1477e-41
5.41 7.36 3.32 9.1477e-41
5.44 7.36 3.31 9.1477e-41
5.46 7.36 3.32 9.1477e-41
5.5 7.36 3.31 9.1477e-41
5.52 7.36 3.31 9.1477e-41
5.55 7.36 3.32 9.1477e-41
5.57 7.36 3.33 9.1477e-41
5.61 7.36 3.32 9.1477e-41
5.64 7.36 3.32 9.1477e-41
5.67 7.36 3.32 9.1477e-41
5.7 7.36 3.32 9.1477e-41
5.73 7.36 3.32 9.1477e-41
5.76 7.36 3.33 9.1477e-41
5.8 7.36 3.32 9.1477e-41
5.83 7.36 3.33 9.1477e-41
5.86 7.36 3.33 9.1477e-41
5.9 7.36 3.32 9.1477e-41
5.94 7.36 3.31 9.1477e-41
5.97 7.36 3.32 9.1477e-41
6 7.36 3.33 9.1477e-41
6.04 7.36 3.32 9.1477e-41
6.07 7.36 3.32 9.1477e-41
6.12 7.36 3.31 9.1477e-41
6.16 7.36 3.31 9.1477e-41
6.2 7.36 3.3 9.1477e-41
6.24 7.36 3.3 9.1477e-41
6.28 7.36 3.3 9.1477e-41
6.33 7.36 3.29 9.1477e-41
6.37 7.36 3.29 9.1477e-41
6.42 7.36 3.28 9.1477e-41
6.48 7.36 3.28 9.1477e-41
6.53 7.36 3.26 9.1477e-41
6.6 7.36 3.24 9.1477e-41
6.65 7.36 3.23 9.1477e-41
6.71 7.36 3.22 9.1477e-41
6.77 7.36 3.21 9.1477e-41
4.4 7.68 1.76 3.57e-43
4.41 7.68 2.06 3.57e-43
4.66 7.68 2.06 3.57e-43
4.47 7.68 2.06 3.57e-43
4.69 7.68 2.06 3.57e-43
4.73 7.68 2.06 3.57e-43
4.78 7.68 2.06 3.57e-43
4.52 7.68 2.06 3.57e-43
4.53 7.68 2.06 3.57e-43
4.54 7.68 2.06 3.57e-43
4.56 7.68 2.06 3.57e-43
4.57 7.68 2.06 3.57e-43
4.59 7.68 3.04 9.1477e-41
4.59 7.68 3.15 9.1477e-41
4.61 7.68 3.18 9.1477e-41
4.63 7.68 3.19 9.1477e-41
4.64 7.68 3.21 9.1477e-41
4.67 7.68 3.22 9.1477e-41
4.69 7.68 3.22 9.1477e-41
4.71 7.68 3.23 9.1477e-41
4.73 7.68 3.23 9.1477e-41
4.75 7.68 3.24 9.1477e-41
4.78 7.68 3.24 9.1477e-41
4.8 7.68 3.24 9.1477e-41
4.82 7.68 3.25 9.1477e-41
4.85 7.68 3.26 9.1477e-41
4.87 7.68 3.25 9.1477e-41
4.89 7.68 3.26 9.1477e-41
4.91 7.68 3.27 9.1477e-41
4.94 7.68 3.26 9.1477e-41
4.96 7.68 3.26 9.1477e-41
4.98 7.68 3.27 9.1477e-41
5 7.68 3.29 9.1477e-41
5.03 7.68 3.28 9.1477e-41
5.05 7.68 3.29 9.1477e-41
5.07 7.68 3.31 9.1477e-41
5.1 7.68 3.3 9.1477e-41
5.12 7.68 3.3 9.1477e-41
5.15 7.68 3.3 9.1477e-41
5.17 7.68 3.3 9.1477e-41
5.2 7.68 3.3 9.1477e-41
5.23 7.68 3.3 9.1477e-41
5.25 7.68 3.31 9.1477e-41
5.27 7.68 3.32 9.1477e-41
5.3 7.68 3.32 9.1477e-41
5.32 7.68 3.33 9.1477e-41
5.35 7.68 3.32 9.1477e-41
5.38 7.68 3.32 9.1477e-41
5.4 7.68 3.33 9.1477e-41
5.43 7.68 3.32 9.1477e-41
5.46 7.68 3.32 9.1477e-41
5.49 7.68 3.32 9.1477e-41
5.52 7.68 3.32 9.1477e-41
5.55 7.68 3.32 9.1477e-41
5.57 7.68 3.33 9.1477e-41
5.61 7.68 3.33 9.1477e-41
5.64 7.68 3.32 9.1477e-41
5.66 7.68 3.33 9.1477e-41
5.7 7.68 3.32 9.1477e-41
5.73 7.68 3.32 9.1477e-41
5.76 7.68 3.33 9.1477e-41
5.79 7.68 3.32 9.1477e-41
5.83 7.68 3.32 9.1477e-41
5.86 7.68 3.32 9.1477e-41
5.89 7.68 3.33 9.1477e-41
5.92 7.68 3.33 9.1477e-41
5.96 7.68 3.32 9.1477e-41
6 7.68 3.32 9.1477e-41
6.04 7.68 3.32 9.1477e-41
6.08 7.68 3.32 9.1477e-41
6.11 7.68 3.32 9.1477e-41
6.16 7.68 3.31 9.1477e-41
6.2 7.68 3.3 9.1477e-41
6.25 7.68 3.29 9.1477e-41
6.29 7.68 3.3 9.1477e-41
6.32 7.68 3.3 9.1477e-41
6.36 7.68 3.3 9.1477e-41
6.42 7.68 3.28 9.1477e-41
6.48 7.68 3.27 9.1477e-41
6.54 7.68 3.25 9.1477e-41
6.6 7.68 3.24 9.1477e-41
6.65 7.68 3.23 9.1477e-41
6.71 7.68 3.22 9.1477e-41
4.36 8 1.53 3.57e-43
4.4 8 1.76 9.1477e-41
4.41 8 2.06 9.1477e-41
4.66 8 2.06 3.57e-43
4.47 8 2.06 3.57e-43
4.69 8 2.06 3.57e-43
4.73 8 2.06 3.57e-43
4.78 8 2.06 3.57e-43
4.52 8 2.06 3.57e-43
4.53 8 2.06 3.57e-43
4.54 8 2.06 3.57e-43
4.56 8 2.06 3.57e-43
4.57 8 2.06 3.57e-43
4.59 8 3.04 9.1477e-41
4.59 8 3.16 9.1477e-41
4.61 8 3.18 9.1477e-41
4.63 8 3.18 9.1477e-41
4.64 8 3.21 9.1477e-41
4.67 8 3.22 9.1477e-41
4.69 8 3.23 9.1477e-41
4.71 8 3.23 9.1477e-41
4.73 8 3.23 9.1477e-41
4.75 8 3.24 9.1477e-41
4.78 8 3.25 9.1477e-41
4.8 8 3.24 9.1477e-41
4.82 8 3.26 9.1477e-41
4.85 8 3.26 9.1477e-41
4.87 8 3.25 9.1477e-41
4.89 8 3.26 9.1477e-41
4.91 8 3.27 9.1477e-41
4.93 8 3.27 9.1477e-41
4.96 8 3.27 9.1477e-41
4.98 8 3.27 9.1477e-41
5.01 8 3.28 9.1477e-41
5.03 8 3.29 9.1477e-41
5.05 8 3.29 9.1477e-41
5.08 8 3.3 9.1477e-41
5.1 8 3.3 9.1477e-41
5.12 8 3.3 9.1477e-41
5.15 8 3.3 9.1477e-41
5.17 8 3.3 9.1477e-41
5.19 8 3.31 9.1477e-41
5.22 8 3.31 9.1477e-41
5.24 8 3.32 9.1477e-41
5.27 8 3.31 9.1477e-41
5.3 8 3.32 9.1477e-41
5.33 8 3.32 9.1477e-41
5.35 8 3.32 9.1477e-41
5.38 8 3.32 9.1477e-41
5.4 8 3.33 9.1477e-41
5.43 8 3.32 9.1477e-41
5.46 8 3.32 9.1477e-41
5.49 8 3.32 9.1477e-41
5.52 8 3.32 9.1477e-41
5.54 8 3.33 9.1477e-41
5.57 8 3.34 9.1477e-41
5.6 8 3.34 9.1477e-41
5.64 8 3.32 9.1477e-41
5.66 8 3.33 9.1477e-41
5.69 8 3.35 9.1477e-41
5.72 8 3.33 9.1477e-41
5.75 8 3.33 9.1477e-41
5.79 8 3.33 9.1477e-41
5.83 8 3.33 9.1477e-41
5.85 8 3.34 9.1477e-41
5.89 8 3.33 9.1477e-41
5.92 8 3.33 9.1477e-41
5.96 8 3.33 9.1477e-41
6 8 3.32 9.1477e-41
6.04 8 3.32 9.1477e-41
6.07 8 3.32 9.1477e-41
6.12 8 3.31 9.1477e-41
6.16 8 3.31 9.1477e-41
6.2 8 3.3 9.1477e-41
6.24 8 3.3 9.1477e-41
6.28 8 3.31 9.1477e-41
6.34 8 3.29 9.1477e-41
6.38 8 3.28 9.1477e-41
6.42 8 3.28 9.1477e-41
6.48 8 3.27 9.1477e-41
6.53 8 3.26 9.1477e-41
6.59 8 3.25 9.1477e-41
6.65 8 3.23 9.1477e-41
6.71 8 3.22 9.1477e-41
4.4 8.32 1.76 3.57e-43
4.41 8.32 1.76 3.57e-43
4.66 8.32 1.76 3.57e-43
4.47 8.32 1.76 3.57e-43
4.69 8.32 1.76 3.57e-43
4.73 8.32 1.76 3.57e-43
4.78 8.32 1.76 3.57e-43
4.52 8.32 1.76 3.57e-43
4.53 8.32 1.76 3.57e-43
4.54 8.32 1.76 3.57e-43
4.56 8.32 1.76 3.57e-43
4.57 8.32 1.76 3.57e-43
4.59 8.32 3.04 9.1477e-41
4.59 8.32 3.16 9.1477e-41
4.61 8.32 3.18 9.1477e-41
4.63 8.32 3.19 9.1477e-41
4.64 8.32 3.21 9.1477e-41
4.67 8.32 3.22 9.1477e-41
4.69 8.32 3.22 9.1477e-41
4.71 8.32 3.22 9.1477e-41
4.73 8.32 3.23 9.1477e-41
4.75 8.32 3.24 9.1477e-41
4.78 8.32 3.25 9.1477e-41
4.8 8.32 3.24 9.1477e-41
4.82 8.32 3.25 9.1477e-41
4.84 8.32 3.26 9.1477e-41
4.86 8.32 3.26 9.1477e-41
4.89 8.32 3.26 9.1477e-41
4.91 8.32 3.27 9.1477e-41
4.93 8.32 3.27 9.1477e-41
4.96 8.32 3.27 9.1477e-41
4.98 8.32 3.26 9.1477e-41
5 8.32 3.29 9.1477e-41
5.03 8.32 3.29 9.1477e-41
5.05 8.32 3.29 9.1477e-41
5.08 8.32 3.3 9.1477e-41
5.1 8.32 3.3 9.1477e-41
5.12 8.32 3.3 9.1477e-41
5.15 8.32 3.3 9.1477e-41
5.17 8.32 3.31 9.1477e-41
5.2 8.32 3.3 9.1477e-41
5.22 8.32 3.31 9.1477e-41
5.24 8.32 3.32 9.1477e-41
5.27 8.32 3.32 9.1477e-41
5.29 8.32 3.34 9.1477e-41
5.32 8.32 3.33 9.1477e-41
5.35 8.32 3.33 9.1477e-41
5.38 8.32 3.32 9.1477e-41
5.4 8.32 3.33 9.1477e-41
5.43 8.32 3.32 9.1477e-41
5.46 8.32 3.32 9.1477e-41
5.49 8.32 3.33 9.1477e-41
5.52 8.32 3.31 9.1477e-41
5.55 8.32 3.32 9.1477e-41
5.58 8.32 3.32 9.1477e-41
5.61 8.32 3.33 9.1477e-41
5.64 8.32 3.32 9.1477e-41
5.67 8.32 3.32 9.1477e-41
5.7 8.32 3.32 9.1477e-41
5.73 8.32 3.32 9.1477e-41
5.77 8.32 3.32 9.1477e-41
5.8 8.32 3.32 9.1477e-41
5.83 8.32 3.32 9.1477e-41
5.86 8.32 3.32 9.1477e-41
5.9 8.32 3.32 9.1477e-41
5.93 8.32 3.32 9.1477e-41
5.96 8.32 3.32 9.1477e-41
6 8.32 3.31 9.1477e-41
6.04 8.32 3.32 9.1477e-41
6.08 8.32 3.32 9.1477e-41
6.11 8.32 3.33 9.1477e-41
6.15 8.32 3.31 9.1477e-41
6.19 8.32 3.31 9.1477e-41
6.24 8.32 3.3 9.1477e-41
6.29 8.32 3.3 9.1477e-41
6.32 8.32 3.3 9.1477e-41
6.38 8.32 3.28 9.1477e-41
6.43 8.32 3.27 9.1477e-41
6.48 8.32 3.26 9.1477e-41
6.53 8.32 3.26 9.1477e-41
6.6 8.32 3.24 9.1477e-41
6.65 8.32 3.23 9.1477e-41
6.72 8.32 3.22 9.1477e-41
4.34 8.64 0.99 9.1477e-41
4.36 8.64 0.99 3.57e-43
4.39 8.64 0.99 3.57e-43
4.4 8.64 1.76 9.1477e-41
4.41 8.64 1.76 3.57e-43
4.66 8.64 1.76 3.57e-43
4.47 8.64 1.76 3.57e-43
4.69 8.64 1.76 3.57e-43
4.73 8.64 1.76 3.57e-43
4.78 8.64 1.76 3.57e-43
4.52 8.64 1.76 3.57e-43
4.53 8.64 1.76 3.57e-43
4.54 8.64 1.76 3.57e-43
4.56 8.64 1.76 3.57e-43
4.57 8.64 1.76 3.57e-43
4.59 8.64 3.04 9.1477e-41
4.59 8.64 3.17 9.1477e-41
4.61 8.64 3.18 9.1477e-41
4.63 8.64 3.18 9.1477e-41
4.64 8.64 3.21 9.1477e-41
4.67 8.64 3.22 9.1477e-41
4.69 8.64 3.23 9.1477e-41
4.71 8.64 3.22 9.1477e-41
4.73 8.64 3.23 9.1477e-41
4.75 8.64 3.24 9.1477e-41
4.78 8.64 3.25 9.1477e-41
4.8 8.64 3.24 9.1477e-41
4.82 8.64 3.25 9.1477e-41
4.84 8.64 3.26 9.1477e-41
4.87 8.64 3.25 9.1477e-41
4.89 8.64 3.26 9.1477e-41
4.91 8.64 3.27 9.1477e-41
4.93 8.64 3.27 9.1477e-41
4.96 8.64 3.26 9.1477e-41
4.98 8.64 3.27 9.1477e-41
5.01 8.64 3.28 9.1477e-41
5.02 8.64 3.3 9.1477e-41
5.04 8.64 3.31 9.1477e-41
5.07 8.64 3.31 9.1477e-41
5.09 8.64 3.31 9.1477e-41
5.12 8.64 3.31 9.1477e-41
5.15 8.64 3.3 9.1477e-41
5.17 8.64 3.3 9.1477e-41
5.19 8.64 3.31 9.1477e-41
5.22 8.64 3.31 9.1477e-41
5.25 8.64 3.31 9.1477e-41
5.27 8.64 3.32 9.1477e-41
5.3 8.64 3.33 9.1477e-41
5.33 8.64 3.31 9.1477e-41
5.35 8.64 3.33 9.1477e-41
5.38 8.64 3.32 9.1477e-41
5.4 8.64 3.34 9.1477e-41
5.43 8.64 3.33 9.1477e-41
5.46 8.64 3.32 9.1477e-41
5.49 8.64 3.32 9.1477e-41
5.52 8.64 3.32 9.1477e-41
5.55 8.64 3.32 9.1477e-41
5.57 8.64 3.33 9.1477e-41
5.6 8.64 3.34 9.1477e-41
5.63 8.64 3.34 9.1477e-41
5.64 8.64 3.36 9.1477e-41
5.67 8.64 3.37 9.1477e-41
5.69 8.64 3.37 9.1477e-41
5.73 8.64 3.36 9.1477e-41
5.77 8.64 3.36 9.1477e-41
5.8 8.64 3.36 9.1477e-41
5.86 8.64 3.33 9.1477e-41
5.9 8.64 3.32 9.1477e-41
5.93 8.64 3.32 9.1477e-41
5.96 8.64 3.32 9.1477e-41
6 8.64 3.31 9.1477e-41
6.04 8.64 3.32 9.1477e-41
6.08 8.64 3.32 9.1477e-41
6.11 8.64 3.32 9.1477e-41
6.16 8.64 3.31 9.1477e-41
6.2 8.64 3.3 9.1477e-41
6.24 8.64 3.3 9.1477e-41
6.28 8.64 3.3 9.1477e-41
6.32 8.64 3.3 9.1477e-41
6.38 8.64 3.28 9.1477e-41
6.43 8.64 3.27 9.1477e-41
6.48 8.64 3.26 9.1477e-41
6.54 8.64 3.25 9.1477e-41
6.6 8.64 3.24 9.1477e-41
6.66 8.64 3.22 9.1477e-41
6.73 8.64 3.21 9.1477e-41
4.34 8.96 1.07 9.1477e-41
4.36 8.96 1.07 3.57e-43
4.39 8.96 1.53 9.1477e-41
4.4 8.96 1.81 9.1477e-41
4.41 8.96 1.81 3.57e-43
4.66 8.96 1.81 3.57e-43
4.47 8.96 1.81 3.57e-43
4.69 8.96 1.81 3.57e-43
4.73 8.96 1.81 3.57e-43
4.78 8.96 1.81 3.57e-43
4.52 8.96 1.81 3.57e-43
4.53 8.96 1.81 3.57e-43
4.54 8.96 1.81 3.57e-43
4.56 8.96 1.81 3.57e-43
4.57 8.96 2.98 9.1477e-41
4.58 8.96 3.08 9.1477e-41
4.59 8.96 3.15 9.1477e-41
4.61 8.96 3.17 9.1477e-41
4.62 8.96 3.2 9.1477e-41
4.64 8.96 3.21 9.1477e-41
4.67 8.96 3.22 9.1477e-41
4.69 8.96 3.22 9.1477e-41
4.71 8.96 3.22 9.1477e-41
4.73 8.96 3.23 9.1477e-41
4.75 8.96 3.24 9.1477e-41
4.78 8.96 3.24 9.1477e-41
4.8 8.96 3.25 9.1477e-41
4.82 8.96 3.25 9.1477e-41
4.84 8.96 3.26 9.1477e-41
4.86 8.96 3.26 9.1477e-41
4.89 8.96 3.27 9.1477e-41
4.91 8.96 3.27 9.1477e-41
4.93 8.96 3.28 9.1477e-41
4.96 8.96 3.27 9.1477e-41
4.98 8.96 3.27 9.1477e-41
5.01 8.96 3.28 9.1477e-41
5.02 8.96 3.3 9.1477e-41
5.05 8.96 3.3 9.1477e-41
5.07 8.96 3.31 9.1477e-41
5.1 8.96 3.3 9.1477e-41
5.12 8.96 3.31 9.1477e-41
5.15 8.96 3.3 9.1477e-41
5.17 8.96 3.3 9.1477e-41
5.2 8.96 3.3 9.1477e-41
5.22 8.96 3.31 9.1477e-41
5.24 8.96 3.32 9.1477e-41
5.27 8.96 3.31 9.1477e-41
5.3 8.96 3.32 9.1477e-41
5.32 8.96 3.33 9.1477e-41
5.35 8.96 3.32 9.1477e-41
5.38 8.96 3.32 9.1477e-41
5.4 8.96 3.33 9.1477e-41
5.43 8.96 3.32 9.1477e-41
5.46 8.96 3.32 9.1477e-41
5.49 8.96 3.32 9.1477e-41
5.52 8.96 3.32 9.1477e-41
5.55 8.96 3.32 9.1477e-41
5.58 8.96 3.32 9.1477e-41
5.6 8.96 3.34 9.1477e-41
5.63 8.96 3.33 9.1477e-41
5.66 8.96 3.34 9.1477e-41
5.68 8.96 3.35 9.1477e-41
5.7 8.96 3.37 9.1477e-41
5.74 8.96 3.36 9.1477e-41
5.79 8.96 3.34 9.1477e-41
5.83 8.96 3.33 9.1477e-41
5.86 8.96 3.33 9.1477e-41
5.89 8.96 3.33 9.1477e-41
5.93 8.96 3.32 9.1477e-41
5.96 8.96 3.32 9.1477e-41
6 8.96 3.31 9.1477e-41
6.04 8.96 3.32 9.1477e-41
6.08 8.96 3.32 9.1477e-41
6.12 8.96 3.31 9.1477e-41
6.15 8.96 3.31 9.1477e-41
6.19 8.96 3.31 9.1477e-41
6.24 8.96 3.3 9.1477e-41
6.29 8.96 3.3 9.1477e-41
6.34 8.96 3.29 9.1477e-41
6.38 8.96 3.28 9.1477e-41
6.43 8.96 3.27 9.1477e-41
6.48 8.96 3.26 9.1477e-41
6.54 8.96 3.25 9.1477e-41
6.6 8.96 3.24 9.1477e-41
6.66 8.96 3.22 9.1477e-41
6.73 8.96 3.21 9.1477e-41
4.34 9.28 1.04 9.1477e-41
4.36 9.28 1.04 3.57e-43
4.39 9.28 1.53 9.1477e-41
4.4 9.28 1.8 9.1477e-41
4.41 9.28 1.8 3.57e-43
4.66 9.28 1.8 3.57e-43
4.47 9.28 1.8 3.57e-43
4.69 9.28 1.8 3.57e-43
4.73 9.28 1.8 3.57e-43
4.78 9.28 1.8 3.57e-43
4.52 9.28 1.8 3.57e-43
4.53 9.28 1.8 3.57e-43
4.54 9.28 1.8 3.57e-43
4.56 9.28 1.8 3.57e-43
4.57 9.28 2.98 9.1477e-41
4.58 9.28 3.08 9.1477e-41
4.59 9.28 3.15 9.1477e-41
4.61 9.28 3.17 9.1477e-41
4.63 9.28 3.19 9.1477e-41
4.64 9.28 3.21 9.1477e-41
4.67 9.28 3.21 9.1477e-41
4.69 9.28 3.23 9.1477e-41
4.71 9.28 3.22 9.1477e-41
4.73 9.28 3.24 9.1477e-41
4.75 9.28 3.24 9.1477e-41
4.78 9.28 3.25 9.1477e-41
4.8 9.28 3.25 9.1477e-41
4.82 9.28 3.26 9.1477e-41
4.84 9.28 3.26 9.1477e-41
4.86 9.28 3.26 9.1477e-41
4.89 9.28 3.26 9.1477e-41
4.91 9.28 3.27 9.1477e-41
4.93 9.28 3.28 9.1477e-41
4.96 9.28 3.27 9.1477e-41
4.98 9.28 3.27 9.1477e-41
5 9.28 3.29 9.1477e-41
5.03 9.28 3.29 9.1477e-41
5.05 9.28 3.3 9.1477e-41
5.07 9.28 3.31 9.1477e-41
5.1 9.28 3.3 9.1477e-41
5.12 9.28 3.3 9.1477e-41
5.15 9.28 3.3 9.1477e-41
5.17 9.28 3.31 9.1477e-41
5.2 9.28 3.3 9.1477e-41
5.22 9.28 3.31 9.1477e-41
5.24 9.28 3.32 9.1477e-41
5.27 9.28 3.32 9.1477e-41
5.3 9.28 3.33 9.1477e-41
5.33 9.28 3.32 9.1477e-41
5.35 9.28 3.33 9.1477e-41
5.38 9.28 3.32 9.1477e-41
5.4 9.28 3.33 9.1477e-41
5.43 9.28 3.33 9.1477e-41
5.45 9.28 3.33 9.1477e-41
5.49 9.28 3.33 9.1477e-41
5.51 9.28 3.33 9.1477e-41
5.54 9.28 3.33 9.1477e-41
5.57 9.28 3.33 9.1477e-41
5.6 9.28 3.34 9.1477e-41
5.63 9.28 3.33 9.1477e-41
5.67 9.28 3.32 9.1477e-41
5.7 9.28 3.32 9.1477e-41
5.73 9.28 3.32 9.1477e-41
5.76 9.28 3.33 9.1477e-41
5.8 9.28 3.32 9.1477e-41
5.83 9.28 3.33 9.1477e-41
5.85 9.28 3.34 9.1477e-41
5.89 9.28 3.33 9.1477e-41
5.92 9.28 3.33 9.1477e-41
5.96 9.28 3.32 9.1477e-41
6 9.28 3.32 9.1477e-41
6.03 9.28 3.33 9.1477e-41
6.08 9.28 3.32 9.1477e-41
6.12 9.28 3.31 9.1477e-41
6.15 9.28 3.31 9.1477e-41
6.19 9.28 3.31 9.1477e-41
6.24 9.28 3.3 9.1477e-41
6.29 9.28 3.3 9.1477e-41
6.34 9.28 3.29 9.1477e-41
6.39 9.28 3.28 9.1477e-41
6.43 9.28 3.27 9.1477e-41
6.48 9.28 3.26 9.1477e-41
6.54 9.28 3.25 9.1477e-41
6.6 9.28 3.23 9.1477e-41
6.66 9.28 3.22 9.1477e-41
6.73 9.28 3.21 9.1477e-41
4.34 9.6 0.94 9.1477e-41
4.36 9.6 0.94 3.57e-43
4.39 9.6 1.53 9.1477e-41
4.4 9.6 1.85 9.1477e-41
4.41 9.6 1.85 3.57e-43
4.66 9.6 1.85 3.57e-43
4.47 9.6 1.85 3.57e-43
4.69 9.6 1.85 3.57e-43
4.73 9.6 1.85 3.57e-43
4.78 9.6 1.85 3.57e-43
4.52 9.6 1.85 3.57e-43
4.53 9.6 1.85 3.57e-43
4.54 9.6 1.85 3.57e-43
4.56 9.6 1.85 3.57e-43
4.57 9.6 2.98 9.1477e-41
4.57 9.6 3.1 9.1477e-41
4.59 9.6 3.15 9.1477e-41
4.61 9.6 3.17 9.1477e-41
4.62 9.6 3.2 9.1477e-41
4.64 9.6 3.21 9.1477e-41
4.67 9.6 3.22 9.1477e-41
4.69 9.6 3.23 9.1477e-41
4.71 9.6 3.22 9.1477e-41
4.73 9.6 3.23 9.1477e-41
4.76 9.6 3.23 9.1477e-41
4.78 9.6 3.24 9.1477e-41
4.8 9.6 3.24 9.1477e-41
4.82 9.6 3.25 9.1477e-41
4.84 9.6 3.26 9.1477e-41
4.87 9.6 3.25 9.1477e-41
4.89 9.6 3.27 9.1477e-41
4.91 9.6 3.27 9.1477e-41
4.93 9.6 3.27 9.1477e-41
4.96 9.6 3.27 9.1477e-41
4.98 9.6 3.28 9.1477e-41
5 9.6 3.29 9.1477e-41
5.03 9.6 3.28 9.1477e-41
5.05 9.6 3.29 9.1477e-41
5.07 9.6 3.31 9.1477e-41
5.09 9.6 3.31 9.1477e-41
5.12 9.6 3.3 9.1477e-41
5.14 9.6 3.31 9.1477e-41
5.17 9.6 3.31 9.1477e-41
5.19 9.6 3.31 9.1477e-41
5.22 9.6 3.31 9.1477e-41
5.25 9.6 3.31 9.1477e-41
5.27 9.6 3.32 9.1477e-41
5.3 9.6 3.33 9.1477e-41
5.32 9.6 3.33 9.1477e-41
5.35 9.6 3.32 9.1477e-41
5.38 9.6 3.32 9.1477e-41
5.4 9.6 3.33 9.1477e-41
5.43 9.6 3.33 9.1477e-41
5.46 9.6 3.32 9.1477e-41
5.49 9.6 3.33 9.1477e-41
5.52 9.6 3.32 9.1477e-41
5.54 9.6 3.33 9.1477e-41
5.58 9.6 3.32 9.1477e-41
5.61 9.6 3.33 9.1477e-41
5.64 9.6 3.32 9.1477e-41
5.67 9.6 3.32 9.1477e-41
5.7 9.6 3.32 9.1477e-41
5.73 9.6 3.32 9.1477e-41
5.77 9.6 3.32 9.1477e-41
5.8 9.6 3.32 9.1477e-41
5.83 9.6 3.33 9.1477e-41
5.86 9.6 3.33 9.1477e-41
5.9 9.6 3.32 9.1477e-41
5.93 9.6 3.32 9.1477e-41
5.96 9.6 3.32 9.1477e-41
6 9.6 3.31 9.1477e-41
6.04 9.6 3.32 9.1477e-41
6.08 9.6 3.32 9.1477e-41
6.12 9.6 3.31 9.1477e-41
6.16 9.6 3.31 9.1477e-41
6.2 9.6 3.3 9.1477e-41
6.24 9.6 3.3 9.1477e-41
6.29 9.6 3.3 9.1477e-41
6.34 9.6 3.29 9.1477e-41
6.39 9.6 3.28 9.1477e-41
6.43 9.6 3.27 9.1477e-41
6.49 9.6 3.25 9.1477e-41
6.55 9.6 3.25 9.1477e-41
6.61 9.6 3.22 9.1477e-41
6.68 9.6 3.2 9.1477e-41
6.73 9.6 3.2 9.1477e-41
4.39 9.92 1.53 3.57e-43
4.39 9.92 1.9 9.1477e-41
4.41 9.92 1.9 3.57e-43
4.66 9.92 1.9 3.57e-43
4.47 9.92 1.9 3.57e-43
4.69 9.92 1.9 3.57e-43
4.73 9.92 1.9 3.57e-43
4.78 9.92 1.9 3.57e-43
4.52 9.92 1.9 3.57e-43
4.53 9.92 1.9 3.57e-43
4.54 9.92 1.9 3.57e-43
4.56 9.92 1.9 3.57e-43
4.57 9.92 2.98 9.1477e-41
4.57 9.92 3.12 9.1477e-41
4.59 9.92 3.15 9.1477e-41
4.61 9.92 3.17 9.1477e-41
4.62 9.92 3.2 9.1477e-41
4.64 9.92 3.21 9.1477e-41
4.67 9.92 3.21 9.1477e-41
4.69 9.92 3.22 9.1477e-41
4.71 9.92 3.22 9.1477e-41
4.73 9.92 3.23 9.1477e-41
4.76 9.92 3.23 9.1477e-41
4.78 9.92 3.25 9.1477e-41
4.8 9.92 3.24 9.1477e-41
4.82 9.92 3.24 9.1477e-41
4.84 9.92 3.26 9.1477e-41
4.87 9.92 3.25 9.1477e-41
4.89 9.92 3.26 9.1477e-41
4.91 9.92 3.27 9.1477e-41
4.93 9.92 3.27 9.1477e-41
4.96 9.92 3.27 9.1477e-41
4.98 9.92 3.28 9.1477e-41
5 9.92 3.29 9.1477e-41
5.03 9.92 3.29 9.1477e-41
5.05 9.92 3.3 9.1477e-41
5.07 9.92 3.31 9.1477e-41
5.1 9.92 3.3 9.1477e-41
5.12 9.92 3.3 9.1477e-41
5.14 9.92 3.31 9.1477e-41
5.17 9.92 3.31 9.1477e-41
5.19 9.92 3.31 9.1477e-41
5.22 9.92 3.31 9.1477e-41
5.24 9.92 3.32 9.1477e-41
5.27 9.92 3.32 9.1477e-41
5.3 9.92 3.33 9.1477e-41
5.33 9.92 3.32 9.1477e-41
5.35 9.92 3.33 9.1477e-41
5.37 9.92 3.33 9.1477e-41
5.4 9.92 3.33 9.1477e-41
5.43 9.92 3.32 9.1477e-41
5.45 9.92 3.33 9.1477e-41
5.49 9.92 3.33 9.1477e-41
5.51 9.92 3.33 9.1477e-41
5.55 9.92 3.32 9.1477e-41
5.57 9.92 3.33 9.1477e-41
5.61 9.92 3.33 9.1477e-41
5.64 9.92 3.32 9.1477e-41
5.66 9.92 3.33 9.1477e-41
5.7 9.92 3.33 9.1477e-41
5.73 9.92 3.32 9.1477e-41
5.76 9.92 3.33 9.1477e-41
5.79 9.92 3.32 9.1477e-41
5.83 9.92 3.32 9.1477e-41
5.86 9.92 3.33 9.1477e-41
5.89 9.92 3.33 9.1477e-41
5.93 9.92 3.32 9.1477e-41
5.96 9.92 3.32 9.1477e-41
6 9.92 3.31 9.1477e-41
6.04 9.92 3.32 9.1477e-41
6.07 9.92 3.32 9.1477e-41
6.12 9.92 3.31 9.1477e-41
6.16 9.92 3.31 9.1477e-41
6.21 9.92 3.29 9.1477e-41
6.25 9.92 3.29 9.1477e-41
6.29 9.92 3.29 9.1477e-41
6.34 9.92 3.29 9.1477e-41
6.39 9.92 3.28 9.1477e-41
6.43 9.92 3.27 9.1477e-41
6.49 9.92 3.25 9.1477e-41
6.55 9.92 3.25 9.1477e-41
6.61 9.92 3.22 9.1477e-41
6.67 9.92 3.21 9.1477e-41
6.73 9.92 3.2 9.1477e-41
4.39 10.24 1.53 3.57e-43
4.39 10.24 1.93 9.1477e-41
4.41 10.24 1.93 3.57e-43
4.66 10.24 1.93 3.57e-43
4.47 10.24 1.93 3.57e-43
4.69 10.24 1.93 3.57e-43
4.73 10.24 1.93 3.57e-43
4.78 10.24 1.93 3.57e-43
4.52 10.24 1.93 3.57e-43
4.53 10.24 1.93 3.57e-43
4.54 10.24 1.93 3.57e-43
4.56 10.24 1.93 3.57e-43
4.57 10.24 2.98 9.1477e-41
4.57 10.24 3.11 9.1477e-41
4.59 10.24 3.15 9.1477e-41
4.61 10.24 3.18 9.1477e-41
4.62 10.24 3.2 9.1477e-41
4.64 10.24 3.21 9.1477e-41
4.67 10.24 3.21 9.1477e-41
4.69 10.24 3.23 9.1477e-41
4.69 10.24 3.31 9.1477e-41
4.71 10.24 3.32 9.1477e-41
4.73 10.24 3.33 9.1477e-41
4.75 10.24 3.32 9.1477e-41
4.77 10.24 3.34 9.1477e-41
4.8 10.24 3.34 9.1477e-41
4.82 10.24 3.34 9.1477e-41
4.84 10.24 3.35 9.1477e-41
4.86 10.24 3.36 9.1477e-41
4.88 10.24 3.35 9.1477e-41
4.9 10.24 3.36 9.1477e-41
4.92 10.24 3.37 9.1477e-41
4.94 10.24 3.37 9.1477e-41
4.97 10.24 3.37 9.1477e-41
4.99 10.24 3.38 9.1477e-41
5.01 10.24 3.38 9.1477e-41
5.04 10.24 3.39 9.1477e-41
5.06 10.24 3.39 9.1477e-41
5.08 10.24 3.41 9.1477e-41
5.11 10.24 3.39 9.1477e-41
5.17 10.24 3.31 9.1477e-41
5.19 10.24 3.32 9.1477e-41
5.22 10.24 3.31 9.1477e-41
5.24 10.24 3.32 9.1477e-41
5.27 10.24 3.32 9.1477e-41
5.29 10.24 3.34 9.1477e-41
5.32 10.24 3.33 9.1477e-41
5.35 10.24 3.33 9.1477e-41
5.38 10.24 3.32 9.1477e-41
5.4 10.24 3.34 9.1477e-41
5.43 10.24 3.33 9.1477e-41
5.45 10.24 3.33 9.1477e-41
5.49 10.24 3.33 9.1477e-41
5.51 10.24 3.33 9.1477e-41
5.54 10.24 3.33 9.1477e-41
5.56 10.24 3.35 9.1477e-41
5.6 10.24 3.34 9.1477e-41
5.63 10.24 3.33 9.1477e-41
5.66 10.24 3.34 9.1477e-41
5.69 10.24 3.35 9.1477e-41
5.72 10.24 3.33 9.1477e-41
5.75 10.24 3.33 9.1477e-41
5.79 10.24 3.33 9.1477e-41
5.83 10.24 3.33 9.1477e-41
5.86 10.24 3.33 9.1477e-41
5.9 10.24 3.32 9.1477e-41
5.93 10.24 3.32 9.1477e-41
5.96 10.24 3.32 9.1477e-41
6 10.24 3.32 9.1477e-41
6.04 10.24 3.32 9.1477e-41
6.08 10.24 3.32 9.1477e-41
6.12 10.24 3.31 9.1477e-41
6.16 10.24 3.31 9.1477e-41
