# .PCD v.7 - Point Cloud Data file format
VERSION .7
FIELDS x y z rgb
SIZE 4 4 4 4
TYPE F F F F
WIDTH 1873
HEIGHT 1
POINTS 1873
DATA ascii
3.71 0.24 2.78 3.57e-43
3.74 0.24 1.66 9.1477e-41
3.66 0.24 1.66 3.57e-43
3.85 0.24 1.66 3.57e-43
3.88 0.24 1.66 3.57e-43
3.92 0.24 1.66 3.57e-43
3.9 0.24 1.66 3.57e-43
3.94 0.24 1.66 3.57e-43
4.02 0.24 1.66 3.57e-43
4.05 0.24 1.66 3.57e-43
4.09 0.24 1.66 3.57e-43
4.31 0.24 1.66 3.57e-43
4.28 0.24 1.66 3.57e-43
4.31 0.24 1.66 3.57e-43
4.35 0.24 1.66 3.57e-43
4.39 0.24 1.66 3.57e-43
4.43 0.24 1.66 3.57e-43
4.46 0.24 1.66 3.57e-43
4.5 0.24 1.66 3.57e-43
4.54 0.24 1.66 3.57e-43
4.58 0.24 1.66 3.57e-43
4.62 0.24 1.66 3.57e-43
4.85 0.24 1.66 3.57e-43
4.91 0.24 1.66 3.57e-43
4.96 0.24 1.66 3.57e-43
5 0.24 1.66 3.57e-43
4.83 0.24 1.29 9.1477e-41
5.16 0.24 1.29 3.57e-43
5.16 0.24 1.29 3.57e-43
5.21 0.24 1.29 3.57e-43
5.26 0.24 1.29 3.57e-43
5.31 0.24 1.29 3.57e-43
5.37 0.24 1.29 3.57e-43
5.42 0.24 1.29 3.57e-43
5.05 0.24 1.9 9.1477e-41
2.93 0.48 3.18 9.1477e-41
2.96 0.48 3.2 9.1477e-41
3 0.48 3.24 9.1477e-41
3.03 0.48 3.25 9.1477e-41
3.07 0.48 3.26 9.1477e-41
3.1 0.48 3.27 9.1477e-41
3.12 0.48 3.28 9.1477e-41
3.15 0.48 3.28 9.1477e-41
3.18 0.48 3.3 9.1477e-41
3.2 0.48 3.29 9.1477e-41
3.23 0.48 3.31 9.1477e-41
3.25 0.48 3.31 9.1477e-41
3.27 0.48 3.3 9.1477e-41
3.3 0.48 3.31 9.1477e-41
3.33 0.48 3.32 9.1477e-41
3.35 0.48 3.32 9.1477e-41
3.37 0.48 3.32 9.1477e-41
3.4 0.48 3.33 9.1477e-41
3.42 0.48 3.34 9.1477e-41
3.44 0.48 3.32 9.1477e-41
3.47 0.48 3.34 9.1477e-41
3.49 0.48 3.33 9.1477e-41
3.51 0.48 3.34 9.1477e-41
3.53 0.48 3.34 9.1477e-41
3.55 0.48 3.34 9.1477e-41
3.58 0.48 3.34 9.1477e-41
3.6 0.48 3.34 9.1477e-41
3.62 0.48 3.35 9.1477e-41
3.64 0.48 3.34 9.1477e-41
3.66 0.48 3.34 9.1477e-41
3.68 0.48 3.34 9.1477e-41
3.7 0.48 3.35 9.1477e-41
3.72 0.48 3.34 9.1477e-41
3.75 0.48 3.35 9.1477e-41
3.77 0.48 3.35 9.1477e-41
3.79 0.48 3.35 9.1477e-41
3.81 0.48 3.34 9.1477e-41
3.83 0.48 3.35 9.1477e-41
3.85 0.48 3.35 9.1477e-41
3.87 0.48 3.35 9.1477e-41
3.89 0.48 3.34 9.1477e-41
3.91 0.48 3.34 9.1477e-41
3.93 0.48 3.35 9.1477e-41
3.95 0.48 3.34 9.1477e-41
3.97 0.48 3.34 9.1477e-41
3.99 0.48 3.34 9.1477e-41
4.01 0.48 3.34 9.1477e-41
4.03 0.48 3.35 9.1477e-41
4.05 0.48 3.34 9.1477e-41
4.07 0.48 3.33 9.1477e-41
4.09 0.48 3.35 9.1477e-41
4.12 0.48 0.5 9.1477e-41
4.14 0.48 3.34 9.1477e-41
4.16 0.48 3.33 9.1477e-41
4.18 0.48 3.33 9.1477e-41
4.2 0.48 3.33 9.1477e-41
4.22 0.48 3.33 9.1477e-41
4.24 0.48 3.32 9.1477e-41
4.26 0.48 3.32 9.1477e-41
4.28 0.48 3.32 9.1477e-41
4.3 0.48 3.32 9.1477e-41
4.32 0.48 3.32 9.1477e-41
4.34 0.48 3.32 9.1477e-41
4.37 0.48 3.31 9.1477e-41
4.39 0.48 3.3 9.1477e-41
4.41 0.48 3.31 9.1477e-41
4.43 0.48 3.3 9.1477e-41
4.45 0.48 3.3 9.1477e-41
4.47 0.48 3.29 9.1477e-41
4.49 0.48 3.3 9.1477e-41
4.52 0.48 3.29 9.1477e-41
4.54 0.48 3.29 9.1477e-41
4.56 0.48 3.29 9.1477e-41
4.59 0.48 3.28 9.1477e-41
4.61 0.48 3.27 9.1477e-41
4.63 0.48 3.26 9.1477e-41
4.66 0.48 3.26 9.1477e-41
4.68 0.48 3.25 9.1477e-41
4.7 0.48 3.25 9.1477e-41
4.73 0.48 3.24 9.1477e-41
4.75 0.48 3.23 9.1477e-41
4.78 0.48 3.23 9.1477e-41
4.8 0.48 3.23 9.1477e-41
4.83 0.48 3.21 9.1477e-41
4.86 0.48 3.19 9.1477e-41
4.89 0.48 3.17 9.1477e-41
4.93 0.48 3.15 9.1477e-41
5 0.48 3 9.1477e-41
5.07 0.48 2.89 9.1477e-41
2.92 0.72 3.27 9.1477e-41
2.94 0.72 3.27 9.1477e-41
2.97 0.72 3.27 9.1477e-41
2.99 0.72 3.26 9.1477e-41
3.02 0.72 3.27 9.1477e-41
3.05 0.72 3.27 9.1477e-41
3.08 0.72 3.28 9.1477e-41
3.1 0.72 3.29 9.1477e-41
3.12 0.72 3.28 9.1477e-41
3.15 0.72 3.29 9.1477e-41
3.18 0.72 3.3 9.1477e-41
3.21 0.72 3.31 9.1477e-41
3.23 0.72 3.31 9.1477e-41
3.25 0.72 3.31 9.1477e-41
3.28 0.72 3.31 9.1477e-41
3.3 0.72 3.32 9.1477e-41
3.33 0.72 3.32 9.1477e-41
3.35 0.72 3.33 9.1477e-41
3.38 0.72 3.33 9.1477e-41
3.4 0.72 3.34 9.1477e-41
3.42 0.72 3.33 9.1477e-41
3.44 0.72 3.33 9.1477e-41
3.47 0.72 3.34 9.1477e-41
3.49 0.72 3.33 9.1477e-41
3.51 0.72 3.34 9.1477e-41
3.53 0.72 3.34 9.1477e-41
3.56 0.72 3.35 9.1477e-41
3.58 0.72 3.35 9.1477e-41
3.6 0.72 3.35 9.1477e-41
3.62 0.72 3.35 9.1477e-41
3.64 0.72 3.34 9.1477e-41
3.66 0.72 3.35 9.1477e-41
3.68 0.72 3.35 9.1477e-41
3.7 0.72 3.35 9.1477e-41
3.72 0.72 3.34 9.1477e-41
3.75 0.72 3.35 9.1477e-41
3.77 0.72 3.35 9.1477e-41
3.79 0.72 3.36 9.1477e-41
3.81 0.72 3.34 9.1477e-41
3.83 0.72 3.36 9.1477e-41
3.85 0.72 3.36 9.1477e-41
3.87 0.72 3.36 9.1477e-41
3.89 0.72 3.34 9.1477e-41
3.91 0.72 3.34 9.1477e-41
3.93 0.72 3.36 9.1477e-41
3.95 0.72 3.35 9.1477e-41
3.97 0.72 3.36 9.1477e-41
3.99 0.72 3.36 9.1477e-41
4.01 0.72 3.36 9.1477e-41
4.03 0.72 3.35 9.1477e-41
4.05 0.72 3.35 9.1477e-41
4.07 0.72 3.35 9.1477e-41
4.09 0.72 3.35 9.1477e-41
4.12 0.72 0.51 9.1477e-41
4.14 0.72 3.34 9.1477e-41
4.16 0.72 3.34 9.1477e-41
4.18 0.72 3.34 9.1477e-41
4.2 0.72 3.34 9.1477e-41
4.22 0.72 3.33 9.1477e-41
4.24 0.72 3.33 9.1477e-41
4.26 0.72 3.33 9.1477e-41
4.28 0.72 3.33 9.1477e-41
4.3 0.72 3.33 9.1477e-41
4.32 0.72 3.33 9.1477e-41
4.34 0.72 3.32 9.1477e-41
4.36 0.72 3.32 9.1477e-41
4.39 0.72 3.32 9.1477e-41
4.41 0.72 3.32 9.1477e-41
4.43 0.72 3.32 9.1477e-41
4.45 0.72 3.31 9.1477e-41
4.47 0.72 3.3 9.1477e-41
4.49 0.72 3.31 9.1477e-41
4.52 0.72 3.3 9.1477e-41
4.54 0.72 3.31 9.1477e-41
4.56 0.72 3.3 9.1477e-41
4.58 0.72 3.29 9.1477e-41
4.6 0.72 3.29 9.1477e-41
4.63 0.72 3.28 9.1477e-41
4.65 0.72 3.28 9.1477e-41
4.67 0.72 3.29 9.1477e-41
4.69 0.72 3.29 9.1477e-41
4.72 0.72 3.28 9.1477e-41
4.74 0.72 3.27 9.1477e-41
4.76 0.72 3.3 9.1477e-41
4.79 0.72 3.27 9.1477e-41
4.81 0.72 3.28 9.1477e-41
4.84 0.72 3.27 9.1477e-41
4.87 0.72 3.25 9.1477e-41
4.89 0.72 3.25 9.1477e-41
4.92 0.72 3.24 9.1477e-41
4.94 0.72 3.25 9.1477e-41
4.97 0.72 3.24 9.1477e-41
4.99 0.72 3.23 9.1477e-41
5.02 0.72 3.23 9.1477e-41
2.91 0.96 3.26 9.1477e-41
2.94 0.96 3.26 9.1477e-41
2.97 0.96 3.27 9.1477e-41
3 0.96 3.27 9.1477e-41
3.03 0.96 3.28 9.1477e-41
3.05 0.96 3.28 9.1477e-41
3.07 0.96 3.27 9.1477e-41
3.1 0.96 3.29 9.1477e-41
3.13 0.96 3.29 9.1477e-41
3.15 0.96 3.29 9.1477e-41
3.18 0.96 3.3 9.1477e-41
3.21 0.96 3.31 9.1477e-41
3.23 0.96 3.31 9.1477e-41
3.25 0.96 3.3 9.1477e-41
3.28 0.96 3.31 9.1477e-41
3.3 0.96 3.31 9.1477e-41
3.33 0.96 3.32 9.1477e-41
3.35 0.96 3.32 9.1477e-41
3.38 0.96 3.33 9.1477e-41
3.4 0.96 3.34 9.1477e-41
3.42 0.96 3.33 9.1477e-41
3.44 0.96 3.33 9.1477e-41
3.47 0.96 3.34 9.1477e-41
3.49 0.96 3.34 9.1477e-41
3.51 0.96 3.34 9.1477e-41
3.53 0.96 3.34 9.1477e-41
3.56 0.96 3.35 9.1477e-41
3.58 0.96 3.34 9.1477e-41
3.6 0.96 3.35 9.1477e-41
3.62 0.96 3.34 9.1477e-41
3.64 0.96 3.35 9.1477e-41
3.66 0.96 3.34 9.1477e-41
3.68 0.96 3.35 9.1477e-41
3.7 0.96 3.35 9.1477e-41
3.73 0.96 3.35 9.1477e-41
3.75 0.96 3.35 9.1477e-41
3.77 0.96 3.36 9.1477e-41
3.79 0.96 3.36 9.1477e-41
3.81 0.96 3.35 9.1477e-41
3.83 0.96 3.35 9.1477e-41
3.85 0.96 3.35 9.1477e-41
3.87 0.96 3.35 9.1477e-41
3.89 0.96 3.35 9.1477e-41
3.91 0.96 3.34 9.1477e-41
3.93 0.96 3.35 9.1477e-41
3.95 0.96 3.35 9.1477e-41
3.97 0.96 3.34 9.1477e-41
3.99 0.96 3.35 9.1477e-41
4.01 0.96 3.35 9.1477e-41
4.03 0.96 3.35 9.1477e-41
4.05 0.96 3.35 9.1477e-41
4.07 0.96 3.35 9.1477e-41
4.09 0.96 3.35 9.1477e-41
4.12 0.96 0.5 9.1477e-41
4.14 0.96 3.34 9.1477e-41
4.16 0.96 3.34 9.1477e-41
4.18 0.96 3.34 9.1477e-41
4.2 0.96 3.34 9.1477e-41
4.22 0.96 3.34 9.1477e-41
4.24 0.96 3.34 9.1477e-41
4.26 0.96 3.33 9.1477e-41
4.28 0.96 3.34 9.1477e-41
4.3 0.96 3.34 9.1477e-41
4.32 0.96 3.35 9.1477e-41
4.34 0.96 3.34 9.1477e-41
4.36 0.96 3.33 9.1477e-41
4.39 0.96 3.31 9.1477e-41
4.41 0.96 3.32 9.1477e-41
4.43 0.96 3.32 9.1477e-41
4.45 0.96 3.31 9.1477e-41
4.47 0.96 3.3 9.1477e-41
4.49 0.96 3.32 9.1477e-41
4.52 0.96 3.3 9.1477e-41
4.54 0.96 3.31 9.1477e-41
4.56 0.96 3.3 9.1477e-41
4.58 0.96 3.3 9.1477e-41
4.6 0.96 3.3 9.1477e-41
4.63 0.96 3.29 9.1477e-41
4.65 0.96 3.29 9.1477e-41
4.67 0.96 3.29 9.1477e-41
4.7 0.96 3.28 9.1477e-41
4.72 0.96 3.28 9.1477e-41
4.74 0.96 3.27 9.1477e-41
4.77 0.96 3.29 9.1477e-41
4.79 0.96 3.27 9.1477e-41
4.82 0.96 3.27 9.1477e-41
4.84 0.96 3.27 9.1477e-41
4.86 0.96 3.26 9.1477e-41
4.89 0.96 3.25 9.1477e-41
4.91 0.96 3.26 9.1477e-41
4.94 0.96 3.25 9.1477e-41
4.97 0.96 3.24 9.1477e-41
4.99 0.96 3.23 9.1477e-41
5.02 0.96 3.23 9.1477e-41
5.05 0.96 3.23 9.1477e-41
2.87 1.2 3.23 9.1477e-41
2.91 1.2 3.26 9.1477e-41
2.94 1.2 3.27 9.1477e-41
2.97 1.2 3.27 9.1477e-41
3 1.2 3.27 9.1477e-41
3.03 1.2 3.28 9.1477e-41
3.05 1.2 3.28 9.1477e-41
3.08 1.2 3.28 9.1477e-41
3.1 1.2 3.29 9.1477e-41
3.13 1.2 3.29 9.1477e-41
3.15 1.2 3.29 9.1477e-41
3.18 1.2 3.3 9.1477e-41
3.21 1.2 3.31 9.1477e-41
3.23 1.2 3.31 9.1477e-41
3.26 1.2 3.32 9.1477e-41
3.28 1.2 3.32 9.1477e-41
3.3 1.2 3.32 9.1477e-41
3.33 1.2 3.33 9.1477e-41
3.35 1.2 3.32 9.1477e-41
3.38 1.2 3.33 9.1477e-41
3.4 1.2 3.33 9.1477e-41
3.42 1.2 3.34 9.1477e-41
3.44 1.2 3.33 9.1477e-41
3.46 1.2 3.33 9.1477e-41
3.49 1.2 3.33 9.1477e-41
3.51 1.2 3.34 9.1477e-41
3.53 1.2 3.34 9.1477e-41
3.55 1.2 3.34 9.1477e-41
3.58 1.2 3.34 9.1477e-41
3.6 1.2 3.35 9.1477e-41
3.62 1.2 3.34 9.1477e-41
3.64 1.2 3.33 9.1477e-41
3.66 1.2 3.35 9.1477e-41
3.68 1.2 3.33 9.1477e-41
3.7 1.2 3.35 9.1477e-41
3.72 1.2 3.34 9.1477e-41
3.74 1.2 3.34 9.1477e-41
3.77 1.2 3.34 9.1477e-41
3.79 1.2 3.35 9.1477e-41
3.81 1.2 3.35 9.1477e-41
3.83 1.2 3.34 9.1477e-41
3.85 1.2 3.35 9.1477e-41
3.87 1.2 3.35 9.1477e-41
3.89 1.2 3.34 9.1477e-41
3.91 1.2 3.34 9.1477e-41
3.93 1.2 3.35 9.1477e-41
3.95 1.2 3.35 9.1477e-41
3.97 1.2 3.35 9.1477e-41
3.99 1.2 3.34 9.1477e-41
4.01 1.2 3.35 9.1477e-41
4.03 1.2 3.35 9.1477e-41
4.05 1.2 3.34 9.1477e-41
4.07 1.2 3.35 9.1477e-41
4.09 1.2 3.34 9.1477e-41
4.12 1.2 0.5 9.1477e-41
4.14 1.2 3.34 9.1477e-41
4.16 1.2 3.35 9.1477e-41
4.18 1.2 3.34 9.1477e-41
4.2 1.2 3.34 9.1477e-41
4.22 1.2 3.34 9.1477e-41
4.24 1.2 3.34 9.1477e-41
4.26 1.2 3.34 9.1477e-41
4.28 1.2 3.33 9.1477e-41
4.3 1.2 3.33 9.1477e-41
4.32 1.2 3.33 9.1477e-41
4.34 1.2 3.33 9.1477e-41
4.36 1.2 3.32 9.1477e-41
4.39 1.2 3.32 9.1477e-41
4.41 1.2 3.32 9.1477e-41
4.43 1.2 3.32 9.1477e-41
4.45 1.2 3.31 9.1477e-41
4.47 1.2 3.3 9.1477e-41
4.49 1.2 3.31 9.1477e-41
4.51 1.2 3.31 9.1477e-41
4.54 1.2 3.31 9.1477e-41
4.56 1.2 3.3 9.1477e-41
4.58 1.2 3.3 9.1477e-41
4.6 1.2 3.3 9.1477e-41
4.63 1.2 3.29 9.1477e-41
4.65 1.2 3.29 9.1477e-41
4.67 1.2 3.29 9.1477e-41
4.69 1.2 3.3 9.1477e-41
4.72 1.2 3.28 9.1477e-41
4.74 1.2 3.29 9.1477e-41
4.77 1.2 3.29 9.1477e-41
4.79 1.2 3.28 9.1477e-41
4.81 1.2 3.28 9.1477e-41
4.84 1.2 3.27 9.1477e-41
4.86 1.2 3.26 9.1477e-41
4.89 1.2 3.26 9.1477e-41
4.92 1.2 3.25 9.1477e-41
4.94 1.2 3.25 9.1477e-41
4.97 1.2 3.24 9.1477e-41
4.99 1.2 3.23 9.1477e-41
5.02 1.2 3.23 9.1477e-41
5.06 1.2 3.21 9.1477e-41
2.88 1.44 3.24 9.1477e-41
2.91 1.44 3.26 9.1477e-41
2.94 1.44 3.27 9.1477e-41
2.97 1.44 3.27 9.1477e-41
3 1.44 3.27 9.1477e-41
3.03 1.44 3.28 9.1477e-41
3.05 1.44 3.28 9.1477e-41
3.08 1.44 3.29 9.1477e-41
3.11 1.44 3.3 9.1477e-41
3.13 1.44 3.3 9.1477e-41
3.16 1.44 3.3 9.1477e-41
3.18 1.44 3.3 9.1477e-41
3.21 1.44 3.32 9.1477e-41
3.23 1.44 3.31 9.1477e-41
3.25 1.44 3.31 9.1477e-41
3.28 1.44 3.31 9.1477e-41
3.3 1.44 3.32 9.1477e-41
3.33 1.44 3.32 9.1477e-41
3.35 1.44 3.32 9.1477e-41
3.38 1.44 3.33 9.1477e-41
3.4 1.44 3.33 9.1477e-41
3.42 1.44 3.33 9.1477e-41
3.44 1.44 3.33 9.1477e-41
3.46 1.44 3.33 9.1477e-41
3.49 1.44 3.33 9.1477e-41
3.51 1.44 3.34 9.1477e-41
3.53 1.44 3.34 9.1477e-41
3.55 1.44 3.32 9.1477e-41
3.57 1.44 3.33 9.1477e-41
3.59 1.44 3.33 9.1477e-41
3.63 1.44 3.38 9.1477e-41
3.65 1.44 3.4 9.1477e-41
3.67 1.44 3.4 9.1477e-41
3.69 1.44 3.41 9.1477e-41
3.71 1.44 3.41 9.1477e-41
3.73 1.44 3.4 9.1477e-41
3.76 1.44 3.41 9.1477e-41
3.78 1.44 3.42 9.1477e-41
3.79 1.44 3.4 9.1477e-41
3.82 1.44 3.41 9.1477e-41
3.84 1.44 3.41 9.1477e-41
3.86 1.44 3.41 9.1477e-41
3.88 1.44 3.42 9.1477e-41
3.9 1.44 3.41 9.1477e-41
3.92 1.44 3.4 9.1477e-41
3.94 1.44 3.41 9.1477e-41
3.96 1.44 3.41 9.1477e-41
3.98 1.44 3.41 9.1477e-41
4 1.44 3.42 9.1477e-41
4.02 1.44 3.41 9.1477e-41
4.04 1.44 3.42 9.1477e-41
4.06 1.44 3.42 9.1477e-41
4.08 1.44 3.42 9.1477e-41
4.09 1.44 3.41 9.1477e-41
4.11 1.44 0.57 9.1477e-41
4.13 1.44 3.41 9.1477e-41
4.15 1.44 3.41 9.1477e-41
4.17 1.44 3.4 9.1477e-41
4.19 1.44 3.41 9.1477e-41
4.21 1.44 3.41 9.1477e-41
4.23 1.44 3.4 9.1477e-41
4.25 1.44 3.4 9.1477e-41
4.27 1.44 3.4 9.1477e-41
4.3 1.44 3.37 9.1477e-41
4.32 1.44 3.33 9.1477e-41
4.34 1.44 3.32 9.1477e-41
4.36 1.44 3.32 9.1477e-41
4.39 1.44 3.31 9.1477e-41
4.41 1.44 3.32 9.1477e-41
4.43 1.44 3.32 9.1477e-41
4.45 1.44 3.31 9.1477e-41
4.47 1.44 3.3 9.1477e-41
4.49 1.44 3.3 9.1477e-41
4.52 1.44 3.3 9.1477e-41
4.54 1.44 3.3 9.1477e-41
4.56 1.44 3.3 9.1477e-41
4.58 1.44 3.29 9.1477e-41
4.6 1.44 3.3 9.1477e-41
4.63 1.44 3.29 9.1477e-41
4.65 1.44 3.29 9.1477e-41
4.67 1.44 3.29 9.1477e-41
4.69 1.44 3.29 9.1477e-41
4.72 1.44 3.28 9.1477e-41
4.74 1.44 3.28 9.1477e-41
4.77 1.44 3.29 9.1477e-41
4.79 1.44 3.27 9.1477e-41
4.81 1.44 3.28 9.1477e-41
4.84 1.44 3.27 9.1477e-41
4.86 1.44 3.26 9.1477e-41
4.89 1.44 3.26 9.1477e-41
4.91 1.44 3.26 9.1477e-41
4.94 1.44 3.24 9.1477e-41
4.97 1.44 3.24 9.1477e-41
5 1.44 3.22 9.1477e-41
5.02 1.44 3.23 9.1477e-41
5.06 1.44 3.22 9.1477e-41
2.87 1.68 3.23 9.1477e-41
2.91 1.68 3.26 9.1477e-41
2.94 1.68 3.27 9.1477e-41
2.97 1.68 3.27 9.1477e-41
3 1.68 3.27 9.1477e-41
3.03 1.68 3.28 9.1477e-41
3.05 1.68 3.28 9.1477e-41
3.08 1.68 3.29 9.1477e-41
3.1 1.68 3.28 9.1477e-41
3.13 1.68 3.3 9.1477e-41
3.16 1.68 3.3 9.1477e-41
3.18 1.68 3.3 9.1477e-41
3.21 1.68 3.32 9.1477e-41
3.23 1.68 3.31 9.1477e-41
3.25 1.68 3.31 9.1477e-41
3.28 1.68 3.32 9.1477e-41
3.3 1.68 3.31 9.1477e-41
3.33 1.68 3.32 9.1477e-41
3.35 1.68 3.32 9.1477e-41
3.38 1.68 3.33 9.1477e-41
3.4 1.68 3.34 9.1477e-41
3.42 1.68 3.33 9.1477e-41
3.44 1.68 3.33 9.1477e-41
3.46 1.68 3.33 9.1477e-41
3.48 1.68 3.32 9.1477e-41
3.51 1.68 3.33 9.1477e-41
3.53 1.68 3.33 9.1477e-41
3.55 1.68 3.33 9.1477e-41
3.58 1.68 3.35 9.1477e-41
3.61 1.68 3.39 9.1477e-41
3.63 1.68 3.4 9.1477e-41
3.65 1.68 3.41 9.1477e-41
3.67 1.68 3.4 9.1477e-41
3.69 1.68 3.41 9.1477e-41
3.71 1.68 3.41 9.1477e-41
3.74 1.68 3.41 9.1477e-41
3.76 1.68 3.41 9.1477e-41
3.77 1.68 3.41 9.1477e-41
3.8 1.68 3.41 9.1477e-41
3.82 1.68 3.41 9.1477e-41
3.84 1.68 3.42 9.1477e-41
3.86 1.68 3.43 9.1477e-41
3.88 1.68 3.43 9.1477e-41
3.9 1.68 3.42 9.1477e-41
3.92 1.68 3.42 9.1477e-41
3.94 1.68 3.42 9.1477e-41
3.96 1.68 3.43 9.1477e-41
3.98 1.68 3.42 9.1477e-41
4 1.68 3.42 9.1477e-41
4.02 1.68 3.43 9.1477e-41
4.04 1.68 3.42 9.1477e-41
4.06 1.68 3.42 9.1477e-41
4.08 1.68 3.43 9.1477e-41
4.09 1.68 3.43 9.1477e-41
4.11 1.68 0.58 9.1477e-41
4.13 1.68 3.42 9.1477e-41
4.15 1.68 3.41 9.1477e-41
4.17 1.68 3.41 9.1477e-41
4.19 1.68 3.42 9.1477e-41
4.21 1.68 3.41 9.1477e-41
4.23 1.68 3.41 9.1477e-41
4.25 1.68 3.4 9.1477e-41
4.27 1.68 3.4 9.1477e-41
4.3 1.68 3.39 9.1477e-41
4.31 1.68 3.41 9.1477e-41
4.34 1.68 3.36 9.1477e-41
4.37 1.68 3.31 9.1477e-41
4.39 1.68 3.31 9.1477e-41
4.41 1.68 3.32 9.1477e-41
4.43 1.68 3.31 9.1477e-41
4.45 1.68 3.31 9.1477e-41
4.47 1.68 3.3 9.1477e-41
4.49 1.68 3.31 9.1477e-41
4.52 1.68 3.3 9.1477e-41
4.54 1.68 3.3 9.1477e-41
4.56 1.68 3.3 9.1477e-41
4.58 1.68 3.29 9.1477e-41
4.6 1.68 3.29 9.1477e-41
4.63 1.68 3.29 9.1477e-41
4.65 1.68 3.29 9.1477e-41
4.67 1.68 3.29 9.1477e-41
4.69 1.68 3.29 9.1477e-41
4.72 1.68 3.28 9.1477e-41
4.74 1.68 3.28 9.1477e-41
4.77 1.68 3.29 9.1477e-41
4.79 1.68 3.28 9.1477e-41
4.82 1.68 3.27 9.1477e-41
4.84 1.68 3.27 9.1477e-41
4.86 1.68 3.26 9.1477e-41
4.89 1.68 3.25 9.1477e-41
4.92 1.68 3.25 9.1477e-41
4.94 1.68 3.24 9.1477e-41
4.97 1.68 3.24 9.1477e-41
5 1.68 3.22 9.1477e-41
5.03 1.68 3.22 9.1477e-41
5.06 1.68 3.21 9.1477e-41
2.88 1.92 3.24 9.1477e-41
2.91 1.92 3.26 9.1477e-41
2.94 1.92 3.27 9.1477e-41
2.97 1.92 3.27 9.1477e-41
2.99 1.92 3.26 9.1477e-41
3.03 1.92 3.28 9.1477e-41
3.05 1.92 3.28 9.1477e-41
3.08 1.92 3.29 9.1477e-41
3.11 1.92 3.3 9.1477e-41
3.13 1.92 3.3 9.1477e-41
3.16 1.92 3.3 9.1477e-41
3.18 1.92 3.31 9.1477e-41
3.21 1.92 3.32 9.1477e-41
3.23 1.92 3.31 9.1477e-41
3.25 1.92 3.31 9.1477e-41
3.28 1.92 3.32 9.1477e-41
3.3 1.92 3.31 9.1477e-41
3.33 1.92 3.32 9.1477e-41
3.35 1.92 3.33 9.1477e-41
3.37 1.92 3.31 9.1477e-41
3.39 1.92 3.32 9.1477e-41
3.42 1.92 3.32 9.1477e-41
3.44 1.92 3.32 9.1477e-41
3.46 1.92 3.33 9.1477e-41
3.48 1.92 3.32 9.1477e-41
3.51 1.92 3.33 9.1477e-41
3.53 1.92 3.32 9.1477e-41
3.55 1.92 3.32 9.1477e-41
3.58 1.92 3.35 9.1477e-41
3.61 1.92 3.4 9.1477e-41
3.63 1.92 3.39 9.1477e-41
3.65 1.92 3.4 9.1477e-41
3.67 1.92 3.39 9.1477e-41
3.69 1.92 3.41 9.1477e-41
3.71 1.92 3.41 9.1477e-41
3.73 1.92 3.4 9.1477e-41
3.76 1.92 3.41 9.1477e-41
3.77 1.92 3.41 9.1477e-41
3.79 1.92 3.4 9.1477e-41
3.82 1.92 3.41 9.1477e-41
3.84 1.92 3.41 9.1477e-41
3.86 1.92 3.41 9.1477e-41
3.88 1.92 3.42 9.1477e-41
3.9 1.92 3.4 9.1477e-41
3.92 1.92 3.41 9.1477e-41
3.94 1.92 3.41 9.1477e-41
3.96 1.92 3.41 9.1477e-41
3.98 1.92 3.41 9.1477e-41
4 1.92 3.41 9.1477e-41
4.02 1.92 3.42 9.1477e-41
4.04 1.92 3.42 9.1477e-41
4.06 1.92 3.42 9.1477e-41
4.08 1.92 3.41 9.1477e-41
4.09 1.92 3.41 9.1477e-41
4.11 1.92 0.57 9.1477e-41
4.13 1.92 3.42 9.1477e-41
4.15 1.92 3.41 9.1477e-41
4.17 1.92 3.41 9.1477e-41
4.19 1.92 3.41 9.1477e-41
4.21 1.92 3.41 9.1477e-41
4.23 1.92 3.4 9.1477e-41
4.25 1.92 3.4 9.1477e-41
4.28 1.92 3.39 9.1477e-41
4.3 1.92 3.38 9.1477e-41
4.32 1.92 3.37 9.1477e-41
4.34 1.92 3.32 9.1477e-41
4.36 1.92 3.32 9.1477e-41
4.39 1.92 3.31 9.1477e-41
4.41 1.92 3.33 9.1477e-41
4.43 1.92 3.31 9.1477e-41
4.45 1.92 3.31 9.1477e-41
4.47 1.92 3.31 9.1477e-41
4.49 1.92 3.3 9.1477e-41
4.52 1.92 3.3 9.1477e-41
4.54 1.92 3.31 9.1477e-41
4.56 1.92 3.3 9.1477e-41
4.58 1.92 3.3 9.1477e-41
4.6 1.92 3.29 9.1477e-41
4.63 1.92 3.29 9.1477e-41
4.65 1.92 3.3 9.1477e-41
4.67 1.92 3.29 9.1477e-41
4.69 1.92 3.29 9.1477e-41
4.72 1.92 3.28 9.1477e-41
4.74 1.92 3.27 9.1477e-41
4.77 1.92 3.28 9.1477e-41
4.79 1.92 3.28 9.1477e-41
4.81 1.92 3.28 9.1477e-41
4.84 1.92 3.27 9.1477e-41
4.86 1.92 3.26 9.1477e-41
4.89 1.92 3.25 9.1477e-41
4.92 1.92 3.24 9.1477e-41
4.94 1.92 3.24 9.1477e-41
4.97 1.92 3.24 9.1477e-41
4.99 1.92 3.23 9.1477e-41
5.02 1.92 3.23 9.1477e-41
2.88 2.16 3.25 9.1477e-41
2.91 2.16 3.26 9.1477e-41
2.94 2.16 3.26 9.1477e-41
2.97 2.16 3.27 9.1477e-41
3 2.16 3.27 9.1477e-41
3.03 2.16 3.28 9.1477e-41
3.05 2.16 3.28 9.1477e-41
3.08 2.16 3.28 9.1477e-41
3.1 2.16 3.29 9.1477e-41
3.13 2.16 3.29 9.1477e-41
3.16 2.16 3.3 9.1477e-41
3.18 2.16 3.3 9.1477e-41
3.21 2.16 3.32 9.1477e-41
3.23 2.16 3.31 9.1477e-41
3.26 2.16 3.32 9.1477e-41
3.28 2.16 3.32 9.1477e-41
3.3 2.16 3.31 9.1477e-41
3.33 2.16 3.32 9.1477e-41
3.35 2.16 3.32 9.1477e-41
3.37 2.16 3.32 9.1477e-41
3.4 2.16 3.33 9.1477e-41
3.42 2.16 3.33 9.1477e-41
3.44 2.16 3.32 9.1477e-41
3.46 2.16 3.32 9.1477e-41
3.48 2.16 3.32 9.1477e-41
3.51 2.16 3.33 9.1477e-41
3.53 2.16 3.32 9.1477e-41
3.55 2.16 3.32 9.1477e-41
3.57 2.16 3.33 9.1477e-41
3.59 2.16 3.33 9.1477e-41
3.62 2.16 3.33 9.1477e-41
3.64 2.16 3.33 9.1477e-41
3.66 2.16 3.33 9.1477e-41
3.68 2.16 3.33 9.1477e-41
3.7 2.16 3.33 9.1477e-41
3.72 2.16 3.32 9.1477e-41
3.74 2.16 3.33 9.1477e-41
3.76 2.16 3.33 9.1477e-41
3.78 2.16 3.33 9.1477e-41
3.81 2.16 3.33 9.1477e-41
3.83 2.16 3.33 9.1477e-41
3.85 2.16 3.35 9.1477e-41
3.87 2.16 3.36 9.1477e-41
3.89 2.16 3.37 9.1477e-41
3.91 2.16 3.38 9.1477e-41
3.94 2.16 3.4 9.1477e-41
3.96 2.16 3.4 9.1477e-41
3.97 2.16 3.39 9.1477e-41
3.99 2.16 3.39 9.1477e-41
4.01 2.16 3.38 9.1477e-41
4.03 2.16 3.36 9.1477e-41
4.05 2.16 3.35 9.1477e-41
4.07 2.16 3.33 9.1477e-41
4.09 2.16 3.33 9.1477e-41
4.12 2.16 0.49 9.1477e-41
4.14 2.16 3.34 9.1477e-41
4.16 2.16 3.33 9.1477e-41
4.18 2.16 3.33 9.1477e-41
4.2 2.16 3.33 9.1477e-41
4.22 2.16 3.33 9.1477e-41
4.24 2.16 3.32 9.1477e-41
4.26 2.16 3.32 9.1477e-41
4.28 2.16 3.33 9.1477e-41
4.3 2.16 3.32 9.1477e-41
4.32 2.16 3.33 9.1477e-41
4.34 2.16 3.32 9.1477e-41
4.36 2.16 3.32 9.1477e-41
4.39 2.16 3.32 9.1477e-41
4.41 2.16 3.32 9.1477e-41
4.43 2.16 3.32 9.1477e-41
4.45 2.16 3.31 9.1477e-41
4.47 2.16 3.31 9.1477e-41
4.49 2.16 3.31 9.1477e-41
4.52 2.16 3.3 9.1477e-41
4.54 2.16 3.31 9.1477e-41
4.56 2.16 3.3 9.1477e-41
4.58 2.16 3.29 9.1477e-41
4.6 2.16 3.29 9.1477e-41
4.63 2.16 3.28 9.1477e-41
4.65 2.16 3.28 9.1477e-41
4.67 2.16 3.29 9.1477e-41
4.7 2.16 3.28 9.1477e-41
4.72 2.16 3.28 9.1477e-41
4.74 2.16 3.28 9.1477e-41
4.77 2.16 3.29 9.1477e-41
4.79 2.16 3.27 9.1477e-41
4.82 2.16 3.27 9.1477e-41
4.84 2.16 3.27 9.1477e-41
4.87 2.16 3.25 9.1477e-41
4.89 2.16 3.25 9.1477e-41
4.92 2.16 3.24 9.1477e-41
4.94 2.16 3.24 9.1477e-41
4.97 2.16 3.23 9.1477e-41
5 2.16 3.21 9.1477e-41
5.03 2.16 3.22 9.1477e-41
2.88 2.4 3.25 9.1477e-41
2.91 2.4 3.26 9.1477e-41
2.94 2.4 3.27 9.1477e-41
2.97 2.4 3.27 9.1477e-41
2.99 2.4 3.26 9.1477e-41
3.03 2.4 3.28 9.1477e-41
3.05 2.4 3.27 9.1477e-41
3.08 2.4 3.28 9.1477e-41
3.1 2.4 3.29 9.1477e-41
3.13 2.4 3.29 9.1477e-41
3.15 2.4 3.29 9.1477e-41
3.18 2.4 3.3 9.1477e-41
3.21 2.4 3.31 9.1477e-41
3.23 2.4 3.31 9.1477e-41
3.26 2.4 3.32 9.1477e-41
3.27 2.4 3.3 9.1477e-41
3.3 2.4 3.31 9.1477e-41
3.33 2.4 3.32 9.1477e-41
3.35 2.4 3.32 9.1477e-41
3.37 2.4 3.32 9.1477e-41
3.4 2.4 3.33 9.1477e-41
3.42 2.4 3.33 9.1477e-41
3.44 2.4 3.32 9.1477e-41
3.46 2.4 3.32 9.1477e-41
3.48 2.4 3.32 9.1477e-41
3.51 2.4 3.33 9.1477e-41
3.53 2.4 3.33 9.1477e-41
3.55 2.4 3.34 9.1477e-41
3.57 2.4 3.33 9.1477e-41
3.59 2.4 3.33 9.1477e-41
3.62 2.4 3.33 9.1477e-41
3.64 2.4 3.33 9.1477e-41
3.66 2.4 3.33 9.1477e-41
3.68 2.4 3.33 9.1477e-41
3.7 2.4 3.33 9.1477e-41
3.72 2.4 3.32 9.1477e-41
3.74 2.4 3.33 9.1477e-41
3.76 2.4 3.33 9.1477e-41
3.78 2.4 3.33 9.1477e-41
3.81 2.4 3.33 9.1477e-41
3.83 2.4 3.32 9.1477e-41
3.85 2.4 3.33 9.1477e-41
3.87 2.4 3.33 9.1477e-41
3.89 2.4 3.33 9.1477e-41
3.91 2.4 3.35 9.1477e-41
3.93 2.4 3.36 9.1477e-41
3.95 2.4 3.37 9.1477e-41
3.97 2.4 3.37 9.1477e-41
3.99 2.4 3.35 9.1477e-41
4.01 2.4 3.33 9.1477e-41
4.03 2.4 3.34 9.1477e-41
4.05 2.4 3.33 9.1477e-41
4.07 2.4 3.32 9.1477e-41
4.09 2.4 3.33 9.1477e-41
4.12 2.4 0.49 9.1477e-41
4.14 2.4 3.33 9.1477e-41
4.16 2.4 3.32 9.1477e-41
4.18 2.4 3.32 9.1477e-41
4.2 2.4 3.33 9.1477e-41
4.22 2.4 3.32 9.1477e-41
4.24 2.4 3.32 9.1477e-41
4.26 2.4 3.33 9.1477e-41
4.28 2.4 3.32 9.1477e-41
4.3 2.4 3.32 9.1477e-41
4.32 2.4 3.33 9.1477e-41
4.34 2.4 3.32 9.1477e-41
4.36 2.4 3.32 9.1477e-41
4.39 2.4 3.32 9.1477e-41
4.41 2.4 3.32 9.1477e-41
4.43 2.4 3.32 9.1477e-41
4.45 2.4 3.31 9.1477e-41
4.47 2.4 3.3 9.1477e-41
4.49 2.4 3.3 9.1477e-41
4.52 2.4 3.29 9.1477e-41
4.54 2.4 3.3 9.1477e-41
4.56 2.4 3.3 9.1477e-41
4.58 2.4 3.28 9.1477e-41
4.6 2.4 3.29 9.1477e-41
4.63 2.4 3.28 9.1477e-41
4.65 2.4 3.29 9.1477e-41
4.67 2.4 3.28 9.1477e-41
4.7 2.4 3.28 9.1477e-41
4.72 2.4 3.28 9.1477e-41
4.74 2.4 3.27 9.1477e-41
4.77 2.4 3.28 9.1477e-41
4.79 2.4 3.27 9.1477e-41
4.82 2.4 3.26 9.1477e-41
4.84 2.4 3.26 9.1477e-41
4.86 2.4 3.26 9.1477e-41
4.89 2.4 3.25 9.1477e-41
4.92 2.4 3.25 9.1477e-41
4.94 2.4 3.24 9.1477e-41
4.97 2.4 3.23 9.1477e-41
5 2.4 3.22 9.1477e-41
5.03 2.4 3.21 9.1477e-41
2.84 2.64 3.22 9.1477e-41
2.88 2.64 3.25 9.1477e-41
2.91 2.64 3.26 9.1477e-41
2.94 2.64 3.26 9.1477e-41
2.97 2.64 3.27 9.1477e-41
3 2.64 3.27 9.1477e-41
3.02 2.64 3.27 9.1477e-41
3.05 2.64 3.27 9.1477e-41
3.08 2.64 3.28 9.1477e-41
3.1 2.64 3.29 9.1477e-41
3.13 2.64 3.29 9.1477e-41
3.15 2.64 3.29 9.1477e-41
3.18 2.64 3.3 9.1477e-41
3.21 2.64 3.31 9.1477e-41
3.23 2.64 3.31 9.1477e-41
3.25 2.64 3.31 9.1477e-41
3.28 2.64 3.32 9.1477e-41
3.3 2.64 3.31 9.1477e-41
3.33 2.64 3.32 9.1477e-41
3.35 2.64 3.32 9.1477e-41
3.37 2.64 3.32 9.1477e-41
3.4 2.64 3.33 9.1477e-41
3.42 2.64 3.33 9.1477e-41
3.44 2.64 3.32 9.1477e-41
3.46 2.64 3.32 9.1477e-41
3.48 2.64 3.32 9.1477e-41
3.51 2.64 3.33 9.1477e-41
3.53 2.64 3.34 9.1477e-41
3.55 2.64 3.32 9.1477e-41
3.57 2.64 3.33 9.1477e-41
3.59 2.64 3.33 9.1477e-41
3.62 2.64 3.33 9.1477e-41
3.64 2.64 3.33 9.1477e-41
3.66 2.64 3.34 9.1477e-41
3.68 2.64 3.33 9.1477e-41
3.7 2.64 3.34 9.1477e-41
3.72 2.64 3.33 9.1477e-41
3.74 2.64 3.33 9.1477e-41
3.77 2.64 3.34 9.1477e-41
3.78 2.64 3.33 9.1477e-41
3.81 2.64 3.33 9.1477e-41
3.83 2.64 3.34 9.1477e-41
3.85 2.64 3.34 9.1477e-41
3.87 2.64 3.33 9.1477e-41
3.89 2.64 3.33 9.1477e-41
3.91 2.64 3.33 9.1477e-41
3.93 2.64 3.33 9.1477e-41
3.95 2.64 3.34 9.1477e-41
3.97 2.64 3.33 9.1477e-41
3.99 2.64 3.33 9.1477e-41
4.01 2.64 3.33 9.1477e-41
4.03 2.64 3.33 9.1477e-41
4.05 2.64 3.33 9.1477e-41
4.07 2.64 3.34 9.1477e-41
4.09 2.64 3.34 9.1477e-41
4.12 2.64 0.5 9.1477e-41
4.14 2.64 3.33 9.1477e-41
4.16 2.64 3.33 9.1477e-41
4.18 2.64 3.33 9.1477e-41
4.2 2.64 3.32 9.1477e-41
4.22 2.64 3.33 9.1477e-41
4.24 2.64 3.32 9.1477e-41
4.26 2.64 3.33 9.1477e-41
4.28 2.64 3.31 9.1477e-41
4.3 2.64 3.32 9.1477e-41
4.32 2.64 3.32 9.1477e-41
4.34 2.64 3.33 9.1477e-41
4.36 2.64 3.32 9.1477e-41
4.39 2.64 3.31 9.1477e-41
4.41 2.64 3.31 9.1477e-41
4.43 2.64 3.31 9.1477e-41
4.45 2.64 3.3 9.1477e-41
4.47 2.64 3.3 9.1477e-41
4.5 2.64 3.29 9.1477e-41
4.52 2.64 3.29 9.1477e-41
4.54 2.64 3.29 9.1477e-41
4.56 2.64 3.29 9.1477e-41
4.58 2.64 3.29 9.1477e-41
4.61 2.64 3.28 9.1477e-41
4.63 2.64 3.28 9.1477e-41
4.65 2.64 3.28 9.1477e-41
4.67 2.64 3.28 9.1477e-41
4.7 2.64 3.27 9.1477e-41
4.72 2.64 3.27 9.1477e-41
4.74 2.64 3.27 9.1477e-41
4.77 2.64 3.28 9.1477e-41
4.8 2.64 3.26 9.1477e-41
4.82 2.64 3.26 9.1477e-41
4.84 2.64 3.27 9.1477e-41
4.87 2.64 3.25 9.1477e-41
4.9 2.64 3.24 9.1477e-41
4.92 2.64 3.24 9.1477e-41
4.94 2.64 3.24 9.1477e-41
4.97 2.64 3.23 9.1477e-41
5 2.64 3.22 9.1477e-41
5.03 2.64 3.2 9.1477e-41
2.84 2.88 3.22 9.1477e-41
2.89 2.88 3.27 9.1477e-41
2.91 2.88 3.26 9.1477e-41
2.94 2.88 3.26 9.1477e-41
2.97 2.88 3.27 9.1477e-41
2.99 2.88 3.26 9.1477e-41
3.03 2.88 3.28 9.1477e-41
3.05 2.88 3.27 9.1477e-41
3.08 2.88 3.29 9.1477e-41
3.1 2.88 3.29 9.1477e-41
3.13 2.88 3.29 9.1477e-41
3.15 2.88 3.29 9.1477e-41
3.18 2.88 3.3 9.1477e-41
3.21 2.88 3.31 9.1477e-41
3.23 2.88 3.31 9.1477e-41
3.25 2.88 3.31 9.1477e-41
3.28 2.88 3.31 9.1477e-41
3.3 2.88 3.31 9.1477e-41
3.33 2.88 3.32 9.1477e-41
3.35 2.88 3.33 9.1477e-41
3.37 2.88 3.32 9.1477e-41
3.4 2.88 3.33 9.1477e-41
3.42 2.88 3.32 9.1477e-41
3.44 2.88 3.32 9.1477e-41
3.46 2.88 3.32 9.1477e-41
3.49 2.88 3.33 9.1477e-41
3.51 2.88 3.33 9.1477e-41
3.53 2.88 3.33 9.1477e-41
3.55 2.88 3.34 9.1477e-41
3.57 2.88 3.33 9.1477e-41
3.6 2.88 3.34 9.1477e-41
3.62 2.88 3.33 9.1477e-41
3.64 2.88 3.34 9.1477e-41
3.66 2.88 3.34 9.1477e-41
3.68 2.88 3.33 9.1477e-41
3.7 2.88 3.35 9.1477e-41
3.72 2.88 3.33 9.1477e-41
3.74 2.88 3.34 9.1477e-41
3.76 2.88 3.33 9.1477e-41
3.79 2.88 3.34 9.1477e-41
3.81 2.88 3.33 9.1477e-41
3.83 2.88 3.34 9.1477e-41
3.85 2.88 3.33 9.1477e-41
3.87 2.88 3.33 9.1477e-41
3.89 2.88 3.33 9.1477e-41
3.91 2.88 3.33 9.1477e-41
3.93 2.88 3.34 9.1477e-41
3.95 2.88 3.34 9.1477e-41
3.97 2.88 3.34 9.1477e-41
3.99 2.88 3.33 9.1477e-41
4.01 2.88 3.34 9.1477e-41
4.03 2.88 3.34 9.1477e-41
4.05 2.88 3.34 9.1477e-41
4.07 2.88 3.34 9.1477e-41
4.09 2.88 3.33 9.1477e-41
4.12 2.88 0.49 9.1477e-41
4.14 2.88 3.33 9.1477e-41
4.16 2.88 3.33 9.1477e-41
4.18 2.88 3.33 9.1477e-41
4.2 2.88 3.33 9.1477e-41
4.22 2.88 3.32 9.1477e-41
4.24 2.88 3.32 9.1477e-41
4.26 2.88 3.32 9.1477e-41
4.28 2.88 3.32 9.1477e-41
4.3 2.88 3.32 9.1477e-41
4.32 2.88 3.32 9.1477e-41
4.34 2.88 3.31 9.1477e-41
4.37 2.88 3.31 9.1477e-41
4.39 2.88 3.31 9.1477e-41
4.41 2.88 3.32 9.1477e-41
4.43 2.88 3.31 9.1477e-41
4.45 2.88 3.3 9.1477e-41
4.47 2.88 3.29 9.1477e-41
4.5 2.88 3.29 9.1477e-41
4.52 2.88 3.28 9.1477e-41
4.54 2.88 3.3 9.1477e-41
4.56 2.88 3.29 9.1477e-41
4.58 2.88 3.28 9.1477e-41
4.6 2.88 3.29 9.1477e-41
4.63 2.88 3.28 9.1477e-41
4.65 2.88 3.28 9.1477e-41
4.67 2.88 3.28 9.1477e-41
4.7 2.88 3.28 9.1477e-41
4.72 2.88 3.27 9.1477e-41
4.74 2.88 3.28 9.1477e-41
4.77 2.88 3.27 9.1477e-41
4.79 2.88 3.27 9.1477e-41
4.82 2.88 3.26 9.1477e-41
4.84 2.88 3.26 9.1477e-41
4.86 2.88 3.26 9.1477e-41
4.89 2.88 3.25 9.1477e-41
4.92 2.88 3.24 9.1477e-41
4.94 2.88 3.24 9.1477e-41
4.97 2.88 3.23 9.1477e-41
4.99 2.88 3.23 9.1477e-41
5.04 2.88 3.2 9.1477e-41
2.84 3.12 3.22 9.1477e-41
2.88 3.12 3.25 9.1477e-41
2.92 3.12 3.27 9.1477e-41
2.94 3.12 3.27 9.1477e-41
2.97 3.12 3.27 9.1477e-41
3 3.12 3.27 9.1477e-41
3.02 3.12 3.26 9.1477e-41
3.05 3.12 3.27 9.1477e-41
3.08 3.12 3.28 9.1477e-41
3.1 3.12 3.28 9.1477e-41
3.13 3.12 3.29 9.1477e-41
3.15 3.12 3.28 9.1477e-41
3.18 3.12 3.3 9.1477e-41
3.2 3.12 3.3 9.1477e-41
3.23 3.12 3.31 9.1477e-41
3.25 3.12 3.31 9.1477e-41
3.28 3.12 3.31 9.1477e-41
3.3 3.12 3.31 9.1477e-41
3.33 3.12 3.33 9.1477e-41
3.35 3.12 3.31 9.1477e-41
3.37 3.12 3.32 9.1477e-41
3.39 3.12 3.31 9.1477e-41
3.42 3.12 3.32 9.1477e-41
3.44 3.12 3.32 9.1477e-41
3.46 3.12 3.33 9.1477e-41
3.48 3.12 3.32 9.1477e-41
3.51 3.12 3.33 9.1477e-41
3.53 3.12 3.33 9.1477e-41
3.55 3.12 3.33 9.1477e-41
3.57 3.12 3.33 9.1477e-41
3.59 3.12 3.33 9.1477e-41
3.62 3.12 3.33 9.1477e-41
3.64 3.12 3.34 9.1477e-41
3.66 3.12 3.34 9.1477e-41
3.68 3.12 3.33 9.1477e-41
3.7 3.12 3.33 9.1477e-41
3.72 3.12 3.32 9.1477e-41
3.74 3.12 3.33 9.1477e-41
3.76 3.12 3.33 9.1477e-41
3.79 3.12 3.34 9.1477e-41
3.8 3.12 3.32 9.1477e-41
3.83 3.12 3.33 9.1477e-41
3.85 3.12 3.32 9.1477e-41
3.87 3.12 3.33 9.1477e-41
3.89 3.12 3.32 9.1477e-41
3.91 3.12 3.33 9.1477e-41
3.93 3.12 3.32 9.1477e-41
3.95 3.12 3.32 9.1477e-41
3.97 3.12 3.33 9.1477e-41
3.99 3.12 3.33 9.1477e-41
4.01 3.12 3.33 9.1477e-41
4.03 3.12 3.33 9.1477e-41
4.05 3.12 3.33 9.1477e-41
4.07 3.12 3.34 9.1477e-41
4.09 3.12 3.33 9.1477e-41
4.12 3.12 0.49 9.1477e-41
4.14 3.12 3.33 9.1477e-41
4.16 3.12 3.33 9.1477e-41
4.18 3.12 3.33 9.1477e-41
4.2 3.12 3.33 9.1477e-41
4.22 3.12 3.32 9.1477e-41
4.24 3.12 3.33 9.1477e-41
4.26 3.12 3.32 9.1477e-41
4.28 3.12 3.32 9.1477e-41
4.3 3.12 3.32 9.1477e-41
4.32 3.12 3.32 9.1477e-41
4.34 3.12 3.32 9.1477e-41
4.37 3.12 3.31 9.1477e-41
4.39 3.12 3.31 9.1477e-41
4.41 3.12 3.3 9.1477e-41
4.43 3.12 3.3 9.1477e-41
4.45 3.12 3.3 9.1477e-41
4.47 3.12 3.29 9.1477e-41
4.49 3.12 3.3 9.1477e-41
4.52 3.12 3.3 9.1477e-41
4.54 3.12 3.29 9.1477e-41
4.56 3.12 3.28 9.1477e-41
4.58 3.12 3.29 9.1477e-41
4.61 3.12 3.28 9.1477e-41
4.63 3.12 3.28 9.1477e-41
4.65 3.12 3.28 9.1477e-41
4.67 3.12 3.29 9.1477e-41
4.7 3.12 3.28 9.1477e-41
4.72 3.12 3.27 9.1477e-41
4.74 3.12 3.27 9.1477e-41
4.77 3.12 3.28 9.1477e-41
4.8 3.12 3.26 9.1477e-41
4.82 3.12 3.26 9.1477e-41
4.85 3.12 3.26 9.1477e-41
4.87 3.12 3.24 9.1477e-41
4.9 3.12 3.24 9.1477e-41
4.92 3.12 3.24 9.1477e-41
4.95 3.12 3.23 9.1477e-41
4.97 3.12 3.23 9.1477e-41
5 3.12 3.21 9.1477e-41
5.04 3.12 3.2 9.1477e-41
2.84 3.36 3.23 9.1477e-41
2.88 3.36 3.25 9.1477e-41
2.91 3.36 3.26 9.1477e-41
2.94 3.36 3.27 9.1477e-41
2.97 3.36 3.27 9.1477e-41
3 3.36 3.27 9.1477e-41
3.02 3.36 3.27 9.1477e-41
3.05 3.36 3.28 9.1477e-41
3.08 3.36 3.28 9.1477e-41
3.1 3.36 3.29 9.1477e-41
3.13 3.36 3.29 9.1477e-41
3.15 3.36 3.29 9.1477e-41
3.18 3.36 3.3 9.1477e-41
3.21 3.36 3.31 9.1477e-41
3.23 3.36 3.3 9.1477e-41
3.25 3.36 3.31 9.1477e-41
3.28 3.36 3.31 9.1477e-41
3.3 3.36 3.31 9.1477e-41
3.33 3.36 3.32 9.1477e-41
3.35 3.36 3.31 9.1477e-41
3.37 3.36 3.31 9.1477e-41
3.39 3.36 3.32 9.1477e-41
3.42 3.36 3.32 9.1477e-41
3.44 3.36 3.32 9.1477e-41
3.46 3.36 3.33 9.1477e-41
3.49 3.36 3.33 9.1477e-41
3.51 3.36 3.33 9.1477e-41
3.53 3.36 3.33 9.1477e-41
3.55 3.36 3.33 9.1477e-41
3.57 3.36 3.33 9.1477e-41
3.59 3.36 3.33 9.1477e-41
3.61 3.36 3.32 9.1477e-41
3.64 3.36 3.33 9.1477e-41
3.66 3.36 3.34 9.1477e-41
3.68 3.36 3.33 9.1477e-41
3.7 3.36 3.34 9.1477e-41
3.72 3.36 3.33 9.1477e-41
3.74 3.36 3.33 9.1477e-41
3.76 3.36 3.33 9.1477e-41
3.79 3.36 3.34 9.1477e-41
3.81 3.36 3.33 9.1477e-41
3.83 3.36 3.33 9.1477e-41
3.85 3.36 3.33 9.1477e-41
3.87 3.36 3.33 9.1477e-41
3.89 3.36 3.32 9.1477e-41
3.91 3.36 3.33 9.1477e-41
3.93 3.36 3.32 9.1477e-41
3.95 3.36 3.33 9.1477e-41
3.97 3.36 3.34 9.1477e-41
3.99 3.36 3.32 9.1477e-41
4.01 3.36 3.33 9.1477e-41
4.03 3.36 3.33 9.1477e-41
4.05 3.36 3.34 9.1477e-41
4.07 3.36 3.33 9.1477e-41
4.09 3.36 3.33 9.1477e-41
4.12 3.36 0.49 9.1477e-41
4.14 3.36 3.33 9.1477e-41
4.16 3.36 3.34 9.1477e-41
4.18 3.36 3.34 9.1477e-41
4.2 3.36 3.32 9.1477e-41
4.22 3.36 3.32 9.1477e-41
4.24 3.36 3.32 9.1477e-41
4.26 3.36 3.31 9.1477e-41
4.28 3.36 3.31 9.1477e-41
4.3 3.36 3.32 9.1477e-41
4.32 3.36 3.32 9.1477e-41
4.34 3.36 3.31 9.1477e-41
4.37 3.36 3.31 9.1477e-41
4.39 3.36 3.31 9.1477e-41
4.41 3.36 3.31 9.1477e-41
4.43 3.36 3.31 9.1477e-41
4.45 3.36 3.3 9.1477e-41
4.47 3.36 3.3 9.1477e-41
4.49 3.36 3.3 9.1477e-41
4.52 3.36 3.29 9.1477e-41
4.54 3.36 3.29 9.1477e-41
4.56 3.36 3.28 9.1477e-41
4.58 3.36 3.28 9.1477e-41
4.61 3.36 3.28 9.1477e-41
4.63 3.36 3.28 9.1477e-41
4.65 3.36 3.27 9.1477e-41
4.67 3.36 3.28 9.1477e-41
4.7 3.36 3.27 9.1477e-41
4.72 3.36 3.27 9.1477e-41
4.75 3.36 3.26 9.1477e-41
4.77 3.36 3.27 9.1477e-41
4.8 3.36 3.26 9.1477e-41
4.82 3.36 3.26 9.1477e-41
4.85 3.36 3.25 9.1477e-41
4.87 3.36 3.24 9.1477e-41
4.9 3.36 3.24 9.1477e-41
4.92 3.36 3.23 9.1477e-41
4.95 3.36 3.23 9.1477e-41
4.98 3.36 3.22 9.1477e-41
5 3.36 3.22 9.1477e-41
5.04 3.36 3.2 9.1477e-41
2.84 3.6 3.22 9.1477e-41
2.88 3.6 3.25 9.1477e-41
2.91 3.6 3.26 9.1477e-41
2.94 3.6 3.26 9.1477e-41
2.97 3.6 3.27 9.1477e-41
3 3.6 3.27 9.1477e-41
3.02 3.6 3.27 9.1477e-41
3.05 3.6 3.27 9.1477e-41
3.08 3.6 3.29 9.1477e-41
3.1 3.6 3.29 9.1477e-41
3.13 3.6 3.29 9.1477e-41
3.15 3.6 3.28 9.1477e-41
3.18 3.6 3.3 9.1477e-41
3.2 3.6 3.3 9.1477e-41
3.23 3.6 3.3 9.1477e-41
3.26 3.6 3.32 9.1477e-41
3.28 3.6 3.32 9.1477e-41
3.3 3.6 3.32 9.1477e-41
3.33 3.6 3.32 9.1477e-41
3.35 3.6 3.31 9.1477e-41
3.37 3.6 3.31 9.1477e-41
3.39 3.6 3.32 9.1477e-41
3.42 3.6 3.32 9.1477e-41
3.44 3.6 3.31 9.1477e-41
3.46 3.6 3.32 9.1477e-41
3.48 3.6 3.32 9.1477e-41
3.51 3.6 3.33 9.1477e-41
3.53 3.6 3.32 9.1477e-41
3.55 3.6 3.33 9.1477e-41
3.57 3.6 3.32 9.1477e-41
3.59 3.6 3.33 9.1477e-41
3.62 3.6 3.33 9.1477e-41
3.64 3.6 3.33 9.1477e-41
3.66 3.6 3.34 9.1477e-41
3.68 3.6 3.33 9.1477e-41
3.7 3.6 3.34 9.1477e-41
3.72 3.6 3.33 9.1477e-41
3.74 3.6 3.33 9.1477e-41
3.77 3.6 3.34 9.1477e-41
3.79 3.6 3.34 9.1477e-41
3.81 3.6 3.33 9.1477e-41
3.83 3.6 3.34 9.1477e-41
3.85 3.6 3.33 9.1477e-41
3.87 3.6 3.34 9.1477e-41
3.89 3.6 3.33 9.1477e-41
3.91 3.6 3.33 9.1477e-41
3.93 3.6 3.34 9.1477e-41
3.95 3.6 3.33 9.1477e-41
3.97 3.6 3.33 9.1477e-41
3.99 3.6 3.33 9.1477e-41
4.01 3.6 3.33 9.1477e-41
4.03 3.6 3.33 9.1477e-41
4.05 3.6 3.34 9.1477e-41
4.07 3.6 3.33 9.1477e-41
4.09 3.6 3.33 9.1477e-41
4.12 3.6 0.49 9.1477e-41
4.14 3.6 3.33 9.1477e-41
4.16 3.6 3.32 9.1477e-41
4.18 3.6 3.33 9.1477e-41
4.2 3.6 3.33 9.1477e-41
4.22 3.6 3.32 9.1477e-41
4.24 3.6 3.32 9.1477e-41
4.26 3.6 3.31 9.1477e-41
4.28 3.6 3.32 9.1477e-41
4.3 3.6 3.32 9.1477e-41
4.32 3.6 3.31 9.1477e-41
4.34 3.6 3.32 9.1477e-41
4.37 3.6 3.31 9.1477e-41
4.39 3.6 3.31 9.1477e-41
4.41 3.6 3.31 9.1477e-41
4.43 3.6 3.3 9.1477e-41
4.45 3.6 3.3 9.1477e-41
4.47 3.6 3.3 9.1477e-41
4.49 3.6 3.3 9.1477e-41
4.52 3.6 3.29 9.1477e-41
4.54 3.6 3.29 9.1477e-41
4.56 3.6 3.29 9.1477e-41
4.59 3.6 3.28 9.1477e-41
4.61 3.6 3.28 9.1477e-41
4.63 3.6 3.28 9.1477e-41
4.65 3.6 3.28 9.1477e-41
4.68 3.6 3.27 9.1477e-41
4.7 3.6 3.27 9.1477e-41
4.72 3.6 3.27 9.1477e-41
4.75 3.6 3.26 9.1477e-41
4.77 3.6 3.28 9.1477e-41
4.8 3.6 3.26 9.1477e-41
4.82 3.6 3.26 9.1477e-41
4.84 3.6 3.26 9.1477e-41
4.87 3.6 3.24 9.1477e-41
4.9 3.6 3.24 9.1477e-41
4.92 3.6 3.23 9.1477e-41
4.95 3.6 3.23 9.1477e-41
4.98 3.6 3.22 9.1477e-41
5 3.6 3.22 9.1477e-41
5.03 3.6 3.2 9.1477e-41
2.84 3.84 3.23 9.1477e-41
2.88 3.84 3.25 9.1477e-41
2.92 3.84 3.27 9.1477e-41
2.94 3.84 3.26 9.1477e-41
2.97 3.84 3.27 9.1477e-41
2.99 3.84 3.26 9.1477e-41
3.02 3.84 3.26 9.1477e-41
3.05 3.84 3.27 9.1477e-41
3.08 3.84 3.28 9.1477e-41
3.1 3.84 3.29 9.1477e-41
3.13 3.84 3.29 9.1477e-41
3.15 3.84 3.28 9.1477e-41
3.17 3.84 3.29 9.1477e-41
3.2 3.84 3.3 9.1477e-41
3.22 3.84 3.29 9.1477e-41
3.25 3.84 3.3 9.1477e-41
3.28 3.84 3.31 9.1477e-41
3.3 3.84 3.31 9.1477e-41
3.32 3.84 3.31 9.1477e-41
3.35 3.84 3.32 9.1477e-41
3.37 3.84 3.31 9.1477e-41
3.39 3.84 3.32 9.1477e-41
3.42 3.84 3.32 9.1477e-41
3.44 3.84 3.33 9.1477e-41
3.46 3.84 3.32 9.1477e-41
3.48 3.84 3.32 9.1477e-41
3.51 3.84 3.33 9.1477e-41
3.53 3.84 3.32 9.1477e-41
3.55 3.84 3.32 9.1477e-41
3.57 3.84 3.33 9.1477e-41
3.59 3.84 3.33 9.1477e-41
3.61 3.84 3.32 9.1477e-41
3.64 3.84 3.33 9.1477e-41
3.66 3.84 3.33 9.1477e-41
3.68 3.84 3.33 9.1477e-41
3.7 3.84 3.33 9.1477e-41
3.72 3.84 3.32 9.1477e-41
3.74 3.84 3.32 9.1477e-41
3.76 3.84 3.33 9.1477e-41
3.79 3.84 3.34 9.1477e-41
3.8 3.84 3.32 9.1477e-41
3.83 3.84 3.33 9.1477e-41
3.85 3.84 3.32 9.1477e-41
3.87 3.84 3.33 9.1477e-41
3.89 3.84 3.32 9.1477e-41
3.91 3.84 3.32 9.1477e-41
3.93 3.84 3.32 9.1477e-41
3.95 3.84 3.32 9.1477e-41
3.97 3.84 3.33 9.1477e-41
3.99 3.84 3.33 9.1477e-41
4.01 3.84 3.33 9.1477e-41
4.03 3.84 3.33 9.1477e-41
4.05 3.84 3.33 9.1477e-41
4.07 3.84 3.33 9.1477e-41
4.09 3.84 3.33 9.1477e-41
4.12 3.84 0.49 9.1477e-41
4.14 3.84 3.33 9.1477e-41
4.16 3.84 3.33 9.1477e-41
4.18 3.84 3.33 9.1477e-41
4.2 3.84 3.33 9.1477e-41
4.22 3.84 3.32 9.1477e-41
4.24 3.84 3.32 9.1477e-41
4.26 3.84 3.31 9.1477e-41
4.28 3.84 3.31 9.1477e-41
4.3 3.84 3.31 9.1477e-41
4.32 3.84 3.31 9.1477e-41
4.35 3.84 3.3 9.1477e-41
4.37 3.84 3.31 9.1477e-41
4.39 3.84 3.3 9.1477e-41
4.41 3.84 3.3 9.1477e-41
4.43 3.84 3.31 9.1477e-41
4.45 3.84 3.29 9.1477e-41
4.47 3.84 3.29 9.1477e-41
4.49 3.84 3.3 9.1477e-41
4.52 3.84 3.28 9.1477e-41
4.54 3.84 3.3 9.1477e-41
4.56 3.84 3.28 9.1477e-41
4.59 3.84 3.28 9.1477e-41
4.61 3.84 3.27 9.1477e-41
4.63 3.84 3.27 9.1477e-41
4.65 3.84 3.28 9.1477e-41
4.68 3.84 3.27 9.1477e-41
4.7 3.84 3.27 9.1477e-41
4.72 3.84 3.26 9.1477e-41
4.75 3.84 3.26 9.1477e-41
4.77 3.84 3.27 9.1477e-41
4.8 3.84 3.26 9.1477e-41
4.82 3.84 3.25 9.1477e-41
4.85 3.84 3.25 9.1477e-41
4.87 3.84 3.24 9.1477e-41
4.9 3.84 3.23 9.1477e-41
4.92 3.84 3.23 9.1477e-41
4.95 3.84 3.23 9.1477e-41
4.98 3.84 3.21 9.1477e-41
5 3.84 3.22 9.1477e-41
2.85 4.08 3.23 9.1477e-41
2.88 4.08 3.25 9.1477e-41
2.91 4.08 3.26 9.1477e-41
2.94 4.08 3.27 9.1477e-41
2.97 4.08 3.27 9.1477e-41
2.99 4.08 3.26 9.1477e-41
3.02 4.08 3.27 9.1477e-41
3.05 4.08 3.27 9.1477e-41
3.07 4.08 3.27 9.1477e-41
3.1 4.08 3.28 9.1477e-41
3.12 4.08 3.28 9.1477e-41
3.15 4.08 3.29 9.1477e-41
3.18 4.08 3.3 9.1477e-41
3.2 4.08 3.3 9.1477e-41
3.23 4.08 3.3 9.1477e-41
3.25 4.08 3.3 9.1477e-41
3.27 4.08 3.29 9.1477e-41
3.3 4.08 3.3 9.1477e-41
3.32 4.08 3.31 9.1477e-41
3.35 4.08 3.31 9.1477e-41
3.37 4.08 3.3 9.1477e-41
3.39 4.08 3.31 9.1477e-41
3.42 4.08 3.32 9.1477e-41
3.44 4.08 3.31 9.1477e-41
3.46 4.08 3.32 9.1477e-41
3.48 4.08 3.31 9.1477e-41
3.5 4.08 3.32 9.1477e-41
3.53 4.08 3.32 9.1477e-41
3.55 4.08 3.33 9.1477e-41
3.57 4.08 3.31 9.1477e-41
3.59 4.08 3.33 9.1477e-41
3.61 4.08 3.32 9.1477e-41
3.64 4.08 3.32 9.1477e-41
3.66 4.08 3.32 9.1477e-41
3.68 4.08 3.32 9.1477e-41
3.7 4.08 3.32 9.1477e-41
3.72 4.08 3.31 9.1477e-41
3.74 4.08 3.32 9.1477e-41
3.76 4.08 3.32 9.1477e-41
3.78 4.08 3.32 9.1477e-41
3.8 4.08 3.31 9.1477e-41
3.82 4.08 3.31 9.1477e-41
3.85 4.08 3.31 9.1477e-41
3.87 4.08 3.32 9.1477e-41
3.89 4.08 3.31 9.1477e-41
3.91 4.08 3.31 9.1477e-41
3.93 4.08 3.31 9.1477e-41
3.95 4.08 3.32 9.1477e-41
3.97 4.08 3.32 9.1477e-41
3.99 4.08 3.32 9.1477e-41
4.01 4.08 3.32 9.1477e-41
4.03 4.08 3.32 9.1477e-41
4.05 4.08 3.32 9.1477e-41
4.07 4.08 3.33 9.1477e-41
4.09 4.08 3.32 9.1477e-41
4.12 4.08 0.48 9.1477e-41
4.14 4.08 3.32 9.1477e-41
4.16 4.08 3.31 9.1477e-41
4.18 4.08 3.32 9.1477e-41
4.2 4.08 3.32 9.1477e-41
4.22 4.08 3.32 9.1477e-41
4.24 4.08 3.31 9.1477e-41
4.26 4.08 3.31 9.1477e-41
4.28 4.08 3.31 9.1477e-41
4.3 4.08 3.31 9.1477e-41
4.32 4.08 3.32 9.1477e-41
4.34 4.08 3.32 9.1477e-41
4.37 4.08 3.31 9.1477e-41
4.39 4.08 3.31 9.1477e-41
4.41 4.08 3.31 9.1477e-41
4.43 4.08 3.31 9.1477e-41
4.45 4.08 3.3 9.1477e-41
4.47 4.08 3.29 9.1477e-41
4.5 4.08 3.29 9.1477e-41
4.52 4.08 3.28 9.1477e-41
4.54 4.08 3.29 9.1477e-41
4.56 4.08 3.28 9.1477e-41
4.59 4.08 3.28 9.1477e-41
4.61 4.08 3.27 9.1477e-41
4.63 4.08 3.26 9.1477e-41
4.65 4.08 3.28 9.1477e-41
4.68 4.08 3.27 9.1477e-41
4.7 4.08 3.27 9.1477e-41
4.72 4.08 3.26 9.1477e-41
4.75 4.08 3.26 9.1477e-41
4.77 4.08 3.27 9.1477e-41
4.8 4.08 3.26 9.1477e-41
4.82 4.08 3.25 9.1477e-41
4.85 4.08 3.24 9.1477e-41
4.87 4.08 3.23 9.1477e-41
4.9 4.08 3.23 9.1477e-41
4.92 4.08 3.23 9.1477e-41
4.95 4.08 3.22 9.1477e-41
4.98 4.08 3.22 9.1477e-41
5.01 4.08 3.21 9.1477e-41
2.86 4.32 3.27 9.1477e-41
2.91 4.32 3.31 9.1477e-41
2.93 4.32 3.29 9.1477e-41
2.95 4.32 3.29 9.1477e-41
2.98 4.32 3.3 9.1477e-41
3 4.32 3.29 9.1477e-41
3.03 4.32 3.29 9.1477e-41
3.06 4.32 3.3 9.1477e-41
3.09 4.32 3.31 9.1477e-41
3.11 4.32 3.31 9.1477e-41
3.14 4.32 3.31 9.1477e-41
3.16 4.32 3.31 9.1477e-41
3.18 4.32 3.31 9.1477e-41
3.21 4.32 3.32 9.1477e-41
3.23 4.32 3.32 9.1477e-41
3.25 4.32 3.31 9.1477e-41
3.28 4.32 3.32 9.1477e-41
3.32 4.32 3.36 9.1477e-41
3.33 4.32 3.33 9.1477e-41
3.35 4.32 3.31 9.1477e-41
3.37 4.32 3.3 9.1477e-41
3.39 4.32 3.32 9.1477e-41
3.42 4.32 3.32 9.1477e-41
3.43 4.32 3.3 9.1477e-41
3.46 4.32 3.32 9.1477e-41
3.48 4.32 3.31 9.1477e-41
3.5 4.32 3.32 9.1477e-41
3.53 4.32 3.32 9.1477e-41
3.55 4.32 3.32 9.1477e-41
3.57 4.32 3.31 9.1477e-41
3.59 4.32 3.32 9.1477e-41
3.61 4.32 3.32 9.1477e-41
3.63 4.32 3.31 9.1477e-41
3.66 4.32 3.33 9.1477e-41
3.68 4.32 3.32 9.1477e-41
3.7 4.32 3.33 9.1477e-41
3.72 4.32 3.31 9.1477e-41
3.74 4.32 3.31 9.1477e-41
3.76 4.32 3.32 9.1477e-41
3.78 4.32 3.32 9.1477e-41
3.8 4.32 3.31 9.1477e-41
3.83 4.32 3.34 9.1477e-41
3.85 4.32 3.37 9.1477e-41
3.87 4.32 3.39 9.1477e-41
3.89 4.32 3.39 9.1477e-41
3.91 4.32 3.39 9.1477e-41
3.94 4.32 3.4 9.1477e-41
3.95 4.32 3.39 9.1477e-41
3.97 4.32 3.39 9.1477e-41
3.99 4.32 3.38 9.1477e-41
4.01 4.32 3.36 9.1477e-41
4.03 4.32 3.32 9.1477e-41
4.05 4.32 3.32 9.1477e-41
4.07 4.32 3.32 9.1477e-41
4.09 4.32 3.31 9.1477e-41
4.12 4.32 0.47 9.1477e-41
4.14 4.32 3.32 9.1477e-41
4.16 4.32 3.31 9.1477e-41
4.18 4.32 3.31 9.1477e-41
4.2 4.32 3.32 9.1477e-41
4.22 4.32 3.32 9.1477e-41
4.24 4.32 3.31 9.1477e-41
4.26 4.32 3.32 9.1477e-41
4.28 4.32 3.31 9.1477e-41
4.3 4.32 3.31 9.1477e-41
4.32 4.32 3.32 9.1477e-41
4.34 4.32 3.31 9.1477e-41
4.37 4.32 3.31 9.1477e-41
4.39 4.32 3.31 9.1477e-41
4.41 4.32 3.31 9.1477e-41
4.43 4.32 3.3 9.1477e-41
4.45 4.32 3.3 9.1477e-41
4.47 4.32 3.29 9.1477e-41
4.49 4.32 3.3 9.1477e-41
4.52 4.32 3.3 9.1477e-41
4.54 4.32 3.3 9.1477e-41
4.56 4.32 3.28 9.1477e-41
4.58 4.32 3.29 9.1477e-41
4.6 4.32 3.29 9.1477e-41
4.63 4.32 3.28 9.1477e-41
4.65 4.32 3.28 9.1477e-41
4.68 4.32 3.27 9.1477e-41
4.7 4.32 3.28 9.1477e-41
4.72 4.32 3.27 9.1477e-41
4.74 4.32 3.27 9.1477e-41
4.77 4.32 3.28 9.1477e-41
4.79 4.32 3.27 9.1477e-41
4.82 4.32 3.27 9.1477e-41
4.84 4.32 3.26 9.1477e-41
4.87 4.32 3.25 9.1477e-41
4.9 4.32 3.24 9.1477e-41
4.92 4.32 3.25 9.1477e-41
4.95 4.32 3.23 9.1477e-41
4.98 4.32 3.22 9.1477e-41
5.01 4.32 3.21 9.1477e-41
2.87 4.56 3.29 9.1477e-41
2.93 4.56 3.36 9.1477e-41
2.96 4.56 3.36 9.1477e-41
2.99 4.56 3.37 9.1477e-41
3.01 4.56 3.36 9.1477e-41
3.03 4.56 3.36 9.1477e-41
3.06 4.56 3.36 9.1477e-41
3.08 4.56 3.36 9.1477e-41
3.11 4.56 3.37 9.1477e-41
3.14 4.56 3.38 9.1477e-41
3.16 4.56 3.38 9.1477e-41
3.19 4.56 3.38 9.1477e-41
3.21 4.56 3.39 9.1477e-41
3.23 4.56 3.38 9.1477e-41
3.26 4.56 3.39 9.1477e-41
3.28 4.56 3.39 9.1477e-41
3.31 4.56 3.4 9.1477e-41
3.33 4.56 3.39 9.1477e-41
3.34 4.56 3.35 9.1477e-41
3.35 4.56 3.31 9.1477e-41
3.37 4.56 3.3 9.1477e-41
3.39 4.56 3.32 9.1477e-41
3.41 4.56 3.3 9.1477e-41
3.44 4.56 3.31 9.1477e-41
3.46 4.56 3.32 9.1477e-41
3.48 4.56 3.31 9.1477e-41
3.5 4.56 3.32 9.1477e-41
3.53 4.56 3.32 9.1477e-41
3.55 4.56 3.33 9.1477e-41
3.57 4.56 3.32 9.1477e-41
3.59 4.56 3.32 9.1477e-41
3.61 4.56 3.32 9.1477e-41
3.64 4.56 3.32 9.1477e-41
3.66 4.56 3.33 9.1477e-41
3.68 4.56 3.32 9.1477e-41
3.7 4.56 3.33 9.1477e-41
3.72 4.56 3.31 9.1477e-41
3.74 4.56 3.31 9.1477e-41
3.76 4.56 3.32 9.1477e-41
3.78 4.56 3.33 9.1477e-41
3.8 4.56 3.31 9.1477e-41
3.83 4.56 3.32 9.1477e-41
3.85 4.56 3.32 9.1477e-41
3.87 4.56 3.32 9.1477e-41
3.89 4.56 3.31 9.1477e-41
3.91 4.56 3.32 9.1477e-41
3.93 4.56 3.32 9.1477e-41
3.95 4.56 3.32 9.1477e-41
3.97 4.56 3.32 9.1477e-41
3.99 4.56 3.32 9.1477e-41
4.01 4.56 3.32 9.1477e-41
4.03 4.56 3.31 9.1477e-41
4.05 4.56 3.32 9.1477e-41
4.07 4.56 3.32 9.1477e-41
4.09 4.56 3.32 9.1477e-41
4.12 4.56 0.48 9.1477e-41
4.14 4.56 3.32 9.1477e-41
4.16 4.56 3.32 9.1477e-41
4.18 4.56 3.32 9.1477e-41
4.2 4.56 3.32 9.1477e-41
4.22 4.56 3.31 9.1477e-41
4.24 4.56 3.32 9.1477e-41
4.26 4.56 3.3 9.1477e-41
4.28 4.56 3.31 9.1477e-41
4.3 4.56 3.31 9.1477e-41
4.32 4.56 3.31 9.1477e-41
4.34 4.56 3.31 9.1477e-41
4.37 4.56 3.3 9.1477e-41
4.39 4.56 3.31 9.1477e-41
4.41 4.56 3.31 9.1477e-41
4.43 4.56 3.3 9.1477e-41
4.45 4.56 3.29 9.1477e-41
4.47 4.56 3.29 9.1477e-41
4.5 4.56 3.29 9.1477e-41
4.51 4.56 3.31 9.1477e-41
4.52 4.56 3.37 9.1477e-41
4.54 4.56 3.39 9.1477e-41
4.56 4.56 3.39 9.1477e-41
4.59 4.56 3.38 9.1477e-41
4.6 4.56 3.39 9.1477e-41
4.63 4.56 3.38 9.1477e-41
4.65 4.56 3.37 9.1477e-41
4.68 4.56 3.37 9.1477e-41
4.7 4.56 3.37 9.1477e-41
4.72 4.56 3.37 9.1477e-41
4.74 4.56 3.36 9.1477e-41
4.76 4.56 3.37 9.1477e-41
4.79 4.56 3.36 9.1477e-41
4.81 4.56 3.36 9.1477e-41
4.84 4.56 3.35 9.1477e-41
4.86 4.56 3.35 9.1477e-41
4.89 4.56 3.33 9.1477e-41
4.91 4.56 3.33 9.1477e-41
4.95 4.56 3.28 9.1477e-41
5.01 4.56 3.21 9.1477e-41
2.86 4.8 3.26 9.1477e-41
2.93 4.8 3.34 9.1477e-41
2.96 4.8 3.36 9.1477e-41
2.98 4.8 3.36 9.1477e-41
3 4.8 3.35 9.1477e-41
3.03 4.8 3.36 9.1477e-41
3.06 4.8 3.36 9.1477e-41
3.08 4.8 3.36 9.1477e-41
3.11 4.8 3.37 9.1477e-41
3.13 4.8 3.37 9.1477e-41
3.15 4.8 3.36 9.1477e-41
3.18 4.8 3.37 9.1477e-41
3.21 4.8 3.37 9.1477e-41
3.23 4.8 3.37 9.1477e-41
3.26 4.8 3.38 9.1477e-41
3.28 4.8 3.38 9.1477e-41
3.3 4.8 3.39 9.1477e-41
3.33 4.8 3.39 9.1477e-41
3.34 4.8 3.35 9.1477e-41
3.35 4.8 3.32 9.1477e-41
3.37 4.8 3.3 9.1477e-41
3.39 4.8 3.31 9.1477e-41
3.41 4.8 3.31 9.1477e-41
3.43 4.8 3.3 9.1477e-41
3.46 4.8 3.31 9.1477e-41
3.48 4.8 3.31 9.1477e-41
3.5 4.8 3.32 9.1477e-41
3.53 4.8 3.32 9.1477e-41
3.55 4.8 3.32 9.1477e-41
3.57 4.8 3.31 9.1477e-41
3.59 4.8 3.33 9.1477e-41
3.61 4.8 3.31 9.1477e-41
3.64 4.8 3.32 9.1477e-41
3.66 4.8 3.33 9.1477e-41
3.68 4.8 3.32 9.1477e-41
3.7 4.8 3.33 9.1477e-41
3.72 4.8 3.33 9.1477e-41
3.74 4.8 3.32 9.1477e-41
3.76 4.8 3.33 9.1477e-41
3.78 4.8 3.33 9.1477e-41
3.8 4.8 3.32 9.1477e-41
3.83 4.8 3.32 9.1477e-41
3.85 4.8 3.33 9.1477e-41
3.87 4.8 3.34 9.1477e-41
3.89 4.8 3.32 9.1477e-41
3.91 4.8 3.33 9.1477e-41
3.93 4.8 3.33 9.1477e-41
3.95 4.8 3.33 9.1477e-41
3.97 4.8 3.33 9.1477e-41
3.99 4.8 3.34 9.1477e-41
4.01 4.8 3.33 9.1477e-41
4.03 4.8 3.33 9.1477e-41
4.05 4.8 3.33 9.1477e-41
4.07 4.8 3.32 9.1477e-41
4.09 4.8 3.33 9.1477e-41
4.12 4.8 0.49 9.1477e-41
4.14 4.8 3.32 9.1477e-41
4.16 4.8 3.32 9.1477e-41
4.18 4.8 3.32 9.1477e-41
4.2 4.8 3.32 9.1477e-41
4.22 4.8 3.33 9.1477e-41
4.24 4.8 3.32 9.1477e-41
4.26 4.8 3.31 9.1477e-41
4.28 4.8 3.3 9.1477e-41
4.3 4.8 3.31 9.1477e-41
4.32 4.8 3.31 9.1477e-41
4.35 4.8 3.3 9.1477e-41
4.37 4.8 3.31 9.1477e-41
4.39 4.8 3.3 9.1477e-41
4.41 4.8 3.3 9.1477e-41
4.43 4.8 3.3 9.1477e-41
4.45 4.8 3.3 9.1477e-41
4.48 4.8 3.28 9.1477e-41
4.49 4.8 3.3 9.1477e-41
4.52 4.8 3.3 9.1477e-41
4.53 4.8 3.36 9.1477e-41
4.54 4.8 3.39 9.1477e-41
4.56 4.8 3.38 9.1477e-41
4.59 4.8 3.38 9.1477e-41
4.61 4.8 3.37 9.1477e-41
4.63 4.8 3.37 9.1477e-41
4.65 4.8 3.36 9.1477e-41
4.68 4.8 3.37 9.1477e-41
4.7 4.8 3.36 9.1477e-41
4.72 4.8 3.36 9.1477e-41
4.74 4.8 3.35 9.1477e-41
4.77 4.8 3.35 9.1477e-41
4.79 4.8 3.35 9.1477e-41
4.81 4.8 3.35 9.1477e-41
4.84 4.8 3.34 9.1477e-41
4.87 4.8 3.33 9.1477e-41
4.89 4.8 3.33 9.1477e-41
4.92 4.8 3.32 9.1477e-41
4.96 4.8 3.26 9.1477e-41
5.01 4.8 3.2 9.1477e-41
2.81 5.04 3.22 9.1477e-41
2.85 5.04 3.24 9.1477e-41
2.9 5.04 3.29 9.1477e-41
2.93 5.04 3.3 9.1477e-41
2.97 5.04 3.32 9.1477e-41
2.99 5.04 3.31 9.1477e-41
3.02 5.04 3.33 9.1477e-41
3.05 5.04 3.33 9.1477e-41
3.07 5.04 3.33 9.1477e-41
3.09 5.04 3.33 9.1477e-41
3.12 5.04 3.33 9.1477e-41
3.15 5.04 3.34 9.1477e-41
3.17 5.04 3.34 9.1477e-41
3.2 5.04 3.34 9.1477e-41
3.22 5.04 3.34 9.1477e-41
3.24 5.04 3.34 9.1477e-41
3.27 5.04 3.35 9.1477e-41
3.29 5.04 3.34 9.1477e-41
3.32 5.04 3.36 9.1477e-41
3.34 5.04 3.35 9.1477e-41
3.35 5.04 3.31 9.1477e-41
3.37 5.04 3.3 9.1477e-41
3.39 5.04 3.3 9.1477e-41
3.41 5.04 3.31 9.1477e-41
3.44 5.04 3.31 9.1477e-41
3.46 5.04 3.31 9.1477e-41
3.48 5.04 3.31 9.1477e-41
3.5 5.04 3.32 9.1477e-41
3.53 5.04 3.31 9.1477e-41
3.55 5.04 3.32 9.1477e-41
3.57 5.04 3.32 9.1477e-41
3.59 5.04 3.32 9.1477e-41
