# .PCD v.7 - Point Cloud Data file format
VERSION .7
FIELDS x y z rgb
SIZE 4 4 4 4
TYPE F F F F
WIDTH 348
HEIGHT 1
POINTS 348
DATA ascii
4.46 0 1.85 3.57e-43
4.5 0 1.5 9.1477e-41
4.54 0 1.47 9.1477e-41
4.58 0 1.43 9.1477e-41
4.62 0 1.41 9.1477e-41
4.66 0 1.41 3.57e-43
4.75 0 1.29 9.1477e-41
4.8 0 1.25 9.1477e-41
2.65 0.18 2.72 9.1477e-41
2.8 0.18 2.72 3.57e-43
1.82 0.18 2.72 3.57e-43
1.87 0.18 2.72 3.57e-43
1.93 0.18 2.72 3.57e-43
1.99 0.18 2.72 3.57e-43
2.02 0.18 2.72 3.57e-43
2.74 0.18 1.85 9.1477e-41
2.57 0.18 1.85 3.57e-43
2.63 0.18 1.85 3.57e-43
2.69 0.18 1.85 3.57e-43
2.74 0.18 1.85 3.57e-43
2.79 0.18 1.85 3.57e-43
2.84 0.18 1.85 3.57e-43
2.89 0.18 1.85 3.57e-43
2.94 0.18 1.85 3.57e-43
2.98 0.18 1.85 3.57e-43
3.03 0.18 1.85 3.57e-43
3.09 0.18 1.85 3.57e-43
3.14 0.18 1.85 3.57e-43
3.19 0.18 1.85 3.57e-43
3.24 0.18 1.85 3.57e-43
3.29 0.18 1.85 3.57e-43
3.34 0.18 1.85 3.57e-43
3.39 0.18 1.85 3.57e-43
3.44 0.18 1.85 3.57e-43
3.5 0.18 1.85 3.57e-43
3.54 0.18 1.85 3.57e-43
3.66 0.18 1.85 3.57e-43
3.74 0.18 1.85 3.57e-43
3.79 0.18 1.85 3.57e-43
3.84 0.18 1.85 3.57e-43
3.9 0.18 1.85 3.57e-43
3.94 0.18 1.85 3.57e-43
3.99 0.18 1.85 3.57e-43
4.04 0.18 1.85 3.57e-43
4.09 0.18 1.85 3.57e-43
4.2 0.18 1.85 3.57e-43
4.25 0.18 1.85 3.57e-43
4.29 0.18 1.85 3.57e-43
4.34 0.18 1.85 3.57e-43
4.39 0.18 1.85 3.57e-43
4.44 0.18 1.85 3.57e-43
4.38 0.18 1.85 3.57e-43
4.54 0.18 1.85 3.57e-43
4.46 0.18 1.85 3.57e-43
4.5 0.18 1.85 3.57e-43
4.54 0.18 1.85 3.57e-43
4.58 0.18 1.85 3.57e-43
4.62 0.18 1.85 3.57e-43
4.66 0.18 1.85 3.57e-43
4.9 0.18 1.85 3.57e-43
4.75 0.18 1.85 3.57e-43
4.8 0.18 1.85 3.57e-43
5.06 0.18 1.85 3.57e-43
5.1 0.18 1.85 3.57e-43
5.16 0.18 1.85 3.57e-43
5.21 0.18 1.85 3.57e-43
5.26 0.18 1.85 3.57e-43
4.98 0.18 1.85 3.57e-43
5.38 0.18 1.85 3.57e-43
5.42 0.18 1.85 3.57e-43
5.47 0.18 1.85 3.57e-43
4.99 0.18 2.25 9.1477e-41
5.04 0.18 2.25 3.57e-43
5.07 0.18 2.73 9.1477e-41
5.08 0.18 2.78 9.1477e-41
2.86 0.36 3.15 9.1477e-41
2.9 0.36 3.18 9.1477e-41
2.94 0.36 3.21 9.1477e-41
2.98 0.36 3.25 9.1477e-41
3.01 0.36 3.25 9.1477e-41
3.04 0.36 3.26 9.1477e-41
3.07 0.36 3.27 9.1477e-41
3.1 0.36 3.28 9.1477e-41
3.12 0.36 3.28 9.1477e-41
3.15 0.36 3.28 9.1477e-41
3.18 0.36 3.3 9.1477e-41
3.2 0.36 3.3 9.1477e-41
3.23 0.36 3.31 9.1477e-41
3.25 0.36 3.31 9.1477e-41
3.27 0.36 3.3 9.1477e-41
3.3 0.36 3.31 9.1477e-41
3.33 0.36 3.32 9.1477e-41
3.35 0.36 3.32 9.1477e-41
3.37 0.36 3.32 9.1477e-41
3.4 0.36 3.33 9.1477e-41
3.42 0.36 3.33 9.1477e-41
3.44 0.36 3.33 9.1477e-41
3.47 0.36 3.34 9.1477e-41
3.49 0.36 3.33 9.1477e-41
3.51 0.36 3.34 9.1477e-41
3.53 0.36 3.34 9.1477e-41
3.55 0.36 3.34 9.1477e-41
3.58 0.36 3.34 9.1477e-41
3.6 0.36 3.35 9.1477e-41
3.62 0.36 3.33 9.1477e-41
3.64 0.36 3.34 9.1477e-41
3.66 0.36 3.34 9.1477e-41
3.68 0.36 3.34 9.1477e-41
3.7 0.36 3.35 9.1477e-41
3.72 0.36 3.34 9.1477e-41
3.74 0.36 3.34 9.1477e-41
3.77 0.36 3.35 9.1477e-41
3.79 0.36 3.35 9.1477e-41
3.81 0.36 3.34 9.1477e-41
3.83 0.36 3.34 9.1477e-41
3.85 0.36 3.34 9.1477e-41
3.87 0.36 3.34 9.1477e-41
3.89 0.36 3.34 9.1477e-41
3.91 0.36 3.34 9.1477e-41
3.93 0.36 3.33 9.1477e-41
3.95 0.36 3.34 9.1477e-41
3.97 0.36 3.33 9.1477e-41
3.99 0.36 3.33 9.1477e-41
4.01 0.36 3.34 9.1477e-41
4.03 0.36 3.33 9.1477e-41
4.05 0.36 3.33 9.1477e-41
4.07 0.36 3.33 9.1477e-41
4.09 0.36 3.33 9.1477e-41
4.12 0.36 0.48 9.1477e-41
4.14 0.36 3.33 9.1477e-41
4.16 0.36 3.32 9.1477e-41
4.18 0.36 3.32 9.1477e-41
4.2 0.36 3.32 9.1477e-41
4.22 0.36 3.31 9.1477e-41
4.24 0.36 3.31 9.1477e-41
4.26 0.36 3.3 9.1477e-41
4.28 0.36 3.3 9.1477e-41
4.3 0.36 3.3 9.1477e-41
4.32 0.36 3.31 9.1477e-41
4.35 0.36 3.29 9.1477e-41
4.37 0.36 3.3 9.1477e-41
4.39 0.36 3.28 9.1477e-41
4.41 0.36 3.29 9.1477e-41
4.43 0.36 3.27 9.1477e-41
4.46 0.36 3.27 9.1477e-41
4.48 0.36 3.28 9.1477e-41
4.5 0.36 3.26 9.1477e-41
4.52 0.36 3.25 9.1477e-41
4.55 0.36 3.25 9.1477e-41
4.57 0.36 3.24 9.1477e-41
4.59 0.36 3.25 9.1477e-41
4.62 0.36 3.22 9.1477e-41
4.64 0.36 3.21 9.1477e-41
4.67 0.36 3.22 9.1477e-41
4.69 0.36 3.21 9.1477e-41
4.72 0.36 3.19 9.1477e-41
4.74 0.36 3.19 9.1477e-41
4.78 0.36 3.16 9.1477e-41
4.8 0.36 3.16 3.57e-43
5.76 0.36 3.16 3.57e-43
2.83 0.54 3.26 9.1477e-41
2.87 0.54 3.28 9.1477e-41
2.89 0.54 3.28 9.1477e-41
2.92 0.54 3.28 9.1477e-41
2.95 0.54 3.28 9.1477e-41
2.98 0.54 3.28 9.1477e-41
3 0.54 3.29 9.1477e-41
3.03 0.54 3.3 9.1477e-41
3.06 0.54 3.3 9.1477e-41
3.09 0.54 3.31 9.1477e-41
3.11 0.54 3.31 9.1477e-41
3.14 0.54 3.31 9.1477e-41
3.16 0.54 3.31 9.1477e-41
3.19 0.54 3.32 9.1477e-41
3.21 0.54 3.32 9.1477e-41
3.24 0.54 3.33 9.1477e-41
3.26 0.54 3.33 9.1477e-41
3.28 0.54 3.33 9.1477e-41
3.31 0.54 3.33 9.1477e-41
3.33 0.54 3.34 9.1477e-41
3.35 0.54 3.33 9.1477e-41
3.38 0.54 3.34 9.1477e-41
3.4 0.54 3.35 9.1477e-41
3.42 0.54 3.34 9.1477e-41
3.45 0.54 3.34 9.1477e-41
3.47 0.54 3.35 9.1477e-41
3.49 0.54 3.34 9.1477e-41
3.51 0.54 3.36 9.1477e-41
3.53 0.54 3.35 9.1477e-41
3.55 0.54 3.34 9.1477e-41
3.58 0.54 3.35 9.1477e-41
3.6 0.54 3.35 9.1477e-41
3.62 0.54 3.35 9.1477e-41
3.64 0.54 3.36 9.1477e-41
3.66 0.54 3.35 9.1477e-41
3.69 0.54 3.36 9.1477e-41
3.7 0.54 3.35 9.1477e-41
3.72 0.54 3.34 9.1477e-41
3.75 0.54 3.35 9.1477e-41
3.77 0.54 3.36 9.1477e-41
3.79 0.54 3.36 9.1477e-41
3.81 0.54 3.35 9.1477e-41
3.83 0.54 3.35 9.1477e-41
3.85 0.54 3.36 9.1477e-41
3.87 0.54 3.39 9.1477e-41
3.89 0.54 3.39 9.1477e-41
3.91 0.54 3.35 9.1477e-41
3.93 0.54 3.35 9.1477e-41
3.95 0.54 3.35 9.1477e-41
3.97 0.54 3.35 9.1477e-41
3.99 0.54 3.35 9.1477e-41
4.01 0.54 3.35 9.1477e-41
4.03 0.54 3.35 9.1477e-41
4.05 0.54 3.34 9.1477e-41
4.07 0.54 3.35 9.1477e-41
4.09 0.54 3.35 9.1477e-41
4.12 0.54 0.51 9.1477e-41
4.14 0.54 3.34 9.1477e-41
4.16 0.54 3.34 9.1477e-41
4.18 0.54 3.33 9.1477e-41
4.2 0.54 3.33 9.1477e-41
4.22 0.54 3.33 9.1477e-41
4.24 0.54 3.33 9.1477e-41
4.26 0.54 3.33 9.1477e-41
4.28 0.54 3.32 9.1477e-41
4.3 0.54 3.32 9.1477e-41
4.32 0.54 3.32 9.1477e-41
4.34 0.54 3.32 9.1477e-41
4.36 0.54 3.32 9.1477e-41
4.39 0.54 3.31 9.1477e-41
4.41 0.54 3.31 9.1477e-41
4.43 0.54 3.31 9.1477e-41
4.45 0.54 3.31 9.1477e-41
4.47 0.54 3.3 9.1477e-41
4.49 0.54 3.3 9.1477e-41
4.52 0.54 3.29 9.1477e-41
4.54 0.54 3.3 9.1477e-41
4.56 0.54 3.29 9.1477e-41
4.58 0.54 3.29 9.1477e-41
4.61 0.54 3.27 9.1477e-41
4.63 0.54 3.27 9.1477e-41
4.65 0.54 3.27 9.1477e-41
4.67 0.54 3.28 9.1477e-41
4.7 0.54 3.28 9.1477e-41
4.72 0.54 3.26 9.1477e-41
4.75 0.54 3.26 9.1477e-41
4.77 0.54 3.26 9.1477e-41
4.8 0.54 3.25 9.1477e-41
4.82 0.54 3.25 9.1477e-41
4.85 0.54 3.25 9.1477e-41
4.87 0.54 3.23 9.1477e-41
4.9 0.54 3.22 9.1477e-41
4.93 0.54 3.22 9.1477e-41
4.95 0.54 3.21 9.1477e-41
2.84 0.72 3.27 9.1477e-41
2.86 0.72 3.26 9.1477e-41
2.89 0.72 3.28 9.1477e-41
2.92 0.72 3.28 9.1477e-41
2.95 0.72 3.28 9.1477e-41
2.98 0.72 3.28 9.1477e-41
3 0.72 3.28 9.1477e-41
3.03 0.72 3.29 9.1477e-41
3.06 0.72 3.3 9.1477e-41
3.09 0.72 3.31 9.1477e-41
3.11 0.72 3.3 9.1477e-41
3.14 0.72 3.31 9.1477e-41
3.16 0.72 3.31 9.1477e-41
3.18 0.72 3.31 9.1477e-41
3.21 0.72 3.32 9.1477e-41
3.24 0.72 3.34 9.1477e-41
3.26 0.72 3.33 9.1477e-41
3.29 0.72 3.34 9.1477e-41
3.31 0.72 3.33 9.1477e-41
3.33 0.72 3.33 9.1477e-41
3.36 0.72 3.34 9.1477e-41
3.38 0.72 3.34 9.1477e-41
3.4 0.72 3.35 9.1477e-41
3.42 0.72 3.33 9.1477e-41
3.45 0.72 3.34 9.1477e-41
3.47 0.72 3.35 9.1477e-41
3.49 0.72 3.35 9.1477e-41
3.51 0.72 3.36 9.1477e-41
3.53 0.72 3.35 9.1477e-41
3.56 0.72 3.35 9.1477e-41
3.58 0.72 3.35 9.1477e-41
3.6 0.72 3.36 9.1477e-41
3.62 0.72 3.35 9.1477e-41
3.64 0.72 3.36 9.1477e-41
3.66 0.72 3.35 9.1477e-41
3.69 0.72 3.36 9.1477e-41
3.71 0.72 3.36 9.1477e-41
3.73 0.72 3.35 9.1477e-41
3.75 0.72 3.36 9.1477e-41
3.77 0.72 3.36 9.1477e-41
3.79 0.72 3.36 9.1477e-41
3.81 0.72 3.35 9.1477e-41
3.83 0.72 3.35 9.1477e-41
3.85 0.72 3.36 9.1477e-41
3.87 0.72 3.36 9.1477e-41
3.89 0.72 3.35 9.1477e-41
3.91 0.72 3.35 9.1477e-41
3.93 0.72 3.35 9.1477e-41
3.95 0.72 3.35 9.1477e-41
3.97 0.72 3.35 9.1477e-41
3.99 0.72 3.35 9.1477e-41
4.01 0.72 3.35 9.1477e-41
4.03 0.72 3.35 9.1477e-41
4.05 0.72 3.35 9.1477e-41
4.07 0.72 3.35 9.1477e-41
4.09 0.72 3.34 9.1477e-41
4.12 0.72 0.51 9.1477e-41
4.14 0.72 3.34 9.1477e-41
4.16 0.72 3.34 9.1477e-41
4.18 0.72 3.34 9.1477e-41
4.2 0.72 3.33 9.1477e-41
4.22 0.72 3.34 9.1477e-41
4.24 0.72 3.33 9.1477e-41
4.26 0.72 3.33 9.1477e-41
4.28 0.72 3.32 9.1477e-41
4.3 0.72 3.32 9.1477e-41
4.32 0.72 3.32 9.1477e-41
4.34 0.72 3.32 9.1477e-41
4.36 0.72 3.32 9.1477e-41
4.39 0.72 3.3 9.1477e-41
4.41 0.72 3.32 9.1477e-41
4.43 0.72 3.31 9.1477e-41
4.45 0.72 3.3 9.1477e-41
4.47 0.72 3.3 9.1477e-41
4.5 0.72 3.29 9.1477e-41
4.52 0.72 3.29 9.1477e-41
4.54 0.72 3.29 9.1477e-41
4.56 0.72 3.29 9.1477e-41
4.58 0.72 3.28 9.1477e-41
4.61 0.72 3.28 9.1477e-41
4.63 0.72 3.27 9.1477e-41
4.65 0.72 3.27 9.1477e-41
4.68 0.72 3.27 9.1477e-41
4.7 0.72 3.26 9.1477e-41
4.72 0.72 3.26 9.1477e-41
4.75 0.72 3.26 9.1477e-41
4.77 0.72 3.27 9.1477e-41
4.8 0.72 3.26 9.1477e-41
4.82 0.72 3.26 9.1477e-41
4.85 0.72 3.25 9.1477e-41
4.87 0.72 3.24 9.1477e-41
4.9 0.72 3.23 9.1477e-41
4.93 0.72 3.22 9.1477e-41
4.95 0.72 3.22 9.1477e-41
