# .PCD v.7 - Point Cloud Data file format
VERSION .7
FIELDS x y z rgb
SIZE 4 4 4 4
TYPE F F F F
WIDTH 1898
HEIGHT 1
POINTS 1898
DATA ascii
3.19 0.48 1.02 9.1477e-41
3.23 0.48 1.01 9.1477e-41
3.28 0.48 1.03 9.1477e-41
3.31 0.48 1.01 9.1477e-41
3.36 0.48 1.03 9.1477e-41
3.4 0.48 1.03 9.1477e-41
3.44 0.48 1.03 9.1477e-41
3.48 0.48 1.03 9.1477e-41
3.52 0.48 1.03 9.1477e-41
3.57 0.48 1.03 9.1477e-41
3.61 0.48 1.03 9.1477e-41
3.65 0.48 1.03 9.1477e-41
3.69 0.48 1.03 9.1477e-41
3.73 0.48 1.03 9.1477e-41
3.77 0.48 1.04 9.1477e-41
3.81 0.48 1.02 9.1477e-41
3.85 0.48 1.02 9.1477e-41
3.89 0.48 1.02 9.1477e-41
3.93 0.48 1.02 9.1477e-41
3.97 0.48 1.01 9.1477e-41
4.01 0.48 1.01 9.1477e-41
4.05 0.48 1.01 9.1477e-41
4.09 0.48 1.02 9.1477e-41
4.18 0.48 1 9.1477e-41
4.22 0.48 1 9.1477e-41
4.26 0.48 1 9.1477e-41
4.3 0.48 0.98 9.1477e-41
4.34 0.48 0.98 9.1477e-41
4.38 0.48 0.98 9.1477e-41
4.42 0.48 0.98 9.1477e-41
4.47 0.48 0.98 3.57e-43
4.53 0.48 0.74 9.1477e-41
4.57 0.48 0.8 9.1477e-41
4.62 0.48 0.73 9.1477e-41
3.04 0.51 0.92 9.1477e-41
3.1 0.51 0.99 9.1477e-41
3.15 0.51 1.02 9.1477e-41
3.19 0.51 1.02 9.1477e-41
3.23 0.51 1.02 9.1477e-41
3.28 0.51 1.03 9.1477e-41
3.32 0.51 1.03 9.1477e-41
3.36 0.51 1.02 9.1477e-41
3.4 0.51 1.04 9.1477e-41
3.44 0.51 1.04 9.1477e-41
3.48 0.51 1.04 9.1477e-41
3.53 0.51 1.05 9.1477e-41
3.57 0.51 1.04 9.1477e-41
3.61 0.51 1.04 9.1477e-41
3.65 0.51 1.04 9.1477e-41
3.69 0.51 1.03 9.1477e-41
3.73 0.51 1.05 9.1477e-41
3.77 0.51 1.04 9.1477e-41
3.81 0.51 1.04 9.1477e-41
3.85 0.51 1.03 9.1477e-41
3.89 0.51 1.02 9.1477e-41
3.93 0.51 1.04 9.1477e-41
3.97 0.51 1.03 9.1477e-41
4.01 0.51 1.03 9.1477e-41
4.05 0.51 1.02 9.1477e-41
4.09 0.51 1.02 9.1477e-41
4.18 0.51 1.02 9.1477e-41
4.22 0.51 1.01 9.1477e-41
4.26 0.51 1.01 9.1477e-41
4.3 0.51 1 9.1477e-41
4.34 0.51 1 9.1477e-41
4.38 0.51 0.99 9.1477e-41
4.42 0.51 0.98 9.1477e-41
4.47 0.51 0.96 9.1477e-41
4.51 0.51 0.98 9.1477e-41
4.55 0.51 0.94 9.1477e-41
4.6 0.51 0.84 9.1477e-41
3.06 0.54 0.99 9.1477e-41
3.11 0.54 1.04 9.1477e-41
3.15 0.54 1.03 9.1477e-41
3.19 0.54 1.04 9.1477e-41
3.23 0.54 1.03 9.1477e-41
3.28 0.54 1.04 9.1477e-41
3.32 0.54 1.04 9.1477e-41
3.36 0.54 1.04 9.1477e-41
3.4 0.54 1.05 9.1477e-41
3.44 0.54 1.04 9.1477e-41
3.49 0.54 1.05 9.1477e-41
3.53 0.54 1.05 9.1477e-41
3.57 0.54 1.05 9.1477e-41
3.61 0.54 1.05 9.1477e-41
3.65 0.54 1.04 9.1477e-41
3.69 0.54 1.06 9.1477e-41
3.73 0.54 1.05 9.1477e-41
3.77 0.54 1.06 9.1477e-41
3.81 0.54 1.04 9.1477e-41
3.85 0.54 1.04 9.1477e-41
3.89 0.54 1.04 9.1477e-41
3.93 0.54 1.05 9.1477e-41
3.97 0.54 1.04 9.1477e-41
4.01 0.54 1.04 9.1477e-41
4.05 0.54 1.04 9.1477e-41
4.09 0.54 1.03 9.1477e-41
4.18 0.54 1.03 9.1477e-41
4.22 0.54 1.02 9.1477e-41
4.26 0.54 1.01 9.1477e-41
4.3 0.54 1.01 9.1477e-41
4.34 0.54 1.01 9.1477e-41
4.38 0.54 1 9.1477e-41
4.42 0.54 1 9.1477e-41
4.46 0.54 0.99 9.1477e-41
4.51 0.54 0.98 9.1477e-41
4.55 0.54 0.97 9.1477e-41
4.6 0.54 0.89 9.1477e-41
3.06 0.57 1.02 9.1477e-41
3.11 0.57 1.05 9.1477e-41
3.15 0.57 1.04 9.1477e-41
3.19 0.57 1.04 9.1477e-41
3.24 0.57 1.05 9.1477e-41
3.28 0.57 1.06 9.1477e-41
3.32 0.57 1.05 9.1477e-41
3.36 0.57 1.05 9.1477e-41
3.4 0.57 1.06 9.1477e-41
3.45 0.57 1.05 9.1477e-41
3.49 0.57 1.05 9.1477e-41
3.53 0.57 1.05 9.1477e-41
3.57 0.57 1.06 9.1477e-41
3.61 0.57 1.05 9.1477e-41
3.65 0.57 1.06 9.1477e-41
3.69 0.57 1.06 9.1477e-41
3.73 0.57 1.05 9.1477e-41
3.77 0.57 1.06 9.1477e-41
3.81 0.57 1.06 9.1477e-41
3.85 0.57 1.05 9.1477e-41
3.89 0.57 1.06 9.1477e-41
3.93 0.57 1.05 9.1477e-41
3.97 0.57 1.05 9.1477e-41
4.01 0.57 1.05 9.1477e-41
4.05 0.57 1.05 9.1477e-41
4.09 0.57 1.04 9.1477e-41
4.18 0.57 1.04 9.1477e-41
4.22 0.57 1.03 9.1477e-41
4.26 0.57 1.03 9.1477e-41
4.3 0.57 1.01 9.1477e-41
4.34 0.57 1.02 9.1477e-41
4.38 0.57 1.01 9.1477e-41
4.42 0.57 1 9.1477e-41
4.46 0.57 0.99 9.1477e-41
4.51 0.57 0.99 9.1477e-41
4.55 0.57 1 9.1477e-41
4.6 0.57 0.92 9.1477e-41
4.65 0.57 0.81 9.1477e-41
2.98 0.6 0.86 9.1477e-41
3.06 0.6 1.03 9.1477e-41
3.11 0.6 1.05 9.1477e-41
3.15 0.6 1.05 9.1477e-41
3.2 0.6 1.06 9.1477e-41
3.24 0.6 1.06 9.1477e-41
3.28 0.6 1.07 9.1477e-41
3.32 0.6 1.06 9.1477e-41
3.37 0.6 1.07 9.1477e-41
3.4 0.6 1.06 9.1477e-41
3.45 0.6 1.06 9.1477e-41
3.49 0.6 1.06 9.1477e-41
3.53 0.6 1.06 9.1477e-41
3.57 0.6 1.07 9.1477e-41
3.61 0.6 1.07 9.1477e-41
3.65 0.6 1.08 9.1477e-41
3.69 0.6 1.07 9.1477e-41
3.73 0.6 1.07 9.1477e-41
3.77 0.6 1.07 9.1477e-41
3.81 0.6 1.05 9.1477e-41
3.85 0.6 1.06 9.1477e-41
3.89 0.6 1.06 9.1477e-41
3.93 0.6 1.06 9.1477e-41
3.97 0.6 1.06 9.1477e-41
4.01 0.6 1.06 9.1477e-41
4.05 0.6 1.06 9.1477e-41
4.09 0.6 1.06 9.1477e-41
4.18 0.6 1.04 9.1477e-41
4.22 0.6 1.05 9.1477e-41
4.26 0.6 1.03 9.1477e-41
4.3 0.6 1.03 9.1477e-41
4.34 0.6 1.03 9.1477e-41
4.38 0.6 1.03 9.1477e-41
4.42 0.6 1.02 9.1477e-41
4.46 0.6 1 9.1477e-41
4.5 0.6 1.02 9.1477e-41
4.55 0.6 1.01 9.1477e-41
4.59 0.6 0.99 9.1477e-41
4.64 0.6 0.89 9.1477e-41
3 0.63 0.93 9.1477e-41
3.07 0.63 1.05 9.1477e-41
3.12 0.63 1.07 9.1477e-41
3.16 0.63 1.07 9.1477e-41
3.2 0.63 1.07 9.1477e-41
3.24 0.63 1.07 9.1477e-41
3.28 0.63 1.08 9.1477e-41
3.33 0.63 1.08 9.1477e-41
3.37 0.63 1.07 9.1477e-41
3.41 0.63 1.08 9.1477e-41
3.45 0.63 1.08 9.1477e-41
3.49 0.63 1.08 9.1477e-41
3.53 0.63 1.08 9.1477e-41
3.57 0.63 1.08 9.1477e-41
3.61 0.63 1.07 9.1477e-41
3.65 0.63 1.08 9.1477e-41
3.69 0.63 1.09 9.1477e-41
3.73 0.63 1.08 9.1477e-41
3.77 0.63 1.08 9.1477e-41
3.81 0.63 1.07 9.1477e-41
3.85 0.63 1.07 9.1477e-41
3.89 0.63 1.07 9.1477e-41
3.93 0.63 1.07 9.1477e-41
3.97 0.63 1.07 9.1477e-41
4.01 0.63 1.07 9.1477e-41
4.05 0.63 1.07 9.1477e-41
4.09 0.63 1.06 9.1477e-41
4.18 0.63 1.06 9.1477e-41
4.22 0.63 1.05 9.1477e-41
4.26 0.63 1.05 9.1477e-41
4.3 0.63 1.04 9.1477e-41
4.34 0.63 1.04 9.1477e-41
4.38 0.63 1.03 9.1477e-41
4.42 0.63 1.02 9.1477e-41
4.46 0.63 1.02 9.1477e-41
4.5 0.63 1.02 9.1477e-41
4.54 0.63 1.02 9.1477e-41
4.59 0.63 0.99 9.1477e-41
4.64 0.63 0.92 9.1477e-41
3.01 0.66 0.98 9.1477e-41
3.07 0.66 1.06 9.1477e-41
3.12 0.66 1.07 9.1477e-41
3.16 0.66 1.08 9.1477e-41
3.2 0.66 1.08 9.1477e-41
3.24 0.66 1.08 9.1477e-41
3.28 0.66 1.08 9.1477e-41
3.33 0.66 1.09 9.1477e-41
3.37 0.66 1.09 9.1477e-41
3.41 0.66 1.09 9.1477e-41
3.45 0.66 1.09 9.1477e-41
3.49 0.66 1.08 9.1477e-41
3.53 0.66 1.08 9.1477e-41
3.57 0.66 1.09 9.1477e-41
3.61 0.66 1.09 9.1477e-41
3.65 0.66 1.09 9.1477e-41
3.69 0.66 1.08 9.1477e-41
3.73 0.66 1.09 9.1477e-41
3.77 0.66 1.09 9.1477e-41
3.81 0.66 1.08 9.1477e-41
3.85 0.66 1.09 9.1477e-41
3.89 0.66 1.08 9.1477e-41
3.93 0.66 1.08 9.1477e-41
3.97 0.66 1.09 9.1477e-41
4.01 0.66 1.08 9.1477e-41
4.05 0.66 1.08 9.1477e-41
4.09 0.66 1.08 9.1477e-41
4.18 0.66 1.07 9.1477e-41
4.22 0.66 1.06 9.1477e-41
4.26 0.66 1.05 9.1477e-41
4.3 0.66 1.05 9.1477e-41
4.34 0.66 1.05 9.1477e-41
4.38 0.66 1.04 9.1477e-41
4.42 0.66 1.04 9.1477e-41
4.46 0.66 1.03 9.1477e-41
4.5 0.66 1.03 9.1477e-41
4.54 0.66 1.03 9.1477e-41
4.59 0.66 1.02 9.1477e-41
4.64 0.66 0.94 9.1477e-41
3.02 0.69 1.01 9.1477e-41
3.08 0.69 1.08 9.1477e-41
3.12 0.69 1.09 9.1477e-41
3.16 0.69 1.09 9.1477e-41
3.2 0.69 1.09 9.1477e-41
3.25 0.69 1.09 9.1477e-41
3.29 0.69 1.09 9.1477e-41
3.33 0.69 1.09 9.1477e-41
3.37 0.69 1.09 9.1477e-41
3.41 0.69 1.1 9.1477e-41
3.45 0.69 1.1 9.1477e-41
3.49 0.69 1.09 9.1477e-41
3.53 0.69 1.1 9.1477e-41
3.57 0.69 1.1 9.1477e-41
3.61 0.69 1.1 9.1477e-41
3.66 0.69 1.11 9.1477e-41
3.69 0.69 1.1 9.1477e-41
3.73 0.69 1.1 9.1477e-41
3.77 0.69 1.1 9.1477e-41
3.81 0.69 1.09 9.1477e-41
3.85 0.69 1.09 9.1477e-41
3.89 0.69 1.09 9.1477e-41
3.93 0.69 1.09 9.1477e-41
3.97 0.69 1.09 9.1477e-41
4.01 0.69 1.09 9.1477e-41
4.05 0.69 1.07 9.1477e-41
4.09 0.69 1.09 9.1477e-41
4.18 0.69 1.07 9.1477e-41
4.22 0.69 1.07 9.1477e-41
4.26 0.69 1.06 9.1477e-41
4.3 0.69 1.06 9.1477e-41
4.34 0.69 1.06 9.1477e-41
4.38 0.69 1.06 9.1477e-41
4.42 0.69 1.04 9.1477e-41
4.46 0.69 1.05 9.1477e-41
4.5 0.69 1.04 9.1477e-41
4.54 0.69 1.04 9.1477e-41
4.59 0.69 1.02 9.1477e-41
4.63 0.69 0.95 9.1477e-41
3.02 0.72 1.04 9.1477e-41
3.08 0.72 1.09 9.1477e-41
3.12 0.72 1.09 9.1477e-41
3.16 0.72 1.1 9.1477e-41
3.21 0.72 1.1 9.1477e-41
3.25 0.72 1.1 9.1477e-41
3.29 0.72 1.1 9.1477e-41
3.33 0.72 1.11 9.1477e-41
3.37 0.72 1.1 9.1477e-41
3.41 0.72 1.11 9.1477e-41
3.45 0.72 1.11 9.1477e-41
3.49 0.72 1.1 9.1477e-41
3.53 0.72 1.11 9.1477e-41
3.57 0.72 1.1 9.1477e-41
3.61 0.72 1.1 9.1477e-41
3.65 0.72 1.1 9.1477e-41
3.7 0.72 1.11 9.1477e-41
3.73 0.72 1.1 9.1477e-41
3.77 0.72 1.1 9.1477e-41
3.82 0.72 1.11 9.1477e-41
3.86 0.72 1.1 9.1477e-41
3.9 0.72 1.1 9.1477e-41
3.94 0.72 1.11 9.1477e-41
3.98 0.72 1.1 9.1477e-41
4.01 0.72 1.09 9.1477e-41
4.05 0.72 1.09 9.1477e-41
4.09 0.72 1.1 9.1477e-41
4.18 0.72 1.08 9.1477e-41
4.22 0.72 1.08 9.1477e-41
4.26 0.72 1.06 9.1477e-41
4.3 0.72 1.07 9.1477e-41
4.34 0.72 1.06 9.1477e-41
4.38 0.72 1.07 9.1477e-41
4.42 0.72 1.05 9.1477e-41
4.46 0.72 1.05 9.1477e-41
4.5 0.72 1.05 9.1477e-41
4.54 0.72 1.05 9.1477e-41
4.58 0.72 1.03 9.1477e-41
4.63 0.72 0.97 9.1477e-41
3.03 0.75 1.06 9.1477e-41
3.08 0.75 1.1 9.1477e-41
3.12 0.75 1.11 9.1477e-41
3.16 0.75 1.1 9.1477e-41
3.21 0.75 1.11 9.1477e-41
3.25 0.75 1.1 9.1477e-41
3.29 0.75 1.12 9.1477e-41
3.33 0.75 1.12 9.1477e-41
3.37 0.75 1.1 9.1477e-41
3.41 0.75 1.11 9.1477e-41
3.45 0.75 1.12 9.1477e-41
3.49 0.75 1.11 9.1477e-41
3.54 0.75 1.12 9.1477e-41
3.57 0.75 1.1 9.1477e-41
3.61 0.75 1.1 9.1477e-41
3.65 0.75 1.1 9.1477e-41
3.69 0.75 1.1 9.1477e-41
3.74 0.75 1.11 9.1477e-41
3.78 0.75 1.11 9.1477e-41
3.82 0.75 1.1 9.1477e-41
3.86 0.75 1.11 9.1477e-41
3.9 0.75 1.1 9.1477e-41
3.94 0.75 1.11 9.1477e-41
3.98 0.75 1.1 9.1477e-41
4.02 0.75 1.11 9.1477e-41
4.05 0.75 1.09 9.1477e-41
4.09 0.75 1.1 9.1477e-41
4.17 0.75 1.1 9.1477e-41
4.22 0.75 1.09 9.1477e-41
4.26 0.75 1.09 9.1477e-41
4.3 0.75 1.08 9.1477e-41
4.34 0.75 1.08 9.1477e-41
4.38 0.75 1.07 9.1477e-41
4.42 0.75 1.07 9.1477e-41
4.46 0.75 1.06 9.1477e-41
4.5 0.75 1.06 9.1477e-41
4.54 0.75 1.07 9.1477e-41
4.58 0.75 1.04 9.1477e-41
4.63 0.75 1 9.1477e-41
3.03 0.78 1.08 9.1477e-41
3.08 0.78 1.11 9.1477e-41
3.12 0.78 1.11 9.1477e-41
3.17 0.78 1.13 9.1477e-41
3.21 0.78 1.12 9.1477e-41
3.25 0.78 1.1 9.1477e-41
3.29 0.78 1.12 9.1477e-41
3.33 0.78 1.11 9.1477e-41
3.37 0.78 1.1 9.1477e-41
3.41 0.78 1.07 9.1477e-41
3.44 0.78 1.04 9.1477e-41
3.48 0.78 1.04 9.1477e-41
3.53 0.78 1.04 9.1477e-41
3.57 0.78 1.04 9.1477e-41
3.61 0.78 1.03 9.1477e-41
3.65 0.78 1.05 9.1477e-41
3.69 0.78 1.03 9.1477e-41
3.73 0.78 1.03 9.1477e-41
3.77 0.78 1.02 9.1477e-41
3.81 0.78 1.01 9.1477e-41
3.85 0.78 1.03 9.1477e-41
3.89 0.78 1.01 9.1477e-41
3.93 0.78 1.02 9.1477e-41
3.97 0.78 1.03 9.1477e-41
4.01 0.78 1.06 9.1477e-41
4.05 0.78 1.05 9.1477e-41
4.09 0.78 1.08 9.1477e-41
4.18 0.78 1.09 9.1477e-41
4.22 0.78 1.09 9.1477e-41
4.26 0.78 1.08 9.1477e-41
4.3 0.78 1.09 9.1477e-41
4.34 0.78 1.09 9.1477e-41
4.38 0.78 1.08 9.1477e-41
4.42 0.78 1.08 9.1477e-41
4.46 0.78 1.06 9.1477e-41
4.5 0.78 1.07 9.1477e-41
4.54 0.78 1.07 9.1477e-41
4.58 0.78 1.06 9.1477e-41
4.63 0.78 1.02 9.1477e-41
4.69 0.78 0.83 9.1477e-41
3.04 0.81 1.09 9.1477e-41
3.09 0.81 1.13 9.1477e-41
3.13 0.81 1.12 9.1477e-41
3.17 0.81 1.12 9.1477e-41
3.21 0.81 1.11 9.1477e-41
3.24 0.81 1.07 9.1477e-41
3.28 0.81 1.04 9.1477e-41
3.32 0.81 1.03 9.1477e-41
3.36 0.81 1.03 9.1477e-41
3.4 0.81 1.06 9.1477e-41
3.45 0.81 1.05 9.1477e-41
3.49 0.81 1.04 9.1477e-41
3.53 0.81 1.05 9.1477e-41
3.57 0.81 1.05 9.1477e-41
3.61 0.81 1.06 9.1477e-41
3.65 0.81 1.06 9.1477e-41
3.69 0.81 1.05 9.1477e-41
3.73 0.81 1.06 9.1477e-41
3.77 0.81 1.07 9.1477e-41
3.81 0.81 1.07 9.1477e-41
3.85 0.81 1.07 9.1477e-41
3.89 0.81 1.07 9.1477e-41
3.93 0.81 1.06 9.1477e-41
3.97 0.81 1.06 9.1477e-41
4.01 0.81 1.06 9.1477e-41
4.05 0.81 1.04 9.1477e-41
4.09 0.81 1.05 9.1477e-41
4.18 0.81 1.01 9.1477e-41
4.22 0.81 1.02 9.1477e-41
4.26 0.81 1.03 9.1477e-41
4.3 0.81 1.08 9.1477e-41
4.34 0.81 1.09 9.1477e-41
4.38 0.81 1.08 9.1477e-41
4.42 0.81 1.07 9.1477e-41
4.46 0.81 1.07 9.1477e-41
4.5 0.81 1.08 9.1477e-41
4.54 0.81 1.08 9.1477e-41
4.58 0.81 1.07 9.1477e-41
4.63 0.81 1.03 9.1477e-41
3.04 0.84 1.1 9.1477e-41
3.08 0.84 1.12 9.1477e-41
3.13 0.84 1.12 9.1477e-41
3.16 0.84 1.1 9.1477e-41
3.19 0.84 1.04 9.1477e-41
3.24 0.84 1.05 9.1477e-41
3.28 0.84 1.06 9.1477e-41
3.32 0.84 1.06 9.1477e-41
3.36 0.84 1.05 9.1477e-41
3.4 0.84 1.06 9.1477e-41
3.45 0.84 1.06 3.57e-43
3.49 0.84 1.06 3.57e-43
3.53 0.84 1.06 3.57e-43
3.57 0.84 1.06 3.57e-43
3.61 0.84 1.06 3.57e-43
3.65 0.84 1.06 3.57e-43
3.69 0.84 1.06 3.57e-43
3.73 0.84 1.06 3.57e-43
3.77 0.84 1.06 3.57e-43
3.81 0.84 1.06 3.57e-43
3.85 0.84 1.06 3.57e-43
3.89 0.84 1.07 9.1477e-41
3.93 0.84 1.09 9.1477e-41
3.97 0.84 1.09 9.1477e-41
4.01 0.84 1.08 9.1477e-41
4.05 0.84 1.07 9.1477e-41
4.09 0.84 1.06 9.1477e-41
4.18 0.84 1.04 9.1477e-41
4.22 0.84 1.04 9.1477e-41
4.26 0.84 1.03 9.1477e-41
4.3 0.84 1.02 9.1477e-41
4.34 0.84 1.03 9.1477e-41
4.38 0.84 1.05 9.1477e-41
4.42 0.84 1.08 9.1477e-41
4.46 0.84 1.08 9.1477e-41
4.5 0.84 1.1 9.1477e-41
4.54 0.84 1.09 9.1477e-41
4.58 0.84 1.09 9.1477e-41
4.62 0.84 1.05 9.1477e-41
4.69 0.84 0.85 9.1477e-41
3.04 0.87 1.11 9.1477e-41
3.09 0.87 1.14 9.1477e-41
3.12 0.87 1.11 9.1477e-41
3.16 0.87 1.06 9.1477e-41
3.2 0.87 1.05 9.1477e-41
3.23 0.87 1 9.1477e-41
3.26 0.87 1 3.57e-43
3.32 0.87 1 3.57e-43
3.36 0.87 1 3.57e-43
3.4 0.87 1.06 9.1477e-41
3.46 0.87 1.13 9.1477e-41
3.5 0.87 1.12 9.1477e-41
3.54 0.87 1.12 9.1477e-41
3.58 0.87 1.11 9.1477e-41
3.62 0.87 1.11 9.1477e-41
3.66 0.87 1.12 9.1477e-41
3.7 0.87 1.13 9.1477e-41
3.74 0.87 1.12 9.1477e-41
3.78 0.87 1.12 9.1477e-41
3.82 0.87 1.11 9.1477e-41
3.86 0.87 1.1 9.1477e-41
3.9 0.87 1.12 9.1477e-41
3.94 0.87 1.1 9.1477e-41
3.98 0.87 1.11 9.1477e-41
4.02 0.87 1.1 9.1477e-41
4.06 0.87 1.1 9.1477e-41
4.09 0.87 1.09 9.1477e-41
4.18 0.87 1.07 9.1477e-41
4.22 0.87 1.06 9.1477e-41
4.26 0.87 1.03 9.1477e-41
4.3 0.87 1.04 9.1477e-41
4.34 0.87 1.03 9.1477e-41
4.38 0.87 1.03 9.1477e-41
4.42 0.87 1.01 9.1477e-41
4.46 0.87 1.03 9.1477e-41
4.5 0.87 1.09 9.1477e-41
4.54 0.87 1.1 9.1477e-41
4.58 0.87 1.08 9.1477e-41
4.62 0.87 1.06 9.1477e-41
4.69 0.87 0.87 9.1477e-41
3.05 0.9 1.13 9.1477e-41
3.09 0.9 1.14 9.1477e-41
3.13 0.9 1.14 3.57e-43
3.16 0.9 1.14 3.57e-43
3.2 0.9 1.14 3.57e-43
3.23 0.9 1.14 3.57e-43
3.26 0.9 0.97 9.1477e-41
3.34 0.9 1.14 9.1477e-41
3.38 0.9 1.15 9.1477e-41
3.42 0.9 1.15 3.57e-43
3.46 0.9 1.15 3.57e-43
3.5 0.9 1.15 3.57e-43
3.54 0.9 1.15 3.57e-43
3.58 0.9 1.15 3.57e-43
3.62 0.9 1.15 3.57e-43
3.66 0.9 1.15 3.57e-43
3.7 0.9 1.15 3.57e-43
3.74 0.9 1.15 3.57e-43
3.78 0.9 1.15 3.57e-43
3.82 0.9 1.15 3.57e-43
3.86 0.9 1.15 3.57e-43
3.9 0.9 1.15 3.57e-43
3.94 0.9 1.15 3.57e-43
3.98 0.9 1.15 3.57e-43
4.02 0.9 1.15 3.57e-43
4.06 0.9 1.15 3.57e-43
4.09 0.9 1.15 3.57e-43
4.14 0.9 1.15 3.57e-43
4.18 0.9 1.15 3.57e-43
4.22 0.9 1.15 3.57e-43
4.26 0.9 1.15 3.57e-43
4.3 0.9 1.15 3.57e-43
4.34 0.9 1.15 3.57e-43
4.38 0.9 1.03 9.1477e-41
4.42 0.9 1.01 9.1477e-41
4.46 0.9 1.01 9.1477e-41
4.5 0.9 1.04 9.1477e-41
4.54 0.9 1.1 9.1477e-41
4.58 0.9 1.1 9.1477e-41
4.62 0.9 1.07 9.1477e-41
3.05 0.93 1.15 9.1477e-41
3.09 0.93 1.14 9.1477e-41
3.13 0.93 1.14 9.1477e-41
3.18 0.93 1.16 9.1477e-41
3.22 0.93 1.15 9.1477e-41
3.26 0.93 1.15 3.57e-43
3.26 0.93 1.15 3.57e-43
3.34 0.93 1.15 3.57e-43
3.38 0.93 1.15 3.57e-43
3.42 0.93 1.15 3.57e-43
3.46 0.93 1.15 3.57e-43
3.5 0.93 1.15 3.57e-43
3.54 0.93 1.15 3.57e-43
3.58 0.93 1.15 3.57e-43
3.62 0.93 1.15 3.57e-43
3.66 0.93 1.15 3.57e-43
3.7 0.93 1.15 3.57e-43
3.74 0.93 1.15 3.57e-43
3.78 0.93 1.15 3.57e-43
3.82 0.93 1.15 3.57e-43
3.86 0.93 1.15 3.57e-43
3.9 0.93 1.15 3.57e-43
3.94 0.93 1.15 3.57e-43
3.98 0.93 1.15 3.57e-43
4.02 0.93 1.15 3.57e-43
4.06 0.93 1.15 3.57e-43
4.09 0.93 1.15 3.57e-43
4.14 0.93 1.15 3.57e-43
4.18 0.93 1.15 3.57e-43
4.22 0.93 1.15 3.57e-43
4.26 0.93 1.15 3.57e-43
4.3 0.93 1.15 3.57e-43
4.34 0.93 1.15 3.57e-43
4.38 0.93 1.15 3.57e-43
4.42 0.93 1.15 3.57e-43
4.46 0.93 1.01 9.1477e-41
4.5 0.93 1.05 9.1477e-41
4.54 0.93 1.07 9.1477e-41
4.58 0.93 1.11 9.1477e-41
4.62 0.93 1.08 9.1477e-41
3.05 0.96 1.15 9.1477e-41
3.1 0.96 1.16 9.1477e-41
3.13 0.96 1.16 3.57e-43
3.18 0.96 1.16 3.57e-43
3.22 0.96 1.16 3.57e-43
3.26 0.96 1.16 3.57e-43
3.26 0.96 1.16 3.57e-43
3.34 0.96 1.16 3.57e-43
3.38 0.96 1.16 3.57e-43
3.42 0.96 1.16 3.57e-43
3.46 0.96 1.16 3.57e-43
3.5 0.96 1.16 3.57e-43
3.54 0.96 1.16 3.57e-43
3.58 0.96 1.16 3.57e-43
3.62 0.96 1.16 3.57e-43
3.66 0.96 1.16 3.57e-43
3.7 0.96 1.16 3.57e-43
3.74 0.96 1.16 3.57e-43
3.78 0.96 1.16 3.57e-43
3.82 0.96 1.16 3.57e-43
3.86 0.96 1.16 3.57e-43
3.9 0.96 1.16 3.57e-43
3.94 0.96 1.16 3.57e-43
3.98 0.96 1.16 3.57e-43
4.02 0.96 1.16 3.57e-43
4.06 0.96 1.16 3.57e-43
4.09 0.96 1.16 3.57e-43
4.14 0.96 1.16 3.57e-43
4.18 0.96 1.16 3.57e-43
4.22 0.96 1.16 3.57e-43
4.26 0.96 1.16 3.57e-43
4.3 0.96 1.16 3.57e-43
4.34 0.96 1.16 3.57e-43
4.38 0.96 1.16 3.57e-43
4.42 0.96 1.16 3.57e-43
4.46 0.96 1.01 9.1477e-41
4.5 0.96 1.09 9.1477e-41
4.54 0.96 1.09 9.1477e-41
4.57 0.96 1.13 9.1477e-41
4.62 0.96 1.09 9.1477e-41
3.06 0.99 1.2 9.1477e-41
3.1 0.99 1.18 9.1477e-41
3.14 0.99 1.18 3.57e-43
3.18 0.99 1.18 3.57e-43
3.22 0.99 1.18 3.57e-43
3.26 0.99 1.18 3.57e-43
3.26 0.99 1.18 3.57e-43
3.34 0.99 1.18 3.57e-43
3.38 0.99 1.18 3.57e-43
3.42 0.99 1.18 3.57e-43
3.46 0.99 1.18 3.57e-43
3.5 0.99 1.18 3.57e-43
3.54 0.99 1.18 3.57e-43
3.58 0.99 1.18 3.57e-43
3.62 0.99 1.18 3.57e-43
3.66 0.99 1.18 3.57e-43
3.7 0.99 1.18 3.57e-43
3.74 0.99 1.18 3.57e-43
3.78 0.99 1.18 3.57e-43
3.82 0.99 1.18 3.57e-43
3.86 0.99 1.18 3.57e-43
3.9 0.99 1.18 3.57e-43
3.94 0.99 1.18 3.57e-43
3.98 0.99 1.18 3.57e-43
4.02 0.99 1.18 3.57e-43
4.06 0.99 1.18 3.57e-43
4.09 0.99 1.18 3.57e-43
4.14 0.99 1.18 3.57e-43
4.18 0.99 1.18 3.57e-43
4.22 0.99 1.18 3.57e-43
4.26 0.99 1.18 3.57e-43
4.3 0.99 1.18 3.57e-43
4.34 0.99 1.18 3.57e-43
4.38 0.99 1.18 3.57e-43
4.42 0.99 1.18 3.57e-43
4.46 0.99 1.01 9.1477e-41
4.49 0.99 1.13 9.1477e-41
4.53 0.99 1.13 9.1477e-41
4.57 0.99 1.14 9.1477e-41
4.61 0.99 1.12 9.1477e-41
3.07 1.02 1.23 9.1477e-41
3.1 1.02 1.2 9.1477e-41
3.15 1.02 1.2 3.57e-43
3.18 1.02 1.2 3.57e-43
3.22 1.02 1.2 3.57e-43
3.26 1.02 1.2 3.57e-43
3.26 1.02 1.2 3.57e-43
3.34 1.02 1.2 3.57e-43
3.38 1.02 1.2 3.57e-43
3.42 1.02 1.2 3.57e-43
3.46 1.02 1.2 3.57e-43
3.5 1.02 1.2 3.57e-43
3.54 1.02 1.2 3.57e-43
3.58 1.02 1.2 3.57e-43
3.62 1.02 1.2 3.57e-43
3.66 1.02 1.2 3.57e-43
3.7 1.02 1.2 3.57e-43
3.74 1.02 1.2 3.57e-43
3.78 1.02 1.2 3.57e-43
3.82 1.02 1.2 3.57e-43
3.86 1.02 1.2 3.57e-43
3.9 1.02 1.2 3.57e-43
3.94 1.02 1.2 3.57e-43
3.98 1.02 1.11 9.1477e-41
4.02 1.02 1.11 3.57e-43
4.06 1.02 1.11 3.57e-43
4.09 1.02 1.11 3.57e-43
4.14 1.02 1.11 3.57e-43
4.18 1.02 1.11 3.57e-43
4.22 1.02 1.11 3.57e-43
4.26 1.02 1.11 3.57e-43
4.3 1.02 1.11 3.57e-43
4.34 1.02 1.11 3.57e-43
4.38 1.02 1.11 3.57e-43
4.42 1.02 1.11 3.57e-43
4.46 1.02 1.01 9.1477e-41
4.49 1.02 1.16 9.1477e-41
4.53 1.02 1.15 9.1477e-41
4.57 1.02 1.16 9.1477e-41
4.61 1.02 1.13 9.1477e-41
4.69 1.02 0.84 9.1477e-41
3.08 1.05 1.26 9.1477e-41
3.11 1.05 1.24 9.1477e-41
3.15 1.05 1.24 3.57e-43
3.18 1.05 1.24 3.57e-43
3.22 1.05 1.24 3.57e-43
3.26 1.05 1.24 3.57e-43
3.26 1.05 1.24 3.57e-43
3.34 1.05 1.24 3.57e-43
3.38 1.05 1.24 3.57e-43
3.42 1.05 1.24 3.57e-43
3.46 1.05 1.24 3.57e-43
3.5 1.05 1.24 3.57e-43
3.54 1.05 1.24 3.57e-43
3.58 1.05 1.24 3.57e-43
3.62 1.05 1.24 3.57e-43
3.66 1.05 1.24 3.57e-43
3.7 1.05 1.24 3.57e-43
3.74 1.05 1.24 3.57e-43
3.78 1.05 1.24 3.57e-43
3.82 1.05 1.24 3.57e-43
3.86 1.05 1.24 3.57e-43
3.9 1.05 1.24 3.57e-43
3.94 1.05 1.24 3.57e-43
3.98 1.05 1.24 3.57e-43
4.02 1.05 1.24 3.57e-43
4.06 1.05 1.24 3.57e-43
4.09 1.05 1.24 3.57e-43
4.14 1.05 1.24 3.57e-43
4.18 1.05 1.24 3.57e-43
4.22 1.05 1.24 3.57e-43
4.26 1.05 1.24 3.57e-43
4.3 1.05 1.24 3.57e-43
4.34 1.05 1.24 3.57e-43
4.38 1.05 1.24 3.57e-43
4.42 1.05 1.24 3.57e-43
4.46 1.05 1.01 9.1477e-41
4.49 1.05 1.19 9.1477e-41
4.53 1.05 1.19 9.1477e-41
4.57 1.05 1.2 9.1477e-41
4.61 1.05 1.15 9.1477e-41
4.69 1.05 0.83 9.1477e-41
3.08 1.08 1.29 9.1477e-41
3.12 1.08 1.29 3.57e-43
3.15 1.08 1.29 3.57e-43
3.18 1.08 1.29 3.57e-43
3.22 1.08 1.29 3.57e-43
3.26 1.08 1.29 3.57e-43
3.26 1.08 1.29 3.57e-43
3.34 1.08 1.29 3.57e-43
3.38 1.08 1.29 3.57e-43
3.42 1.08 1.29 3.57e-43
3.46 1.08 1.29 3.57e-43
3.5 1.08 1.29 3.57e-43
3.54 1.08 1.29 3.57e-43
3.58 1.08 1.29 3.57e-43
3.62 1.08 1.29 3.57e-43
3.66 1.08 1.29 3.57e-43
3.7 1.08 1.29 3.57e-43
3.74 1.08 1.29 3.57e-43
3.78 1.08 1.29 3.57e-43
3.82 1.08 1.29 3.57e-43
3.86 1.08 1.29 3.57e-43
3.9 1.08 1.29 3.57e-43
3.94 1.08 1.29 3.57e-43
3.98 1.08 1.29 3.57e-43
4.02 1.08 1.29 3.57e-43
4.06 1.08 1.29 3.57e-43
4.09 1.08 1.09 9.1477e-41
4.13 1.08 1.09 3.57e-43
4.18 1.08 1.09 3.57e-43
4.22 1.08 1.09 3.57e-43
4.26 1.08 1.09 3.57e-43
4.3 1.08 1.09 3.57e-43
4.34 1.08 1.09 3.57e-43
4.38 1.08 1.09 3.57e-43
4.42 1.08 1.09 3.57e-43
4.46 1.08 1.09 3.57e-43
4.49 1.08 1.19 9.1477e-41
4.52 1.08 1.23 9.1477e-41
4.56 1.08 1.22 9.1477e-41
4.61 1.08 1.19 9.1477e-41
3.09 1.11 1.32 9.1477e-41
3.13 1.11 1.32 3.57e-43
3.15 1.11 1.23 9.1477e-41
3.21 1.11 1.23 3.57e-43
3.22 1.11 1.23 3.57e-43
3.26 1.11 1.23 3.57e-43
3.26 1.11 1.23 3.57e-43
3.34 1.11 1.23 3.57e-43
3.38 1.11 1.23 3.57e-43
3.42 1.11 1.23 3.57e-43
3.46 1.11 1.23 3.57e-43
3.5 1.11 1.23 3.57e-43
3.54 1.11 1.23 3.57e-43
3.58 1.11 1.23 3.57e-43
3.62 1.11 1.23 3.57e-43
3.66 1.11 1.23 3.57e-43
3.7 1.11 1.23 3.57e-43
3.74 1.11 1.23 3.57e-43
3.78 1.11 1.12 9.1477e-41
3.82 1.11 1.22 9.1477e-41
3.86 1.11 1.22 3.57e-43
3.9 1.11 1.22 3.57e-43
3.94 1.11 1.22 3.57e-43
3.98 1.11 1.22 3.57e-43
4.02 1.11 1.22 3.57e-43
4.06 1.11 1.22 3.57e-43
4.09 1.11 1.22 3.57e-43
4.13 1.11 1.22 3.57e-43
4.18 1.11 1.22 3.57e-43
4.22 1.11 1.22 3.57e-43
4.26 1.11 1.22 3.57e-43
4.3 1.11 1.22 3.57e-43
4.34 1.11 1.22 3.57e-43
4.38 1.11 1.22 3.57e-43
4.42 1.11 1.22 3.57e-43
4.46 1.11 1.01 9.1477e-41
4.49 1.11 1.22 9.1477e-41
4.52 1.11 1.25 9.1477e-41
4.56 1.11 1.25 9.1477e-41
4.6 1.11 1.23 9.1477e-41
4.68 1.11 0.9 9.1477e-41
3.1 1.14 1.35 9.1477e-41
3.13 1.14 1.35 3.57e-43
3.15 1.14 1.23 9.1477e-41
3.21 1.14 1.23 3.57e-43
3.22 1.14 1.23 3.57e-43
3.26 1.14 1.23 3.57e-43
3.26 1.14 1.23 3.57e-43
3.34 1.14 1.23 3.57e-43
3.38 1.14 1.23 3.57e-43
3.42 1.14 1.23 3.57e-43
3.46 1.14 1.23 3.57e-43
3.5 1.14 1.23 3.57e-43
3.54 1.14 1.23 3.57e-43
3.58 1.14 1.23 3.57e-43
3.62 1.14 1.23 3.57e-43
3.66 1.14 1.23 3.57e-43
3.7 1.14 1.23 3.57e-43
3.74 1.14 1.23 3.57e-43
3.78 1.14 1.23 3.57e-43
3.82 1.14 1.22 9.1477e-41
3.86 1.14 1.22 3.57e-43
3.9 1.14 1.22 3.57e-43
3.94 1.14 1.22 3.57e-43
3.98 1.14 1.22 3.57e-43
4.02 1.14 1.22 3.57e-43
4.06 1.14 1.22 3.57e-43
4.09 1.14 1.22 3.57e-43
4.13 1.14 1.22 3.57e-43
4.18 1.14 1.22 3.57e-43
4.22 1.14 1.22 3.57e-43
4.26 1.14 1.22 3.57e-43
4.3 1.14 1.22 3.57e-43
4.34 1.14 1.22 3.57e-43
4.38 1.14 1.22 3.57e-43
4.42 1.14 1.22 3.57e-43
4.46 1.14 1.01 9.1477e-41
4.48 1.14 1.26 9.1477e-41
4.52 1.14 1.27 9.1477e-41
4.56 1.14 1.29 9.1477e-41
4.6 1.14 1.24 9.1477e-41
4.68 1.14 0.9 9.1477e-41
3.11 1.17 1.39 9.1477e-41
3.14 1.17 1.38 9.1477e-41
3.14 1.17 1.18 9.1477e-41
3.18 1.17 1.18 9.1477e-41
3.22 1.17 1.17 9.1477e-41
3.26 1.17 1.16 9.1477e-41
3.3 1.17 1.17 9.1477e-41
3.34 1.17 1.18 9.1477e-41
3.38 1.17 1.16 9.1477e-41
3.42 1.17 1.17 9.1477e-41
3.46 1.17 1.17 3.57e-43
3.5 1.17 1.17 3.57e-43
3.54 1.17 1.17 3.57e-43
3.58 1.17 1.17 3.57e-43
3.62 1.17 1.17 3.57e-43
3.66 1.17 1.17 3.57e-43
3.7 1.17 1.17 3.57e-43
3.74 1.17 1.17 3.57e-43
3.78 1.17 1.17 3.57e-43
3.82 1.17 1.17 3.57e-43
3.86 1.17 1.17 3.57e-43
3.9 1.17 1.17 3.57e-43
3.94 1.17 1.17 3.57e-43
3.98 1.17 1.17 3.57e-43
4.02 1.17 1.17 3.57e-43
4.06 1.17 1.17 3.57e-43
4.09 1.17 1.17 3.57e-43
4.13 1.17 1.17 3.57e-43
4.18 1.17 1.17 3.57e-43
4.22 1.17 1.17 3.57e-43
4.26 1.17 1.17 3.57e-43
4.3 1.17 1.17 3.57e-43
4.34 1.17 1.17 3.57e-43
4.38 1.17 1.17 3.57e-43
4.42 1.17 1.17 3.57e-43
4.46 1.17 1.17 3.57e-43
4.48 1.17 1.26 9.1477e-41
4.52 1.17 1.31 9.1477e-41
4.55 1.17 1.32 9.1477e-41
4.6 1.17 1.26 9.1477e-41
4.68 1.17 0.9 9.1477e-41
2.97 1.2 1.14 9.1477e-41
3.06 1.2 1.37 9.1477e-41
3.11 1.2 1.41 9.1477e-41
3.15 1.2 1.41 3.57e-43
3.14 1.2 1.18 9.1477e-41
3.18 1.2 1.17 9.1477e-41
3.22 1.2 1.15 9.1477e-41
3.26 1.2 1.16 9.1477e-41
3.3 1.2 1.17 9.1477e-41
3.34 1.2 1.17 9.1477e-41
3.38 1.2 1.17 9.1477e-41
3.42 1.2 1.16 9.1477e-41
3.46 1.2 1.16 9.1477e-41
3.5 1.2 1.16 9.1477e-41
3.54 1.2 1.17 9.1477e-41
3.58 1.2 1.16 9.1477e-41
3.62 1.2 1.16 9.1477e-41
3.66 1.2 1.16 3.57e-43
3.7 1.2 1.13 9.1477e-41
3.74 1.2 1.19 9.1477e-41
3.78 1.2 1.2 9.1477e-41
3.82 1.2 1.19 9.1477e-41
3.86 1.2 1.19 9.1477e-41
3.9 1.2 1.19 9.1477e-41
3.94 1.2 1.19 3.57e-43
3.98 1.2 1.11 9.1477e-41
4.02 1.2 1.17 9.1477e-41
4.06 1.2 1.17 9.1477e-41
4.09 1.2 1.17 9.1477e-41
4.17 1.2 1.18 9.1477e-41
4.21 1.2 1.17 9.1477e-41
4.25 1.2 1.17 9.1477e-41
4.29 1.2 1.18 9.1477e-41
4.33 1.2 1.16 9.1477e-41
4.37 1.2 1.15 9.1477e-41
4.41 1.2 1.13 9.1477e-41
4.45 1.2 1.12 9.1477e-41
4.49 1.2 1.13 9.1477e-41
4.52 1.2 1.32 9.1477e-41
4.55 1.2 1.35 9.1477e-41
4.59 1.2 1.31 9.1477e-41
4.68 1.2 0.92 9.1477e-41
2.87 1.23 1.25 9.1477e-41
2.91 1.23 1.25 3.57e-43
3.12 1.23 1.45 9.1477e-41
3.16 1.23 1.45 3.57e-43
3.14 1.23 1.45 3.57e-43
3.18 1.23 1.17 9.1477e-41
3.22 1.23 1.17 3.57e-43
3.26 1.23 1.17 3.57e-43
3.3 1.23 1.17 3.57e-43
3.34 1.23 1.17 3.57e-43
3.38 1.23 1.17 9.1477e-41
3.42 1.23 1.17 9.1477e-41
3.46 1.23 1.17 9.1477e-41
3.5 1.23 1.15 9.1477e-41
3.54 1.23 1.15 9.1477e-41
3.58 1.23 1.15 9.1477e-41
3.62 1.23 1.15 3.57e-43
3.66 1.23 1.15 3.57e-43
3.7 1.23 1.13 9.1477e-41
3.74 1.23 1.2 9.1477e-41
3.78 1.23 1.2 9.1477e-41
3.82 1.23 1.19 9.1477e-41
3.86 1.23 1.19 9.1477e-41
3.9 1.23 1.19 9.1477e-41
3.94 1.23 1.19 3.57e-43
3.98 1.23 1.11 9.1477e-41
4.02 1.23 1.16 9.1477e-41
4.06 1.23 1.17 9.1477e-41
4.09 1.23 1.18 9.1477e-41
4.17 1.23 1.18 9.1477e-41
4.21 1.23 1.18 9.1477e-41
4.25 1.23 1.18 9.1477e-41
4.29 1.23 1.16 9.1477e-41
4.33 1.23 1.15 9.1477e-41
4.37 1.23 1.16 9.1477e-41
4.41 1.23 1.13 9.1477e-41
4.45 1.23 1.11 9.1477e-41
4.49 1.23 1.19 9.1477e-41
4.51 1.23 1.36 9.1477e-41
4.55 1.23 1.37 9.1477e-41
4.59 1.23 1.35 9.1477e-41
4.65 1.23 1.15 9.1477e-41
2.83 1.26 1.26 9.1477e-41
2.87 1.26 1.25 9.1477e-41
2.88 1.26 1.14 9.1477e-41
3.05 1.26 1.32 9.1477e-41
3.12 1.26 1.47 9.1477e-41
3.16 1.26 1.47 3.57e-43
3.14 1.26 1.47 3.57e-43
3.18 1.26 1.47 3.57e-43
3.22 1.26 1.47 3.57e-43
3.26 1.26 1.47 3.57e-43
3.3 1.26 1.47 3.57e-43
3.34 1.26 1.47 3.57e-43
3.38 1.26 1.47 3.57e-43
3.42 1.26 1.47 3.57e-43
3.46 1.26 1.47 3.57e-43
3.5 1.26 1.47 3.57e-43
3.54 1.26 1.47 3.57e-43
3.58 1.26 1.47 3.57e-43
3.62 1.26 1.47 3.57e-43
3.66 1.26 1.47 3.57e-43
3.7 1.26 1.47 3.57e-43
3.74 1.26 1.47 3.57e-43
3.78 1.26 1.47 3.57e-43
3.82 1.26 1.47 3.57e-43
3.86 1.26 1.47 3.57e-43
3.9 1.26 1.47 3.57e-43
3.94 1.26 1.47 3.57e-43
3.98 1.26 1.47 3.57e-43
4.02 1.26 1.16 9.1477e-41
4.06 1.26 1.13 9.1477e-41
4.09 1.26 1.18 9.1477e-41
4.17 1.26 1.18 9.1477e-41
4.21 1.26 1.19 9.1477e-41
4.25 1.26 1.19 9.1477e-41
4.29 1.26 1.15 9.1477e-41
4.33 1.26 1.15 3.57e-43
4.37 1.26 1.16 9.1477e-41
4.41 1.26 1.12 9.1477e-41
4.45 1.26 1.12 3.57e-43
4.49 1.26 1.19 9.1477e-41
4.51 1.26 1.41 9.1477e-41
4.54 1.26 1.42 9.1477e-41
4.58 1.26 1.39 9.1477e-41
4.65 1.26 1.13 9.1477e-41
4.7 1.26 1.13 3.57e-43
4.91 1.26 1.13 3.57e-43
3.06 1.29 1.35 9.1477e-41
3.13 1.29 1.49 9.1477e-41
3.17 1.29 1.49 9.1477e-41
3.12 1.29 1.49 3.57e-43
3.18 1.29 1.49 3.57e-43
3.22 1.29 1.49 3.57e-43
3.26 1.29 1.16 9.1477e-41
3.36 1.29 1.53 9.1477e-41
3.39 1.29 1.53 3.57e-43
3.38 1.29 1.53 3.57e-43
3.42 1.29 1.53 3.57e-43
3.46 1.29 1.53 3.57e-43
3.5 1.29 1.53 3.57e-43
3.54 1.29 1.53 3.57e-43
3.58 1.29 1.53 3.57e-43
3.62 1.29 1.53 3.57e-43
3.66 1.29 1.53 3.57e-43
3.7 1.29 1.53 3.57e-43
3.74 1.29 1.53 3.57e-43
3.78 1.29 1.53 3.57e-43
3.82 1.29 1.19 9.1477e-41
3.84 1.29 0.9 9.1477e-41
3.89 1.29 0.9 3.57e-43
3.94 1.29 0.9 3.57e-43
3.98 1.29 1.11 9.1477e-41
4.01 1.29 1.11 3.57e-43
4.06 1.29 1.11 3.57e-43
4.09 1.29 1.18 9.1477e-41
4.17 1.29 1.18 3.57e-43
4.21 1.29 1.18 3.57e-43
4.25 1.29 1.18 3.57e-43
4.29 1.29 1.18 3.57e-43
4.33 1.29 1.11 9.1477e-41
4.42 1.29 1.11 3.57e-43
4.41 1.29 1.11 3.57e-43
4.45 1.29 1.11 3.57e-43
4.49 1.29 1.19 9.1477e-41
4.5 1.29 1.44 9.1477e-41
4.54 1.29 1.45 9.1477e-41
4.58 1.29 1.39 9.1477e-41
4.68 1.29 0.93 9.1477e-41
4.73 1.29 1.21 9.1477e-41
4.76 1.29 1.21 9.1477e-41
4.8 1.29 1.23 9.1477e-41
3.06 1.32 1.38 9.1477e-41
3.14 1.32 1.52 9.1477e-41
3.17 1.32 1.52 3.57e-43
3.12 1.32 1.52 3.57e-43
3.18 1.32 1.52 3.57e-43
3.22 1.32 1.52 3.57e-43
3.26 1.32 1.52 3.57e-43
3.36 1.32 1.53 9.1477e-41
3.21 1.32 1.53 3.57e-43
3.38 1.32 1.53 3.57e-43
3.42 1.32 1.53 3.57e-43
3.46 1.32 1.53 3.57e-43
3.5 1.32 1.15 9.1477e-41
3.59 1.32 1.56 9.1477e-41
3.62 1.32 1.56 3.57e-43
3.62 1.32 1.16 9.1477e-41
3.7 1.32 1.16 3.57e-43
3.7 1.32 1.16 3.57e-43
3.74 1.32 1.16 3.57e-43
3.78 1.32 1.16 3.57e-43
3.82 1.32 1.16 3.57e-43
3.84 1.32 1.16 3.57e-43
3.89 1.32 1.16 3.57e-43
3.94 1.32 1.16 3.57e-43
3.98 1.32 1.16 3.57e-43
4.01 1.32 0.85 9.1477e-41
4.05 1.32 0.85 3.57e-43
4.09 1.32 1.18 9.1477e-41
4.17 1.32 1.23 9.1477e-41
4.21 1.32 1.23 3.57e-43
4.25 1.32 1.23 3.57e-43
4.29 1.32 1.23 3.57e-43
4.33 1.32 1.23 3.57e-43
4.42 1.32 1.23 3.57e-43
4.41 1.32 1.23 3.57e-43
4.45 1.32 1.23 3.57e-43
4.49 1.32 1.19 9.1477e-41
4.5 1.32 1.45 9.1477e-41
4.54 1.32 1.48 9.1477e-41
4.58 1.32 1.41 9.1477e-41
4.68 1.32 0.95 9.1477e-41
4.81 1.32 1.17 9.1477e-41
3.07 1.35 1.41 9.1477e-41
3.14 1.35 1.55 9.1477e-41
3.18 1.35 1.55 3.57e-43
3.12 1.35 1.55 3.57e-43
3.18 1.35 1.55 3.57e-43
3.22 1.35 1.55 3.57e-43
3.26 1.35 1.55 3.57e-43
3.36 1.35 1.55 3.57e-43
3.21 1.35 1.55 3.57e-43
3.38 1.35 1.55 3.57e-43
3.42 1.35 1.55 3.57e-43
3.46 1.35 1.55 3.57e-43
3.5 1.35 1.55 3.57e-43
3.59 1.35 1.55 3.57e-43
3.62 1.35 1.55 3.57e-43
3.62 1.35 1.55 3.57e-43
3.7 1.35 1.55 3.57e-43
3.7 1.35 1.55 3.57e-43
3.74 1.35 1.55 3.57e-43
3.78 1.35 1.55 3.57e-43
3.82 1.35 1.55 3.57e-43
3.84 1.35 1.55 3.57e-43
3.89 1.35 1.55 3.57e-43
3.94 1.35 1.55 3.57e-43
3.98 1.35 1.55 3.57e-43
4.01 1.35 0.85 9.1477e-41
4.06 1.35 1.47 9.1477e-41
4.09 1.35 1.46 9.1477e-41
4.17 1.35 1.38 9.1477e-41
4.21 1.35 1.24 9.1477e-41
4.25 1.35 1.24 3.57e-43
4.29 1.35 1.24 3.57e-43
4.33 1.35 1.24 3.57e-43
4.42 1.35 1.24 3.57e-43
4.41 1.35 1.24 3.57e-43
4.45 1.35 1.24 3.57e-43
4.49 1.35 1.19 9.1477e-41
4.5 1.35 1.5 9.1477e-41
4.53 1.35 1.51 9.1477e-41
4.58 1.35 1.44 9.1477e-41
4.68 1.35 0.93 9.1477e-41
3.08 1.38 1.45 9.1477e-41
3.15 1.38 1.57 9.1477e-41
3.18 1.38 1.57 3.57e-43
3.12 1.38 1.57 3.57e-43
3.18 1.38 1.57 3.57e-43
3.22 1.38 1.16 9.1477e-41
3.34 1.38 1.59 9.1477e-41
3.37 1.38 1.59 9.1477e-41
3.41 1.38 1.59 9.1477e-41
3.45 1.38 1.6 9.1477e-41
3.49 1.38 1.6 9.1477e-41
3.52 1.38 1.6 9.1477e-41
3.56 1.38 1.61 9.1477e-41
3.59 1.38 1.6 9.1477e-41
3.63 1.38 1.6 9.1477e-41
3.67 1.38 1.61 9.1477e-41
3.7 1.38 1.6 9.1477e-41
3.74 1.38 1.59 9.1477e-41
3.77 1.38 1.6 9.1477e-41
3.81 1.38 1.58 9.1477e-41
3.84 1.38 1.58 9.1477e-41
3.88 1.38 1.6 9.1477e-41
3.92 1.38 1.6 3.57e-43
3.94 1.38 1.6 3.57e-43
3.98 1.38 1.6 3.57e-43
4.01 1.38 1.6 3.57e-43
4.06 1.38 1.6 3.57e-43
4.09 1.38 1.6 3.57e-43
4.17 1.38 1.49 9.1477e-41
4.2 1.38 1.49 9.1477e-41
4.24 1.38 1.46 9.1477e-41
4.28 1.38 1.49 9.1477e-41
4.31 1.38 1.53 9.1477e-41
4.35 1.38 1.55 9.1477e-41
4.38 1.38 1.56 9.1477e-41
4.42 1.38 1.53 9.1477e-41
4.46 1.38 1.52 9.1477e-41
4.5 1.38 1.52 9.1477e-41
4.53 1.38 1.53 9.1477e-41
4.57 1.38 1.48 9.1477e-41
4.68 1.38 0.93 9.1477e-41
3.08 1.41 1.46 9.1477e-41
3.15 1.41 1.6 9.1477e-41
3.19 1.41 1.6 9.1477e-41
3.23 1.41 1.62 9.1477e-41
3.27 1.41 1.62 9.1477e-41
3.31 1.41 1.62 9.1477e-41
3.34 1.41 1.62 9.1477e-41
3.38 1.41 1.63 9.1477e-41
3.42 1.41 1.63 9.1477e-41
3.45 1.41 1.63 9.1477e-41
3.49 1.41 1.63 9.1477e-41
3.53 1.41 1.62 9.1477e-41
3.56 1.41 1.63 9.1477e-41
3.6 1.41 1.63 9.1477e-41
3.63 1.41 1.63 9.1477e-41
3.67 1.41 1.63 9.1477e-41
3.7 1.41 1.62 9.1477e-41
3.74 1.41 1.63 9.1477e-41
3.78 1.41 1.63 9.1477e-41
3.81 1.41 1.62 9.1477e-41
3.85 1.41 1.61 9.1477e-41
3.88 1.41 1.62 9.1477e-41
3.92 1.41 1.62 9.1477e-41
3.95 1.41 1.62 9.1477e-41
3.99 1.41 1.62 9.1477e-41
4.02 1.41 1.62 9.1477e-41
4.06 1.41 1.61 9.1477e-41
4.09 1.41 1.6 9.1477e-41
4.17 1.41 1.59 9.1477e-41
4.2 1.41 1.59 9.1477e-41
4.24 1.41 1.59 9.1477e-41
4.27 1.41 1.58 9.1477e-41
4.31 1.41 1.57 9.1477e-41
4.35 1.41 1.57 9.1477e-41
4.38 1.41 1.57 3.57e-43
4.42 1.41 1.57 3.57e-43
4.46 1.41 1.52 9.1477e-41
4.49 1.41 1.55 9.1477e-41
4.53 1.41 1.55 9.1477e-41
4.57 1.41 1.49 9.1477e-41
4.68 1.41 0.96 9.1477e-41
3.09 1.44 1.49 9.1477e-41
3.16 1.44 1.63 9.1477e-41
3.2 1.44 1.62 9.1477e-41
3.24 1.44 1.64 9.1477e-41
3.27 1.44 1.64 9.1477e-41
3.31 1.44 1.64 9.1477e-41
3.35 1.44 1.63 9.1477e-41
3.38 1.44 1.65 9.1477e-41
3.42 1.44 1.64 9.1477e-41
3.46 1.44 1.65 9.1477e-41
3.49 1.44 1.65 9.1477e-41
3.53 1.44 1.64 9.1477e-41
3.57 1.44 1.65 9.1477e-41
3.6 1.44 1.66 9.1477e-41
3.64 1.44 1.64 9.1477e-41
3.67 1.44 1.65 9.1477e-41
3.71 1.44 1.64 9.1477e-41
3.74 1.44 1.64 9.1477e-41
3.78 1.44 1.65 9.1477e-41
3.81 1.44 1.63 9.1477e-41
3.85 1.44 1.64 9.1477e-41
3.88 1.44 1.64 9.1477e-41
3.92 1.44 1.64 9.1477e-41
3.95 1.44 1.64 9.1477e-41
3.99 1.44 1.64 9.1477e-41
4.02 1.44 1.63 9.1477e-41
4.06 1.44 1.63 9.1477e-41
4.09 1.44 1.64 9.1477e-41
4.17 1.44 1.62 9.1477e-41
4.2 1.44 1.61 9.1477e-41
4.24 1.44 1.62 9.1477e-41
4.27 1.44 1.61 9.1477e-41
4.31 1.44 1.6 9.1477e-41
4.34 1.44 1.61 9.1477e-41
4.38 1.44 1.59 9.1477e-41
4.42 1.44 1.59 9.1477e-41
4.45 1.44 1.57 9.1477e-41
4.49 1.44 1.58 9.1477e-41
4.53 1.44 1.58 9.1477e-41
4.57 1.44 1.53 9.1477e-41
4.68 1.44 0.95 9.1477e-41
3.1 1.47 1.53 9.1477e-41
3.16 1.47 1.64 9.1477e-41
3.2 1.47 1.63 9.1477e-41
3.24 1.47 1.65 9.1477e-41
3.28 1.47 1.66 9.1477e-41
3.31 1.47 1.65 9.1477e-41
3.35 1.47 1.66 9.1477e-41
3.39 1.47 1.67 9.1477e-41
3.42 1.47 1.66 9.1477e-41
3.46 1.47 1.66 9.1477e-41
3.5 1.47 1.67 9.1477e-41
3.53 1.47 1.66 9.1477e-41
3.57 1.47 1.67 9.1477e-41
3.6 1.47 1.67 9.1477e-41
3.64 1.47 1.67 9.1477e-41
3.67 1.47 1.67 9.1477e-41
3.71 1.47 1.67 9.1477e-41
3.74 1.47 1.66 9.1477e-41
3.78 1.47 1.66 9.1477e-41
3.81 1.47 1.66 9.1477e-41
3.85 1.47 1.67 9.1477e-41
3.88 1.47 1.66 9.1477e-41
3.92 1.47 1.65 9.1477e-41
3.95 1.47 1.66 9.1477e-41
3.99 1.47 1.65 9.1477e-41
4.02 1.47 1.66 9.1477e-41
4.06 1.47 1.65 9.1477e-41
4.09 1.47 1.65 9.1477e-41
4.17 1.47 1.64 9.1477e-41
4.2 1.47 1.64 9.1477e-41
4.24 1.47 1.63 9.1477e-41
4.27 1.47 1.63 9.1477e-41
4.31 1.47 1.62 9.1477e-41
4.34 1.47 1.62 9.1477e-41
4.38 1.47 1.62 9.1477e-41
4.42 1.47 1.61 9.1477e-41
4.45 1.47 1.6 9.1477e-41
4.49 1.47 1.59 9.1477e-41
4.52 1.47 1.61 9.1477e-41
4.57 1.47 1.54 9.1477e-41
4.67 1.47 0.97 9.1477e-41
3.11 1.5 1.55 9.1477e-41
3.17 1.5 1.66 9.1477e-41
3.21 1.5 1.66 9.1477e-41
3.24 1.5 1.67 9.1477e-41
3.28 1.5 1.68 9.1477e-41
3.32 1.5 1.68 9.1477e-41
3.35 1.5 1.67 9.1477e-41
3.39 1.5 1.68 9.1477e-41
3.42 1.5 1.67 9.1477e-41
3.46 1.5 1.66 9.1477e-41
3.5 1.5 1.69 9.1477e-41
3.53 1.5 1.68 9.1477e-41
3.57 1.5 1.67 9.1477e-41
3.6 1.5 1.68 9.1477e-41
3.64 1.5 1.68 9.1477e-41
3.68 1.5 1.69 9.1477e-41
3.71 1.5 1.68 9.1477e-41
3.75 1.5 1.68 9.1477e-41
3.78 1.5 1.68 9.1477e-41
3.82 1.5 1.67 9.1477e-41
3.85 1.5 1.68 9.1477e-41
3.89 1.5 1.68 9.1477e-41
3.92 1.5 1.68 9.1477e-41
3.96 1.5 1.68 9.1477e-41
3.99 1.5 1.67 9.1477e-41
4.03 1.5 1.68 9.1477e-41
4.06 1.5 1.68 9.1477e-41
4.09 1.5 1.67 9.1477e-41
4.16 1.5 1.67 9.1477e-41
4.2 1.5 1.65 9.1477e-41
4.24 1.5 1.64 9.1477e-41
4.27 1.5 1.65 9.1477e-41
4.31 1.5 1.65 9.1477e-41
4.34 1.5 1.63 9.1477e-41
4.38 1.5 1.64 9.1477e-41
4.41 1.5 1.63 9.1477e-41
4.45 1.5 1.62 9.1477e-41
4.49 1.5 1.62 9.1477e-41
4.52 1.5 1.62 9.1477e-41
4.56 1.5 1.56 9.1477e-41
4.67 1.5 0.98 9.1477e-41
3.11 1.53 1.59 9.1477e-41
3.17 1.53 1.66 9.1477e-41
3.21 1.53 1.66 9.1477e-41
3.24 1.53 1.67 9.1477e-41
3.29 1.53 1.7 9.1477e-41
3.32 1.53 1.69 9.1477e-41
3.36 1.53 1.69 9.1477e-41
3.39 1.53 1.69 9.1477e-41
3.43 1.53 1.7 9.1477e-41
3.46 1.53 1.68 9.1477e-41
3.5 1.53 1.71 9.1477e-41
3.54 1.53 1.69 9.1477e-41
3.57 1.53 1.7 9.1477e-41
3.61 1.53 1.69 9.1477e-41
3.64 1.53 1.69 9.1477e-41
3.68 1.53 1.7 9.1477e-41
3.71 1.53 1.69 9.1477e-41
3.75 1.53 1.7 9.1477e-41
3.78 1.53 1.7 9.1477e-41
3.82 1.53 1.68 9.1477e-41
3.85 1.53 1.69 9.1477e-41
3.89 1.53 1.68 9.1477e-41
3.92 1.53 1.69 9.1477e-41
3.96 1.53 1.7 9.1477e-41
3.99 1.53 1.68 9.1477e-41
4.03 1.53 1.69 9.1477e-41
4.06 1.53 1.69 9.1477e-41
4.09 1.53 1.68 9.1477e-41
4.16 1.53 1.69 9.1477e-41
4.2 1.53 1.67 9.1477e-41
4.24 1.53 1.66 9.1477e-41
4.27 1.53 1.66 9.1477e-41
4.31 1.53 1.66 9.1477e-41
4.34 1.53 1.67 9.1477e-41
4.38 1.53 1.66 9.1477e-41
4.41 1.53 1.64 9.1477e-41
4.45 1.53 1.63 9.1477e-41
4.49 1.53 1.63 9.1477e-41
4.52 1.53 1.64 9.1477e-41
4.56 1.53 1.58 9.1477e-41
4.67 1.53 1 9.1477e-41
3.12 1.56 1.6 9.1477e-41
3.17 1.56 1.69 9.1477e-41
3.21 1.56 1.68 9.1477e-41
3.25 1.56 1.69 9.1477e-41
3.29 1.56 1.7 9.1477e-41
3.32 1.56 1.7 9.1477e-41
3.36 1.56 1.7 9.1477e-41
3.4 1.56 1.71 9.1477e-41
3.43 1.56 1.71 9.1477e-41
3.47 1.56 1.71 9.1477e-41
3.5 1.56 1.71 9.1477e-41
3.54 1.56 1.71 9.1477e-41
3.57 1.56 1.71 9.1477e-41
3.61 1.56 1.71 9.1477e-41
3.64 1.56 1.71 9.1477e-41
3.68 1.56 1.71 9.1477e-41
3.71 1.56 1.71 9.1477e-41
3.75 1.56 1.71 9.1477e-41
3.78 1.56 1.71 9.1477e-41
3.82 1.56 1.7 9.1477e-41
3.85 1.56 1.71 9.1477e-41
3.89 1.56 1.7 9.1477e-41
3.92 1.56 1.69 9.1477e-41
3.96 1.56 1.7 9.1477e-41
3.99 1.56 1.7 9.1477e-41
4.03 1.56 1.7 9.1477e-41
4.06 1.56 1.7 9.1477e-41
4.09 1.56 1.7 9.1477e-41
4.16 1.56 1.69 9.1477e-41
4.2 1.56 1.68 9.1477e-41
4.23 1.56 1.68 9.1477e-41
4.27 1.56 1.68 9.1477e-41
4.3 1.56 1.67 9.1477e-41
4.34 1.56 1.67 9.1477e-41
4.38 1.56 1.66 9.1477e-41
4.41 1.56 1.66 9.1477e-41
4.45 1.56 1.64 9.1477e-41
4.48 1.56 1.63 9.1477e-41
4.52 1.56 1.64 9.1477e-41
4.56 1.56 1.59 9.1477e-41
4.67 1.56 1.01 9.1477e-41
3.12 1.59 1.61 9.1477e-41
3.17 1.59 1.69 9.1477e-41
3.21 1.59 1.69 9.1477e-41
3.25 1.59 1.7 9.1477e-41
3.29 1.59 1.72 9.1477e-41
3.32 1.59 1.71 9.1477e-41
3.36 1.59 1.71 9.1477e-41
3.4 1.59 1.73 9.1477e-41
3.43 1.59 1.72 9.1477e-41
3.47 1.59 1.72 9.1477e-41
3.5 1.59 1.72 9.1477e-41
3.54 1.59 1.72 9.1477e-41
3.57 1.59 1.72 9.1477e-41
3.61 1.59 1.72 9.1477e-41
3.65 1.59 1.73 9.1477e-41
3.68 1.59 1.71 9.1477e-41
3.71 1.59 1.72 9.1477e-41
3.75 1.59 1.71 9.1477e-41
3.78 1.59 1.72 9.1477e-41
3.82 1.59 1.71 9.1477e-41
3.85 1.59 1.71 9.1477e-41
3.89 1.59 1.72 9.1477e-41
3.92 1.59 1.72 9.1477e-41
3.96 1.59 1.71 9.1477e-41
3.99 1.59 1.72 9.1477e-41
4.03 1.59 1.7 9.1477e-41
4.06 1.59 1.71 9.1477e-41
4.09 1.59 1.71 9.1477e-41
4.16 1.59 1.7 9.1477e-41
4.2 1.59 1.69 9.1477e-41
4.23 1.59 1.69 9.1477e-41
4.27 1.59 1.69 9.1477e-41
4.3 1.59 1.68 9.1477e-41
4.34 1.59 1.69 9.1477e-41
4.37 1.59 1.68 9.1477e-41
4.41 1.59 1.67 9.1477e-41
4.45 1.59 1.65 9.1477e-41
4.48 1.59 1.65 9.1477e-41
4.52 1.59 1.66 9.1477e-41
4.56 1.59 1.6 9.1477e-41
4.67 1.59 1.03 9.1477e-41
3.12 1.62 1.62 9.1477e-41
3.18 1.62 1.71 9.1477e-41
3.21 1.62 1.7 9.1477e-41
3.25 1.62 1.7 9.1477e-41
3.29 1.62 1.72 9.1477e-41
3.33 1.62 1.73 9.1477e-41
3.36 1.62 1.72 9.1477e-41
3.4 1.62 1.74 9.1477e-41
3.43 1.62 1.72 9.1477e-41
3.47 1.62 1.73 9.1477e-41
3.51 1.62 1.73 9.1477e-41
3.54 1.62 1.73 9.1477e-41
3.58 1.62 1.73 9.1477e-41
3.61 1.62 1.72 9.1477e-41
3.65 1.62 1.73 9.1477e-41
3.68 1.62 1.73 9.1477e-41
3.72 1.62 1.73 9.1477e-41
3.75 1.62 1.73 9.1477e-41
3.79 1.62 1.74 9.1477e-41
3.82 1.62 1.72 9.1477e-41
3.85 1.62 1.73 9.1477e-41
3.89 1.62 1.73 9.1477e-41
3.92 1.62 1.73 9.1477e-41
3.96 1.62 1.72 9.1477e-41
3.99 1.62 1.72 9.1477e-41
4.03 1.62 1.73 9.1477e-41
4.06 1.62 1.73 9.1477e-41
4.09 1.62 1.72 9.1477e-41
4.16 1.62 1.72 9.1477e-41
4.2 1.62 1.71 9.1477e-41
4.23 1.62 1.71 9.1477e-41
4.27 1.62 1.71 9.1477e-41
4.3 1.62 1.7 9.1477e-41
4.34 1.62 1.7 9.1477e-41
4.37 1.62 1.69 9.1477e-41
4.41 1.62 1.69 9.1477e-41
4.45 1.62 1.66 9.1477e-41
4.48 1.62 1.66 9.1477e-41
4.52 1.62 1.65 9.1477e-41
4.56 1.62 1.61 9.1477e-41
4.66 1.62 1.08 9.1477e-41
3.13 1.65 1.64 9.1477e-41
3.18 1.65 1.71 9.1477e-41
3.22 1.65 1.71 9.1477e-41
3.26 1.65 1.72 9.1477e-41
3.29 1.65 1.74 9.1477e-41
3.33 1.65 1.73 9.1477e-41
3.36 1.65 1.73 9.1477e-41
3.4 1.65 1.75 9.1477e-41
3.44 1.65 1.75 9.1477e-41
3.47 1.65 1.74 9.1477e-41
3.51 1.65 1.74 9.1477e-41
3.54 1.65 1.74 9.1477e-41
3.58 1.65 1.74 9.1477e-41
3.61 1.65 1.74 9.1477e-41
3.65 1.65 1.74 9.1477e-41
3.68 1.65 1.75 9.1477e-41
3.72 1.65 1.74 9.1477e-41
3.75 1.65 1.74 9.1477e-41
3.79 1.65 1.74 9.1477e-41
3.82 1.65 1.73 9.1477e-41
3.85 1.65 1.74 9.1477e-41
3.89 1.65 1.73 9.1477e-41
3.92 1.65 1.73 9.1477e-41
3.96 1.65 1.74 9.1477e-41
3.99 1.65 1.73 9.1477e-41
4.03 1.65 1.74 9.1477e-41
4.06 1.65 1.72 9.1477e-41
4.09 1.65 1.73 9.1477e-41
4.16 1.65 1.72 9.1477e-41
4.2 1.65 1.72 9.1477e-41
4.23 1.65 1.72 9.1477e-41
4.27 1.65 1.72 9.1477e-41
4.3 1.65 1.7 9.1477e-41
4.34 1.65 1.71 9.1477e-41
4.37 1.65 1.7 9.1477e-41
4.41 1.65 1.69 9.1477e-41
4.44 1.65 1.69 9.1477e-41
4.48 1.65 1.67 9.1477e-41
4.52 1.65 1.68 9.1477e-41
4.56 1.65 1.62 9.1477e-41
4.66 1.65 1.11 9.1477e-41
3.13 1.68 1.65 9.1477e-41
3.18 1.68 1.73 9.1477e-41
3.22 1.68 1.72 9.1477e-41
3.26 1.68 1.73 9.1477e-41
3.3 1.68 1.75 9.1477e-41
3.33 1.68 1.74 9.1477e-41
3.37 1.68 1.74 9.1477e-41
3.4 1.68 1.74 9.1477e-41
3.44 1.68 1.74 9.1477e-41
3.47 1.68 1.74 9.1477e-41
3.51 1.68 1.75 9.1477e-41
3.54 1.68 1.74 9.1477e-41
3.58 1.68 1.75 9.1477e-41
3.61 1.68 1.74 9.1477e-41
3.65 1.68 1.75 9.1477e-41
3.68 1.68 1.75 9.1477e-41
3.72 1.68 1.74 9.1477e-41
3.75 1.68 1.75 9.1477e-41
3.79 1.68 1.75 9.1477e-41
3.82 1.68 1.74 9.1477e-41
3.85 1.68 1.74 9.1477e-41
3.89 1.68 1.74 9.1477e-41
3.92 1.68 1.75 9.1477e-41
3.96 1.68 1.75 9.1477e-41
3.99 1.68 1.74 9.1477e-41
4.03 1.68 1.74 9.1477e-41
4.06 1.68 1.75 9.1477e-41
4.09 1.68 1.73 9.1477e-41
4.16 1.68 1.74 9.1477e-41
4.2 1.68 1.72 9.1477e-41
4.23 1.68 1.72 9.1477e-41
4.27 1.68 1.72 9.1477e-41
4.3 1.68 1.71 9.1477e-41
4.34 1.68 1.71 9.1477e-41
4.37 1.68 1.71 9.1477e-41
4.41 1.68 1.7 9.1477e-41
4.44 1.68 1.69 9.1477e-41
4.48 1.68 1.69 9.1477e-41
4.52 1.68 1.69 9.1477e-41
4.56 1.68 1.63 9.1477e-41
4.65 1.68 1.13 9.1477e-41
3.14 1.71 1.69 9.1477e-41
3.19 1.71 1.74 9.1477e-41
3.22 1.71 1.73 9.1477e-41
3.26 1.71 1.73 9.1477e-41
3.3 1.71 1.76 9.1477e-41
3.33 1.71 1.75 9.1477e-41
3.37 1.71 1.75 9.1477e-41
3.4 1.71 1.76 9.1477e-41
3.44 1.71 1.75 9.1477e-41
3.47 1.71 1.75 9.1477e-41
3.51 1.71 1.76 9.1477e-41
3.55 1.71 1.76 9.1477e-41
3.58 1.71 1.76 9.1477e-41
3.61 1.71 1.76 9.1477e-41
3.65 1.71 1.75 9.1477e-41
3.68 1.71 1.76 9.1477e-41
3.72 1.71 1.75 9.1477e-41
3.75 1.71 1.75 9.1477e-41
3.79 1.71 1.76 9.1477e-41
3.82 1.71 1.75 9.1477e-41
3.86 1.71 1.75 9.1477e-41
3.89 1.71 1.75 9.1477e-41
3.92 1.71 1.75 9.1477e-41
3.96 1.71 1.75 9.1477e-41
3.99 1.71 1.75 9.1477e-41
4.03 1.71 1.75 9.1477e-41
4.06 1.71 1.75 9.1477e-41
4.09 1.71 1.74 9.1477e-41
4.16 1.71 1.74 9.1477e-41
4.2 1.71 1.73 9.1477e-41
4.23 1.71 1.74 9.1477e-41
4.27 1.71 1.73 9.1477e-41
4.3 1.71 1.72 9.1477e-41
4.34 1.71 1.73 9.1477e-41
4.37 1.71 1.73 9.1477e-41
4.41 1.71 1.71 9.1477e-41
4.44 1.71 1.69 9.1477e-41
4.48 1.71 1.69 9.1477e-41
4.51 1.71 1.7 9.1477e-41
4.56 1.71 1.64 9.1477e-41
4.65 1.71 1.17 9.1477e-41
3.14 1.74 1.7 9.1477e-41
3.19 1.74 1.74 9.1477e-41
3.22 1.74 1.74 9.1477e-41
3.26 1.74 1.74 9.1477e-41
3.3 1.74 1.76 9.1477e-41
3.33 1.74 1.76 9.1477e-41
3.37 1.74 1.75 9.1477e-41
3.41 1.74 1.77 9.1477e-41
3.44 1.74 1.76 9.1477e-41
3.48 1.74 1.76 9.1477e-41
3.51 1.74 1.76 9.1477e-41
3.55 1.74 1.76 9.1477e-41
3.58 1.74 1.77 9.1477e-41
3.61 1.74 1.75 9.1477e-41
3.65 1.74 1.76 9.1477e-41
3.68 1.74 1.77 9.1477e-41
3.72 1.74 1.76 9.1477e-41
3.75 1.74 1.76 9.1477e-41
3.79 1.74 1.77 9.1477e-41
3.82 1.74 1.76 9.1477e-41
3.86 1.74 1.75 9.1477e-41
3.89 1.74 1.76 9.1477e-41
3.92 1.74 1.75 9.1477e-41
3.96 1.74 1.76 9.1477e-41
3.99 1.74 1.76 9.1477e-41
4.03 1.74 1.76 9.1477e-41
4.06 1.74 1.76 9.1477e-41
4.09 1.74 1.76 9.1477e-41
4.16 1.74 1.75 9.1477e-41
4.2 1.74 1.74 9.1477e-41
4.23 1.74 1.75 9.1477e-41
4.27 1.74 1.73 9.1477e-41
4.3 1.74 1.73 9.1477e-41
4.34 1.74 1.73 9.1477e-41
4.37 1.74 1.73 9.1477e-41
4.41 1.74 1.71 9.1477e-41
4.44 1.74 1.7 9.1477e-41
4.48 1.74 1.7 9.1477e-41
4.51 1.74 1.7 9.1477e-41
4.55 1.74 1.66 9.1477e-41
4.64 1.74 1.25 9.1477e-41
3.14 1.77 1.72 9.1477e-41
3.19 1.77 1.75 9.1477e-41
3.22 1.77 1.73 9.1477e-41
3.26 1.77 1.75 9.1477e-41
3.3 1.77 1.77 9.1477e-41
3.33 1.77 1.76 9.1477e-41
3.37 1.77 1.76 9.1477e-41
3.41 1.77 1.77 9.1477e-41
3.44 1.77 1.76 9.1477e-41
3.48 1.77 1.76 9.1477e-41
3.51 1.77 1.77 9.1477e-41
3.55 1.77 1.76 9.1477e-41
3.58 1.77 1.77 9.1477e-41
3.61 1.77 1.76 9.1477e-41
3.65 1.77 1.77 9.1477e-41
3.68 1.77 1.77 9.1477e-41
3.72 1.77 1.77 9.1477e-41
3.75 1.77 1.77 9.1477e-41
3.79 1.77 1.76 9.1477e-41
3.82 1.77 1.77 9.1477e-41
3.86 1.77 1.76 9.1477e-41
3.89 1.77 1.77 9.1477e-41
3.92 1.77 1.76 9.1477e-41
3.96 1.77 1.76 9.1477e-41
3.99 1.77 1.76 9.1477e-41
4.03 1.77 1.76 9.1477e-41
4.06 1.77 1.76 9.1477e-41
4.09 1.77 1.76 9.1477e-41
4.16 1.77 1.75 9.1477e-41
4.2 1.77 1.75 9.1477e-41
4.23 1.77 1.76 9.1477e-41
4.27 1.77 1.74 9.1477e-41
4.3 1.77 1.73 9.1477e-41
4.34 1.77 1.74 9.1477e-41
4.37 1.77 1.73 9.1477e-41
4.41 1.77 1.72 9.1477e-41
4.44 1.77 1.69 9.1477e-41
4.48 1.77 1.7 9.1477e-41
4.51 1.77 1.7 9.1477e-41
4.55 1.77 1.65 9.1477e-41
4.62 1.77 1.43 9.1477e-41
3.14 1.8 1.71 9.1477e-41
3.19 1.8 1.74 9.1477e-41
3.22 1.8 1.75 9.1477e-41
3.26 1.8 1.75 9.1477e-41
3.3 1.8 1.77 9.1477e-41
3.33 1.8 1.76 9.1477e-41
3.37 1.8 1.77 9.1477e-41
3.41 1.8 1.77 9.1477e-41
3.44 1.8 1.77 9.1477e-41
3.48 1.8 1.77 9.1477e-41
3.51 1.8 1.77 9.1477e-41
3.55 1.8 1.77 9.1477e-41
3.58 1.8 1.77 9.1477e-41
3.62 1.8 1.78 9.1477e-41
3.65 1.8 1.77 9.1477e-41
3.69 1.8 1.79 9.1477e-41
3.72 1.8 1.78 9.1477e-41
3.75 1.8 1.77 9.1477e-41
3.79 1.8 1.77 9.1477e-41
3.82 1.8 1.77 9.1477e-41
3.86 1.8 1.77 9.1477e-41
3.89 1.8 1.77 9.1477e-41
3.92 1.8 1.76 9.1477e-41
3.96 1.8 1.77 9.1477e-41
3.99 1.8 1.76 9.1477e-41
4.03 1.8 1.77 9.1477e-41
4.06 1.8 1.77 9.1477e-41
4.09 1.8 1.76 9.1477e-41
4.16 1.8 1.76 9.1477e-41
4.2 1.8 1.76 9.1477e-41
4.23 1.8 1.75 9.1477e-41
4.27 1.8 1.75 9.1477e-41
4.3 1.8 1.73 9.1477e-41
4.34 1.8 1.74 9.1477e-41
4.37 1.8 1.73 9.1477e-41
4.41 1.8 1.73 9.1477e-41
4.44 1.8 1.72 9.1477e-41
4.48 1.8 1.71 9.1477e-41
4.51 1.8 1.72 9.1477e-41
4.55 1.8 1.65 9.1477e-41
4.61 1.8 1.51 9.1477e-41
3.14 1.83 1.71 9.1477e-41
3.19 1.83 1.75 9.1477e-41
3.22 1.83 1.75 9.1477e-41
3.26 1.83 1.76 9.1477e-41
3.3 1.83 1.77 9.1477e-41
3.34 1.83 1.77 9.1477e-41
3.37 1.83 1.78 9.1477e-41
3.41 1.83 1.78 9.1477e-41
3.44 1.83 1.77 9.1477e-41
3.48 1.83 1.77 9.1477e-41
3.51 1.83 1.77 9.1477e-41
3.55 1.83 1.78 9.1477e-41
3.58 1.83 1.77 9.1477e-41
3.62 1.83 1.78 9.1477e-41
3.65 1.83 1.77 9.1477e-41
3.69 1.83 1.78 9.1477e-41
3.72 1.83 1.78 9.1477e-41
3.75 1.83 1.76 9.1477e-41
3.79 1.83 1.78 9.1477e-41
3.82 1.83 1.77 9.1477e-41
3.86 1.83 1.78 9.1477e-41
3.89 1.83 1.77 9.1477e-41
3.92 1.83 1.78 9.1477e-41
3.96 1.83 1.77 9.1477e-41
3.99 1.83 1.77 9.1477e-41
4.03 1.83 1.78 9.1477e-41
4.06 1.83 1.77 9.1477e-41
4.09 1.83 1.78 9.1477e-41
4.16 1.83 1.77 9.1477e-41
4.2 1.83 1.76 9.1477e-41
4.23 1.83 1.76 9.1477e-41
4.27 1.83 1.74 9.1477e-41
4.3 1.83 1.74 9.1477e-41
4.34 1.83 1.74 9.1477e-41
4.37 1.83 1.73 9.1477e-41
4.41 1.83 1.72 9.1477e-41
4.44 1.83 1.72 9.1477e-41
4.48 1.83 1.72 9.1477e-41
4.51 1.83 1.72 9.1477e-41
4.55 1.83 1.66 9.1477e-41
4.61 1.83 1.52 9.1477e-41
3.14 1.86 1.72 9.1477e-41
3.19 1.86 1.76 9.1477e-41
3.22 1.86 1.75 9.1477e-41
3.26 1.86 1.76 9.1477e-41
3.3 1.86 1.77 9.1477e-41
3.33 1.86 1.76 9.1477e-41
3.37 1.86 1.78 9.1477e-41
3.41 1.86 1.78 9.1477e-41
3.44 1.86 1.78 9.1477e-41
3.48 1.86 1.78 9.1477e-41
3.51 1.86 1.78 9.1477e-41
3.55 1.86 1.77 9.1477e-41
3.58 1.86 1.78 9.1477e-41
3.62 1.86 1.78 9.1477e-41
3.65 1.86 1.78 9.1477e-41
3.69 1.86 1.79 9.1477e-41
3.72 1.86 1.78 9.1477e-41
3.75 1.86 1.78 9.1477e-41
3.79 1.86 1.79 9.1477e-41
3.82 1.86 1.78 9.1477e-41
3.86 1.86 1.77 9.1477e-41
3.89 1.86 1.78 9.1477e-41
3.92 1.86 1.78 9.1477e-41
3.96 1.86 1.77 9.1477e-41
3.99 1.86 1.78 9.1477e-41
4.03 1.86 1.78 9.1477e-41
4.06 1.86 1.78 9.1477e-41
4.09 1.86 1.77 9.1477e-41
4.16 1.86 1.77 9.1477e-41
4.2 1.86 1.76 9.1477e-41
4.23 1.86 1.76 9.1477e-41
4.27 1.86 1.75 9.1477e-41
4.3 1.86 1.75 9.1477e-41
4.34 1.86 1.75 9.1477e-41
4.37 1.86 1.75 9.1477e-41
4.41 1.86 1.73 9.1477e-41
4.44 1.86 1.73 9.1477e-41
4.48 1.86 1.72 9.1477e-41
4.51 1.86 1.73 9.1477e-41
4.55 1.86 1.67 9.1477e-41
4.61 1.86 1.52 9.1477e-41
