# .PCD v.7 - Point Cloud Data file format
VERSION .7
FIELDS x y z rgb
SIZE 4 4 4 4
TYPE F F F F
WIDTH 649
HEIGHT 1
POINTS 649
DATA ascii
4.81 0 0.58 9.1477e-41
4.85 0 0.65 9.1477e-41
4.88 0 0.73 9.1477e-41
4.93 0 0.73 9.1477e-41
4.97 0 0.74 9.1477e-41
5.01 0 0.75 9.1477e-41
5.06 0 0.76 9.1477e-41
5.09 0 0.83 9.1477e-41
5.13 0 0.86 9.1477e-41
5.17 0 0.86 9.1477e-41
5.21 0 0.88 9.1477e-41
5.26 0 0.89 9.1477e-41
5.3 0 0.89 9.1477e-41
5.35 0 0.88 9.1477e-41
5.39 0 0.89 9.1477e-41
5.44 0 0.89 9.1477e-41
5.48 0 0.9 9.1477e-41
5.53 0 0.89 9.1477e-41
5.57 0 0.9 9.1477e-41
5.62 0 0.89 9.1477e-41
5.67 0 0.89 9.1477e-41
5.72 0 0.89 9.1477e-41
5.77 0 0.89 9.1477e-41
5.82 0 0.87 9.1477e-41
5.87 0 0.87 9.1477e-41
5.92 0 0.88 9.1477e-41
5.98 0 0.85 9.1477e-41
6.03 0 0.85 9.1477e-41
6.08 0 0.84 9.1477e-41
6.18 0 0.73 9.1477e-41
6.24 0 0.72 9.1477e-41
4.73 0.3 0.52 9.1477e-41
4.75 0.3 0.7 9.1477e-41
4.79 0.3 0.77 9.1477e-41
4.82 0.3 0.83 9.1477e-41
4.88 0.3 0.83 3.57e-43
4.93 0.3 0.73 9.1477e-41
4.93 0.3 0.95 9.1477e-41
4.97 0.3 0.97 9.1477e-41
5.02 0.3 0.96 9.1477e-41
5.06 0.3 0.96 9.1477e-41
5.1 0.3 0.98 9.1477e-41
5.15 0.3 0.97 9.1477e-41
5.19 0.3 0.97 9.1477e-41
5.23 0.3 0.99 9.1477e-41
5.28 0.3 0.99 9.1477e-41
5.32 0.3 0.99 9.1477e-41
5.37 0.3 0.99 9.1477e-41
5.41 0.3 0.98 9.1477e-41
5.46 0.3 0.98 9.1477e-41
5.5 0.3 1 9.1477e-41
5.55 0.3 0.99 9.1477e-41
5.59 0.3 0.99 9.1477e-41
5.64 0.3 0.99 9.1477e-41
5.68 0.3 0.98 9.1477e-41
5.73 0.3 0.98 9.1477e-41
5.78 0.3 0.98 9.1477e-41
5.83 0.3 0.98 9.1477e-41
5.87 0.3 0.99 9.1477e-41
5.93 0.3 0.98 9.1477e-41
5.98 0.3 0.96 9.1477e-41
6.03 0.3 0.97 9.1477e-41
6.08 0.3 0.96 9.1477e-41
6.14 0.3 0.94 9.1477e-41
6.18 0.3 0.96 9.1477e-41
6.25 0.3 0.96 3.57e-43
4.7 0.6 0.73 9.1477e-41
4.73 0.6 0.83 9.1477e-41
4.77 0.6 0.89 9.1477e-41
4.8 0.6 0.96 9.1477e-41
4.84 0.6 1 9.1477e-41
4.88 0.6 1.03 9.1477e-41
4.92 0.6 1.04 9.1477e-41
4.96 0.6 1.03 9.1477e-41
5 0.6 1.04 9.1477e-41
5.04 0.6 1.04 9.1477e-41
5.09 0.6 1.05 9.1477e-41
5.13 0.6 1.06 9.1477e-41
5.17 0.6 1.06 9.1477e-41
5.21 0.6 1.08 9.1477e-41
5.26 0.6 1.06 9.1477e-41
5.3 0.6 1.07 9.1477e-41
5.34 0.6 1.07 9.1477e-41
5.39 0.6 1.07 9.1477e-41
5.43 0.6 1.06 9.1477e-41
5.48 0.6 1.08 9.1477e-41
5.52 0.6 1.07 9.1477e-41
5.57 0.6 1.06 9.1477e-41
5.61 0.6 1.07 9.1477e-41
5.66 0.6 1.07 9.1477e-41
5.71 0.6 1.06 9.1477e-41
5.75 0.6 1.07 9.1477e-41
5.8 0.6 1.06 9.1477e-41
5.85 0.6 1.05 9.1477e-41
5.9 0.6 1.05 9.1477e-41
5.95 0.6 1.06 9.1477e-41
6 0.6 1.04 9.1477e-41
6.05 0.6 1.04 9.1477e-41
6.1 0.6 1.04 9.1477e-41
6.15 0.6 1.03 9.1477e-41
6.2 0.6 1.03 9.1477e-41
6.26 0.6 1.02 9.1477e-41
6.31 0.6 1.01 9.1477e-41
6.42 0.6 0.9 9.1477e-41
4.7 0.9 0.75 9.1477e-41
4.73 0.9 0.85 9.1477e-41
4.76 0.9 0.93 9.1477e-41
4.79 0.9 1.03 9.1477e-41
4.83 0.9 1.07 9.1477e-41
4.86 0.9 1.11 9.1477e-41
4.91 0.9 1.11 3.57e-43
4.96 0.9 1.11 3.57e-43
5 0.9 1.11 3.57e-43
5.04 0.9 1.11 3.57e-43
5.09 0.9 1.11 3.57e-43
5.13 0.9 1.11 3.57e-43
5.17 0.9 1.06 9.1477e-41
5.2 0.9 1.06 3.57e-43
5.26 0.9 1.06 3.57e-43
5.3 0.9 1.06 3.57e-43
5.34 0.9 1.06 3.57e-43
5.39 0.9 1.06 3.57e-43
5.43 0.9 1.06 3.57e-43
5.48 0.9 1.06 3.57e-43
5.52 0.9 1.06 3.57e-43
5.57 0.9 1.06 3.57e-43
5.61 0.9 1.06 3.57e-43
5.66 0.9 1.06 3.57e-43
5.71 0.9 1.06 3.57e-43
5.75 0.9 1.06 3.57e-43
5.8 0.9 1.06 3.57e-43
5.85 0.9 1.06 3.57e-43
5.9 0.9 1.06 3.57e-43
5.95 0.9 1.06 3.57e-43
6 0.9 1.06 3.57e-43
6.05 0.9 1.06 3.57e-43
6.1 0.9 1.06 3.57e-43
6.15 0.9 1.03 9.1477e-41
6.21 0.9 1.01 9.1477e-41
6.26 0.9 1.02 9.1477e-41
6.3 0.9 1.04 9.1477e-41
6.33 0.9 1.07 9.1477e-41
6.44 0.9 0.97 9.1477e-41
4.7 1.2 0.4 9.1477e-41
4.71 1.2 0.67 9.1477e-41
4.73 1.2 0.86 9.1477e-41
4.76 1.2 0.95 9.1477e-41
4.8 1.2 0.98 9.1477e-41
4.81 1.2 1.18 9.1477e-41
4.84 1.2 1.24 9.1477e-41
4.88 1.2 1.25 9.1477e-41
4.92 1.2 1.25 3.57e-43
5 1.2 1.25 3.57e-43
5.04 1.2 1.25 3.57e-43
5.09 1.2 1.25 3.57e-43
5.13 1.2 1.25 3.57e-43
5.17 1.2 1.25 3.57e-43
5.2 1.2 1.25 3.57e-43
5.26 1.2 1.25 3.57e-43
5.3 1.2 1.25 3.57e-43
5.34 1.2 1.25 3.57e-43
5.39 1.2 1.25 3.57e-43
5.43 1.2 1.25 3.57e-43
5.48 1.2 1.25 3.57e-43
5.52 1.2 1.25 3.57e-43
5.57 1.2 1.25 3.57e-43
5.61 1.2 1.25 3.57e-43
5.66 1.2 1.25 3.57e-43
5.71 1.2 1.25 3.57e-43
5.75 1.2 1.25 3.57e-43
5.8 1.2 1.25 3.57e-43
5.85 1.2 1.25 3.57e-43
5.9 1.2 1.25 3.57e-43
5.95 1.2 1.25 3.57e-43
6 1.2 1.25 3.57e-43
6.05 1.2 1.25 3.57e-43
6.1 1.2 1.25 3.57e-43
6.15 1.2 1.25 3.57e-43
6.21 1.2 1.25 3.57e-43
6.26 1.2 1.25 3.57e-43
6.3 1.2 1.04 9.1477e-41
6.28 1.2 1.18 9.1477e-41
6.32 1.2 1.21 9.1477e-41
6.41 1.2 1.13 9.1477e-41
4.61 1.5 1.19 9.1477e-41
4.65 1.5 1.14 9.1477e-41
4.72 1.5 0.94 9.1477e-41
4.76 1.5 0.99 9.1477e-41
4.8 1.5 0.99 3.57e-43
4.81 1.5 0.99 3.57e-43
4.84 1.5 1.24 9.1477e-41
4.85 1.5 1.4 9.1477e-41
4.89 1.5 1.42 9.1477e-41
4.92 1.5 1.45 9.1477e-41
4.96 1.5 1.45 3.57e-43
5.09 1.5 1.45 3.57e-43
5.13 1.5 1.45 3.57e-43
5.17 1.5 1.45 3.57e-43
5.2 1.5 1.45 3.57e-43
5.26 1.5 1.45 3.57e-43
5.3 1.5 1.45 3.57e-43
5.34 1.5 1.45 3.57e-43
5.39 1.5 1.45 3.57e-43
5.43 1.5 1.45 3.57e-43
5.48 1.5 1.45 3.57e-43
5.52 1.5 1.45 3.57e-43
5.57 1.5 1.45 3.57e-43
5.61 1.5 1.45 3.57e-43
5.66 1.5 1.45 3.57e-43
5.71 1.5 1.45 3.57e-43
5.75 1.5 1.45 3.57e-43
5.8 1.5 1.45 3.57e-43
5.85 1.5 1.45 3.57e-43
5.9 1.5 1.45 3.57e-43
5.95 1.5 1.45 3.57e-43
6 1.5 1.45 3.57e-43
6.05 1.5 1.45 3.57e-43
6.1 1.5 1.45 3.57e-43
6.15 1.5 1.45 3.57e-43
6.21 1.5 1.45 3.57e-43
6.26 1.5 1.45 3.57e-43
6.3 1.5 1.45 3.57e-43
6.28 1.5 1.45 3.57e-43
6.32 1.5 1.45 3.57e-43
6.41 1.5 1.13 9.1477e-41
6.32 1.5 1.41 9.1477e-41
6.36 1.5 1.42 9.1477e-41
6.52 1.5 1.42 3.57e-43
4.68 1.8 0.54 9.1477e-41
4.7 1.8 0.73 9.1477e-41
4.72 1.8 0.92 9.1477e-41
4.75 1.8 1.02 9.1477e-41
4.79 1.8 1.02 3.57e-43
4.81 1.8 1.02 3.57e-43
4.84 1.8 1.02 3.57e-43
4.85 1.8 1.4 9.1477e-41
4.87 1.8 1.53 9.1477e-41
4.9 1.8 1.57 9.1477e-41
4.93 1.8 1.59 9.1477e-41
4.97 1.8 1.61 9.1477e-41
5.01 1.8 1.59 9.1477e-41
5.04 1.8 1.6 9.1477e-41
5.08 1.8 1.61 9.1477e-41
5.12 1.8 1.62 9.1477e-41
5.15 1.8 1.63 9.1477e-41
5.19 1.8 1.63 9.1477e-41
5.23 1.8 1.64 9.1477e-41
5.26 1.8 1.65 9.1477e-41
5.3 1.8 1.64 9.1477e-41
5.34 1.8 1.64 9.1477e-41
5.39 1.8 1.63 9.1477e-41
5.42 1.8 1.64 9.1477e-41
5.46 1.8 1.64 9.1477e-41
5.5 1.8 1.64 9.1477e-41
5.54 1.8 1.64 9.1477e-41
5.59 1.8 1.64 9.1477e-41
5.63 1.8 1.64 9.1477e-41
5.67 1.8 1.64 9.1477e-41
5.71 1.8 1.64 9.1477e-41
5.75 1.8 1.64 9.1477e-41
5.79 1.8 1.64 9.1477e-41
5.84 1.8 1.63 9.1477e-41
5.89 1.8 1.63 9.1477e-41
5.93 1.8 1.63 9.1477e-41
5.97 1.8 1.63 9.1477e-41
6.02 1.8 1.62 9.1477e-41
6.07 1.8 1.62 9.1477e-41
6.12 1.8 1.61 9.1477e-41
6.17 1.8 1.61 9.1477e-41
6.22 1.8 1.6 9.1477e-41
6.27 1.8 1.59 9.1477e-41
6.32 1.8 1.58 9.1477e-41
4.68 2.1 0.56 9.1477e-41
4.71 2.1 0.72 9.1477e-41
4.72 2.1 0.92 9.1477e-41
4.74 2.1 1.06 9.1477e-41
4.78 2.1 1.11 9.1477e-41
4.82 2.1 1.11 3.57e-43
4.84 2.1 1.11 3.57e-43
4.85 2.1 1.11 3.57e-43
4.87 2.1 1.53 9.1477e-41
4.89 2.1 1.6 9.1477e-41
4.92 2.1 1.64 9.1477e-41
4.95 2.1 1.67 9.1477e-41
4.99 2.1 1.68 9.1477e-41
5.02 2.1 1.68 9.1477e-41
5.06 2.1 1.7 9.1477e-41
5.1 2.1 1.7 9.1477e-41
5.13 2.1 1.72 9.1477e-41
5.17 2.1 1.71 9.1477e-41
5.2 2.1 1.72 9.1477e-41
5.24 2.1 1.71 9.1477e-41
5.28 2.1 1.72 9.1477e-41
5.32 2.1 1.72 9.1477e-41
5.36 2.1 1.72 9.1477e-41
5.39 2.1 1.73 9.1477e-41
5.43 2.1 1.72 9.1477e-41
5.48 2.1 1.73 9.1477e-41
5.51 2.1 1.73 9.1477e-41
5.56 2.1 1.72 9.1477e-41
5.59 2.1 1.73 9.1477e-41
5.64 2.1 1.71 9.1477e-41
5.67 2.1 1.72 9.1477e-41
5.72 2.1 1.71 9.1477e-41
5.76 2.1 1.73 9.1477e-41
5.81 2.1 1.71 9.1477e-41
5.85 2.1 1.72 9.1477e-41
5.89 2.1 1.71 9.1477e-41
5.94 2.1 1.71 9.1477e-41
5.98 2.1 1.72 9.1477e-41
6.03 2.1 1.7 9.1477e-41
6.07 2.1 1.71 9.1477e-41
6.12 2.1 1.69 9.1477e-41
6.17 2.1 1.7 9.1477e-41
6.22 2.1 1.68 9.1477e-41
6.27 2.1 1.68 9.1477e-41
4.68 2.4 0.52 9.1477e-41
4.7 2.4 0.74 9.1477e-41
4.72 2.4 0.94 9.1477e-41
4.74 2.4 1.07 9.1477e-41
4.77 2.4 1.19 9.1477e-41
4.79 2.4 1.28 9.1477e-41
4.82 2.4 1.38 9.1477e-41
4.84 2.4 1.45 9.1477e-41
4.87 2.4 1.53 9.1477e-41
4.89 2.4 1.6 9.1477e-41
4.92 2.4 1.66 9.1477e-41
4.95 2.4 1.68 9.1477e-41
4.98 2.4 1.71 9.1477e-41
5.01 2.4 1.73 9.1477e-41
5.05 2.4 1.73 9.1477e-41
5.09 2.4 1.74 9.1477e-41
5.12 2.4 1.75 9.1477e-41
5.15 2.4 1.76 9.1477e-41
5.19 2.4 1.75 9.1477e-41
5.23 2.4 1.77 9.1477e-41
5.27 2.4 1.77 9.1477e-41
5.31 2.4 1.77 9.1477e-41
5.34 2.4 1.77 9.1477e-41
5.38 2.4 1.76 9.1477e-41
5.42 2.4 1.76 9.1477e-41
5.46 2.4 1.76 9.1477e-41
5.5 2.4 1.77 9.1477e-41
5.54 2.4 1.77 9.1477e-41
5.58 2.4 1.77 9.1477e-41
5.62 2.4 1.77 9.1477e-41
5.66 2.4 1.77 9.1477e-41
5.7 2.4 1.78 9.1477e-41
5.74 2.4 1.76 9.1477e-41
5.79 2.4 1.76 9.1477e-41
5.83 2.4 1.76 9.1477e-41
5.87 2.4 1.76 9.1477e-41
5.92 2.4 1.76 9.1477e-41
5.96 2.4 1.76 9.1477e-41
6 2.4 1.77 9.1477e-41
6.05 2.4 1.75 9.1477e-41
6.09 2.4 1.75 9.1477e-41
6.14 2.4 1.75 9.1477e-41
6.19 2.4 1.74 9.1477e-41
6.24 2.4 1.73 9.1477e-41
6.29 2.4 1.72 9.1477e-41
4.7 2.7 0.75 9.1477e-41
4.72 2.7 0.96 9.1477e-41
4.74 2.7 1.08 9.1477e-41
4.78 2.7 1.08 3.57e-43
4.79 2.7 1.08 3.57e-43
4.82 2.7 1.08 3.57e-43
4.84 2.7 1.08 3.57e-43
4.87 2.7 1.08 3.57e-43
4.89 2.7 1.6 9.1477e-41
4.92 2.7 1.67 9.1477e-41
4.94 2.7 1.71 9.1477e-41
4.97 2.7 1.74 9.1477e-41
5.01 2.7 1.75 9.1477e-41
5.05 2.7 1.76 9.1477e-41
5.08 2.7 1.77 9.1477e-41
5.11 2.7 1.77 9.1477e-41
5.15 2.7 1.78 9.1477e-41
5.19 2.7 1.78 9.1477e-41
5.22 2.7 1.79 9.1477e-41
5.26 2.7 1.78 9.1477e-41
5.3 2.7 1.79 9.1477e-41
5.34 2.7 1.78 9.1477e-41
5.37 2.7 1.81 9.1477e-41
5.41 2.7 1.79 9.1477e-41
5.45 2.7 1.79 9.1477e-41
5.49 2.7 1.79 9.1477e-41
5.53 2.7 1.8 9.1477e-41
5.57 2.7 1.79 9.1477e-41
5.61 2.7 1.79 9.1477e-41
5.65 2.7 1.78 9.1477e-41
5.69 2.7 1.8 9.1477e-41
5.73 2.7 1.8 9.1477e-41
5.77 2.7 1.8 9.1477e-41
5.82 2.7 1.78 9.1477e-41
5.86 2.7 1.78 9.1477e-41
5.9 2.7 1.78 9.1477e-41
5.95 2.7 1.79 9.1477e-41
5.99 2.7 1.77 9.1477e-41
6.04 2.7 1.77 9.1477e-41
6.08 2.7 1.77 9.1477e-41
6.13 2.7 1.76 9.1477e-41
6.18 2.7 1.76 9.1477e-41
6.23 2.7 1.75 9.1477e-41
6.28 2.7 1.74 9.1477e-41
4.7 3 0.74 9.1477e-41
4.72 3 0.94 9.1477e-41
4.74 3 1.08 9.1477e-41
4.78 3 1.08 3.57e-43
4.79 3 1.08 3.57e-43
4.82 3 1.08 3.57e-43
4.84 3 1.08 3.57e-43
4.87 3 1.08 3.57e-43
4.89 3 1.6 9.1477e-41
4.91 3 1.69 9.1477e-41
4.94 3 1.71 9.1477e-41
4.97 3 1.74 9.1477e-41
5 3 1.77 9.1477e-41
5.04 3 1.76 9.1477e-41
5.07 3 1.79 9.1477e-41
5.11 3 1.78 9.1477e-41
5.15 3 1.78 9.1477e-41
5.19 3 1.78 9.1477e-41
5.22 3 1.81 9.1477e-41
5.26 3 1.8 9.1477e-41
5.29 3 1.81 9.1477e-41
5.33 3 1.81 9.1477e-41
5.37 3 1.83 9.1477e-41
5.41 3 1.81 9.1477e-41
5.45 3 1.8 9.1477e-41
5.48 3 1.81 9.1477e-41
5.52 3 1.81 9.1477e-41
5.56 3 1.81 9.1477e-41
5.6 3 1.8 9.1477e-41
5.64 3 1.81 9.1477e-41
5.68 3 1.8 9.1477e-41
5.73 3 1.8 9.1477e-41
5.76 3 1.81 9.1477e-41
5.81 3 1.8 9.1477e-41
5.85 3 1.8 9.1477e-41
5.89 3 1.8 9.1477e-41
5.94 3 1.8 9.1477e-41
5.98 3 1.79 9.1477e-41
6.03 3 1.78 9.1477e-41
6.07 3 1.79 9.1477e-41
6.12 3 1.78 9.1477e-41
6.17 3 1.78 9.1477e-41
6.22 3 1.77 9.1477e-41
6.27 3 1.77 9.1477e-41
4.7 3.3 0.75 9.1477e-41
4.72 3.3 0.91 9.1477e-41
4.74 3.3 1.08 9.1477e-41
4.78 3.3 1.08 3.57e-43
4.79 3.3 1.08 3.57e-43
4.82 3.3 1.08 3.57e-43
4.84 3.3 1.08 3.57e-43
4.87 3.3 1.08 3.57e-43
4.89 3.3 1.6 9.1477e-41
4.91 3.3 1.69 9.1477e-41
4.94 3.3 1.71 9.1477e-41
4.97 3.3 1.74 9.1477e-41
5 3.3 1.78 9.1477e-41
5.04 3.3 1.79 9.1477e-41
5.07 3.3 1.79 9.1477e-41
5.11 3.3 1.8 9.1477e-41
5.15 3.3 1.79 9.1477e-41
5.18 3.3 1.8 9.1477e-41
5.22 3.3 1.8 9.1477e-41
5.25 3.3 1.81 9.1477e-41
5.29 3.3 1.81 9.1477e-41
5.33 3.3 1.81 9.1477e-41
5.37 3.3 1.83 9.1477e-41
5.41 3.3 1.81 9.1477e-41
5.44 3.3 1.82 9.1477e-41
5.48 3.3 1.82 9.1477e-41
5.52 3.3 1.83 9.1477e-41
5.56 3.3 1.82 9.1477e-41
5.6 3.3 1.82 9.1477e-41
5.64 3.3 1.81 9.1477e-41
5.68 3.3 1.81 9.1477e-41
5.72 3.3 1.81 9.1477e-41
5.76 3.3 1.82 9.1477e-41
5.8 3.3 1.82 9.1477e-41
5.85 3.3 1.81 9.1477e-41
5.89 3.3 1.8 9.1477e-41
5.93 3.3 1.81 9.1477e-41
5.98 3.3 1.81 9.1477e-41
6.03 3.3 1.79 9.1477e-41
6.07 3.3 1.8 9.1477e-41
6.12 3.3 1.79 9.1477e-41
6.16 3.3 1.79 9.1477e-41
6.22 3.3 1.77 9.1477e-41
6.26 3.3 1.78 9.1477e-41
4.69 3.6 0.83 9.1477e-41
4.72 3.6 0.93 9.1477e-41
4.75 3.6 1.06 9.1477e-41
4.77 3.6 1.06 3.57e-43
4.79 3.6 1.06 3.57e-43
4.82 3.6 1.06 3.57e-43
4.84 3.6 1.06 3.57e-43
4.87 3.6 1.06 3.57e-43
4.89 3.6 1.6 9.1477e-41
4.91 3.6 1.68 9.1477e-41
4.94 3.6 1.71 9.1477e-41
4.97 3.6 1.75 9.1477e-41
5 3.6 1.78 9.1477e-41
5.04 3.6 1.78 9.1477e-41
5.07 3.6 1.79 9.1477e-41
5.11 3.6 1.79 9.1477e-41
5.14 3.6 1.8 9.1477e-41
5.18 3.6 1.8 9.1477e-41
5.22 3.6 1.81 9.1477e-41
5.25 3.6 1.81 9.1477e-41
5.29 3.6 1.82 9.1477e-41
5.33 3.6 1.81 9.1477e-41
5.37 3.6 1.83 9.1477e-41
5.4 3.6 1.83 9.1477e-41
5.44 3.6 1.82 9.1477e-41
5.48 3.6 1.83 9.1477e-41
5.52 3.6 1.83 9.1477e-41
5.56 3.6 1.82 9.1477e-41
5.6 3.6 1.82 9.1477e-41
5.63 3.6 1.83 9.1477e-41
5.68 3.6 1.81 9.1477e-41
5.72 3.6 1.82 9.1477e-41
5.76 3.6 1.82 9.1477e-41
5.8 3.6 1.82 9.1477e-41
5.84 3.6 1.82 9.1477e-41
5.89 3.6 1.81 9.1477e-41
5.92 3.6 1.83 9.1477e-41
5.98 3.6 1.81 9.1477e-41
6.02 3.6 1.81 9.1477e-41
6.07 3.6 1.8 9.1477e-41
6.11 3.6 1.8 9.1477e-41
6.16 3.6 1.8 9.1477e-41
6.21 3.6 1.78 9.1477e-41
6.26 3.6 1.78 9.1477e-41
4.7 3.9 0.79 9.1477e-41
4.73 3.9 0.9 9.1477e-41
4.75 3.9 1.04 9.1477e-41
4.78 3.9 1.14 9.1477e-41
4.8 3.9 1.14 3.57e-43
4.82 3.9 1.14 3.57e-43
4.84 3.9 1.14 3.57e-43
4.87 3.9 1.14 3.57e-43
4.89 3.9 1.6 9.1477e-41
4.92 3.9 1.67 9.1477e-41
4.94 3.9 1.71 9.1477e-41
4.97 3.9 1.74 9.1477e-41
5 3.9 1.79 9.1477e-41
5.04 3.9 1.78 9.1477e-41
5.07 3.9 1.79 9.1477e-41
5.11 3.9 1.79 9.1477e-41
5.15 3.9 1.79 9.1477e-41
5.18 3.9 1.8 9.1477e-41
5.22 3.9 1.81 9.1477e-41
5.25 3.9 1.81 9.1477e-41
5.29 3.9 1.82 9.1477e-41
5.33 3.9 1.81 9.1477e-41
5.37 3.9 1.82 9.1477e-41
5.4 3.9 1.82 9.1477e-41
5.44 3.9 1.81 9.1477e-41
5.48 3.9 1.82 9.1477e-41
5.52 3.9 1.82 9.1477e-41
5.56 3.9 1.83 9.1477e-41
5.6 3.9 1.81 9.1477e-41
5.64 3.9 1.81 9.1477e-41
5.68 3.9 1.82 9.1477e-41
5.73 3.9 1.8 9.1477e-41
5.76 3.9 1.82 9.1477e-41
5.8 3.9 1.82 9.1477e-41
5.85 3.9 1.81 9.1477e-41
5.89 3.9 1.8 9.1477e-41
5.93 3.9 1.81 9.1477e-41
5.97 3.9 1.82 9.1477e-41
6.02 3.9 1.81 9.1477e-41
6.06 3.9 1.81 9.1477e-41
6.11 3.9 1.81 9.1477e-41
6.15 3.9 1.83 9.1477e-41
6.22 3.9 1.77 9.1477e-41
6.25 3.9 1.8 9.1477e-41
4.72 4.2 0.61 9.1477e-41
4.74 4.2 0.79 9.1477e-41
4.75 4.2 1 9.1477e-41
4.78 4.2 1.13 9.1477e-41
4.8 4.2 1.25 9.1477e-41
4.82 4.2 1.34 9.1477e-41
4.85 4.2 1.42 9.1477e-41
4.87 4.2 1.5 9.1477e-41
4.9 4.2 1.57 9.1477e-41
4.92 4.2 1.63 9.1477e-41
4.95 4.2 1.68 9.1477e-41
4.98 4.2 1.71 9.1477e-41
5.01 4.2 1.74 9.1477e-41
5.04 4.2 1.76 9.1477e-41
5.08 4.2 1.77 9.1477e-41
5.11 4.2 1.77 9.1477e-41
5.15 4.2 1.78 9.1477e-41
5.19 4.2 1.78 9.1477e-41
5.22 4.2 1.8 9.1477e-41
5.26 4.2 1.79 9.1477e-41
5.3 4.2 1.79 9.1477e-41
5.33 4.2 1.81 9.1477e-41
5.37 4.2 1.81 9.1477e-41
5.41 4.2 1.8 9.1477e-41
5.45 4.2 1.8 9.1477e-41
5.49 4.2 1.79 9.1477e-41
5.52 4.2 1.81 9.1477e-41
5.56 4.2 1.81 9.1477e-41
5.6 4.2 1.8 9.1477e-41
5.65 4.2 1.8 9.1477e-41
5.68 4.2 1.8 9.1477e-41
5.73 4.2 1.79 9.1477e-41
5.77 4.2 1.8 9.1477e-41
5.81 4.2 1.79 9.1477e-41
5.85 4.2 1.8 9.1477e-41
5.89 4.2 1.8 9.1477e-41
5.94 4.2 1.8 9.1477e-41
5.98 4.2 1.8 9.1477e-41
6.03 4.2 1.79 9.1477e-41
6.08 4.2 1.78 9.1477e-41
6.12 4.2 1.78 9.1477e-41
6.16 4.2 1.8 9.1477e-41
6.24 4.2 1.73 9.1477e-41
6.27 4.2 1.76 9.1477e-41
4.85 4.5 1.42 9.1477e-41
5.16 4.5 0.46 9.1477e-41
5.21 4.5 0.48 9.1477e-41
5.25 4.5 0.51 9.1477e-41
5.3 4.5 0.51 9.1477e-41
5.35 4.5 0.5 9.1477e-41
5.4 4.5 0.49 9.1477e-41
5.45 4.5 0.49 9.1477e-41
5.5 4.5 0.5 9.1477e-41
5.55 4.5 0.5 9.1477e-41
5.6 4.5 0.49 9.1477e-41
5.65 4.5 0.49 9.1477e-41
5.7 4.5 0.49 9.1477e-41
5.75 4.5 0.5 9.1477e-41
5.8 4.5 0.5 9.1477e-41
5.85 4.5 0.5 9.1477e-41
5.9 4.5 0.51 9.1477e-41
5.95 4.5 0.5 9.1477e-41
6.01 4.5 0.5 9.1477e-41
6.06 4.5 0.49 9.1477e-41
6.11 4.5 0.5 9.1477e-41
6.17 4.5 0.5 9.1477e-41
6.22 4.5 0.51 9.1477e-41
6.29 4.5 0.46 9.1477e-41
