# .PCD v.7 - Point Cloud Data file format
VERSION .7
FIELDS x y z rgb
SIZE 4 4 4 4
TYPE F F F F
WIDTH 1878
HEIGHT 1
POINTS 1878
DATA ascii
2.51 1.89 0.92 9.1477e-41
2.61 1.89 1.12 9.1477e-41
2.65 1.89 1.11 9.1477e-41
2.69 1.89 1.07 9.1477e-41
2.7 1.89 0.98 9.1477e-41
2.71 1.89 0.85 9.1477e-41
2.72 1.89 0.7 9.1477e-41
2.7 1.89 0.46 9.1477e-41
1.17 1.92 1.72 9.1477e-41
1.21 1.92 1.71 9.1477e-41
1.28 1.92 1.73 9.1477e-41
1.34 1.92 1.74 9.1477e-41
1.39 1.92 1.74 9.1477e-41
1.44 1.92 1.74 9.1477e-41
1.5 1.92 1.75 9.1477e-41
1.55 1.92 1.75 9.1477e-41
1.59 1.92 1.74 9.1477e-41
1.64 1.92 1.75 9.1477e-41
1.69 1.92 1.74 9.1477e-41
1.74 1.92 1.75 9.1477e-41
1.78 1.92 1.75 9.1477e-41
1.83 1.92 1.75 9.1477e-41
1.87 1.92 1.74 9.1477e-41
1.92 1.92 1.75 9.1477e-41
1.96 1.92 1.74 9.1477e-41
2 1.92 1.74 9.1477e-41
2.05 1.92 1.75 9.1477e-41
2.09 1.92 1.74 9.1477e-41
2.13 1.92 1.74 9.1477e-41
2.18 1.92 1.75 9.1477e-41
2.21 1.92 1.73 9.1477e-41
2.25 1.92 1.72 9.1477e-41
2.3 1.92 1.73 9.1477e-41
2.33 1.92 1.72 9.1477e-41
2.37 1.92 1.7 9.1477e-41
2.41 1.92 1.71 9.1477e-41
2.45 1.92 1.7 9.1477e-41
2.48 1.92 1.69 9.1477e-41
2.52 1.92 1.68 9.1477e-41
2.55 1.92 1.64 9.1477e-41
2.55 1.92 1.53 9.1477e-41
2.38 1.92 0.96 9.1477e-41
2.38 1.92 0.83 9.1477e-41
2.41 1.92 0.78 9.1477e-41
2.5 1.92 0.9 9.1477e-41
2.62 1.92 1.13 9.1477e-41
2.65 1.92 1.11 9.1477e-41
2.69 1.92 1.07 9.1477e-41
2.71 1.92 0.99 9.1477e-41
2.71 1.92 0.86 9.1477e-41
2.72 1.92 0.7 9.1477e-41
2.7 1.92 0.47 9.1477e-41
1.17 1.95 1.73 9.1477e-41
1.21 1.95 1.71 9.1477e-41
1.28 1.95 1.73 9.1477e-41
1.35 1.95 1.75 9.1477e-41
1.39 1.95 1.74 9.1477e-41
1.45 1.95 1.75 9.1477e-41
1.5 1.95 1.76 9.1477e-41
1.55 1.95 1.75 9.1477e-41
1.6 1.95 1.76 9.1477e-41
1.65 1.95 1.76 9.1477e-41
1.69 1.95 1.75 9.1477e-41
1.74 1.95 1.76 9.1477e-41
1.79 1.95 1.75 9.1477e-41
1.84 1.95 1.76 9.1477e-41
1.87 1.95 1.75 9.1477e-41
1.92 1.95 1.76 9.1477e-41
1.96 1.95 1.75 9.1477e-41
2.01 1.95 1.75 9.1477e-41
2.05 1.95 1.75 9.1477e-41
2.09 1.95 1.75 9.1477e-41
2.14 1.95 1.76 9.1477e-41
2.17 1.95 1.74 9.1477e-41
2.22 1.95 1.74 9.1477e-41
2.26 1.95 1.73 9.1477e-41
2.3 1.95 1.73 9.1477e-41
2.34 1.95 1.73 9.1477e-41
2.38 1.95 1.72 9.1477e-41
2.41 1.95 1.72 9.1477e-41
2.45 1.95 1.7 9.1477e-41
2.49 1.95 1.71 9.1477e-41
2.53 1.95 1.69 9.1477e-41
2.55 1.95 1.65 9.1477e-41
2.54 1.95 1.53 9.1477e-41
2.37 1.95 0.94 9.1477e-41
2.38 1.95 0.82 9.1477e-41
2.41 1.95 0.78 9.1477e-41
2.48 1.95 0.84 9.1477e-41
2.62 1.95 1.15 9.1477e-41
2.66 1.95 1.13 9.1477e-41
2.69 1.95 1.08 9.1477e-41
2.71 1.95 0.99 9.1477e-41
2.71 1.95 0.86 9.1477e-41
2.72 1.95 0.7 9.1477e-41
2.7 1.95 0.47 9.1477e-41
1.18 1.98 1.74 9.1477e-41
1.23 1.98 1.73 9.1477e-41
1.29 1.98 1.74 9.1477e-41
1.35 1.98 1.75 9.1477e-41
1.39 1.98 1.74 9.1477e-41
1.45 1.98 1.75 9.1477e-41
1.51 1.98 1.76 9.1477e-41
1.55 1.98 1.76 9.1477e-41
1.6 1.98 1.76 9.1477e-41
1.65 1.98 1.77 9.1477e-41
1.7 1.98 1.76 9.1477e-41
1.75 1.98 1.77 9.1477e-41
1.8 1.98 1.77 9.1477e-41
1.84 1.98 1.77 9.1477e-41
1.87 1.98 1.75 9.1477e-41
1.92 1.98 1.76 9.1477e-41
1.97 1.98 1.76 9.1477e-41
2.01 1.98 1.75 9.1477e-41
2.05 1.98 1.75 9.1477e-41
2.1 1.98 1.76 9.1477e-41
2.14 1.98 1.76 9.1477e-41
2.19 1.98 1.77 9.1477e-41
2.22 1.98 1.75 9.1477e-41
2.26 1.98 1.74 9.1477e-41
2.3 1.98 1.74 9.1477e-41
2.34 1.98 1.74 9.1477e-41
2.38 1.98 1.73 9.1477e-41
2.41 1.98 1.72 9.1477e-41
2.45 1.98 1.71 9.1477e-41
2.5 1.98 1.72 9.1477e-41
2.53 1.98 1.7 9.1477e-41
2.55 1.98 1.66 9.1477e-41
2.54 1.98 1.51 9.1477e-41
2.37 1.98 0.94 9.1477e-41
2.38 1.98 0.84 9.1477e-41
2.41 1.98 0.77 9.1477e-41
2.46 1.98 0.78 9.1477e-41
2.63 1.98 1.16 9.1477e-41
2.66 1.98 1.14 9.1477e-41
2.69 1.98 1.08 9.1477e-41
2.71 1.98 1.01 9.1477e-41
2.71 1.98 0.85 9.1477e-41
2.72 1.98 0.7 9.1477e-41
2.7 1.98 0.48 9.1477e-41
1.19 2.01 1.74 9.1477e-41
1.23 2.01 1.74 9.1477e-41
1.31 2.01 1.77 9.1477e-41
1.35 2.01 1.76 9.1477e-41
1.4 2.01 1.76 9.1477e-41
1.45 2.01 1.75 9.1477e-41
1.51 2.01 1.77 9.1477e-41
1.56 2.01 1.77 9.1477e-41
1.61 2.01 1.77 9.1477e-41
1.66 2.01 1.77 9.1477e-41
1.7 2.01 1.77 9.1477e-41
1.75 2.01 1.77 9.1477e-41
1.79 2.01 1.76 9.1477e-41
1.84 2.01 1.77 9.1477e-41
1.88 2.01 1.76 9.1477e-41
1.93 2.01 1.77 9.1477e-41
1.98 2.01 1.77 9.1477e-41
2.02 2.01 1.77 9.1477e-41
2.06 2.01 1.76 9.1477e-41
2.1 2.01 1.76 9.1477e-41
2.14 2.01 1.76 9.1477e-41
2.18 2.01 1.76 9.1477e-41
2.22 2.01 1.75 9.1477e-41
2.27 2.01 1.75 9.1477e-41
2.31 2.01 1.75 9.1477e-41
2.34 2.01 1.74 9.1477e-41
2.38 2.01 1.74 9.1477e-41
2.42 2.01 1.73 9.1477e-41
2.45 2.01 1.71 9.1477e-41
2.5 2.01 1.73 9.1477e-41
2.53 2.01 1.7 9.1477e-41
2.55 2.01 1.66 9.1477e-41
2.53 2.01 1.49 9.1477e-41
2.37 2.01 0.93 9.1477e-41
2.38 2.01 0.84 9.1477e-41
2.38 2.01 0.7 9.1477e-41
2.47 2.01 0.81 9.1477e-41
2.63 2.01 1.16 9.1477e-41
2.67 2.01 1.14 9.1477e-41
2.69 2.01 1.08 9.1477e-41
2.71 2.01 0.99 9.1477e-41
2.71 2.01 0.85 9.1477e-41
2.72 2.01 0.71 9.1477e-41
2.7 2.01 0.47 9.1477e-41
1.19 2.04 1.74 9.1477e-41
1.24 2.04 1.74 9.1477e-41
1.31 2.04 1.77 9.1477e-41
1.36 2.04 1.77 9.1477e-41
1.41 2.04 1.77 9.1477e-41
1.46 2.04 1.77 9.1477e-41
1.51 2.04 1.77 9.1477e-41
1.57 2.04 1.78 9.1477e-41
1.61 2.04 1.78 9.1477e-41
1.66 2.04 1.77 9.1477e-41
1.7 2.04 1.77 9.1477e-41
1.76 2.04 1.78 9.1477e-41
1.8 2.04 1.77 9.1477e-41
1.85 2.04 1.78 9.1477e-41
1.89 2.04 1.78 9.1477e-41
1.93 2.04 1.77 9.1477e-41
1.98 2.04 1.77 9.1477e-41
2.02 2.04 1.78 9.1477e-41
2.06 2.04 1.77 9.1477e-41
2.11 2.04 1.77 9.1477e-41
2.15 2.04 1.77 9.1477e-41
2.18 2.04 1.76 9.1477e-41
2.23 2.04 1.77 9.1477e-41
2.27 2.04 1.76 9.1477e-41
2.31 2.04 1.75 9.1477e-41
2.35 2.04 1.75 9.1477e-41
2.39 2.04 1.75 9.1477e-41
2.42 2.04 1.73 9.1477e-41
2.46 2.04 1.72 9.1477e-41
2.5 2.04 1.73 9.1477e-41
2.53 2.04 1.69 9.1477e-41
2.55 2.04 1.65 9.1477e-41
2.53 2.04 1.48 9.1477e-41
2.37 2.04 0.93 9.1477e-41
2.39 2.04 0.86 9.1477e-41
2.4 2.04 0.86 3.57e-43
2.47 2.04 0.81 9.1477e-41
2.63 2.04 1.18 9.1477e-41
2.67 2.04 1.14 9.1477e-41
2.69 2.04 1.08 9.1477e-41
2.7 2.04 0.97 9.1477e-41
2.71 2.04 0.85 9.1477e-41
2.72 2.04 0.71 9.1477e-41
2.7 2.04 0.47 9.1477e-41
1.2 2.07 1.76 9.1477e-41
1.24 2.07 1.75 9.1477e-41
1.31 2.07 1.78 9.1477e-41
1.36 2.07 1.77 9.1477e-41
1.42 2.07 1.78 9.1477e-41
1.46 2.07 1.77 9.1477e-41
1.52 2.07 1.78 9.1477e-41
1.57 2.07 1.78 9.1477e-41
1.61 2.07 1.78 9.1477e-41
1.67 2.07 1.79 9.1477e-41
1.71 2.07 1.79 9.1477e-41
1.76 2.07 1.78 9.1477e-41
1.8 2.07 1.78 9.1477e-41
1.85 2.07 1.78 9.1477e-41
1.89 2.07 1.78 9.1477e-41
1.94 2.07 1.78 9.1477e-41
1.98 2.07 1.78 9.1477e-41
2.02 2.07 1.77 9.1477e-41
2.06 2.07 1.77 9.1477e-41
2.11 2.07 1.78 9.1477e-41
2.15 2.07 1.77 9.1477e-41
2.19 2.07 1.77 9.1477e-41
2.24 2.07 1.78 9.1477e-41
2.27 2.07 1.76 9.1477e-41
2.31 2.07 1.76 9.1477e-41
2.35 2.07 1.76 9.1477e-41
2.39 2.07 1.75 9.1477e-41
2.42 2.07 1.74 9.1477e-41
2.46 2.07 1.73 9.1477e-41
2.5 2.07 1.73 9.1477e-41
2.53 2.07 1.7 9.1477e-41
2.55 2.07 1.65 9.1477e-41
2.52 2.07 1.46 9.1477e-41
2.38 2.07 0.98 9.1477e-41
2.45 2.07 1.02 9.1477e-41
2.45 2.07 1.02 3.57e-43
2.47 2.07 0.81 9.1477e-41
2.64 2.07 1.19 9.1477e-41
2.67 2.07 1.15 9.1477e-41
2.69 2.07 1.08 9.1477e-41
2.7 2.07 0.97 9.1477e-41
2.71 2.07 0.84 9.1477e-41
2.72 2.07 0.71 9.1477e-41
2.7 2.07 0.46 9.1477e-41
1.19 2.1 1.75 9.1477e-41
1.26 2.1 1.77 9.1477e-41
1.31 2.1 1.78 9.1477e-41
1.36 2.1 1.78 9.1477e-41
1.42 2.1 1.79 9.1477e-41
1.47 2.1 1.79 9.1477e-41
1.52 2.1 1.79 9.1477e-41
1.57 2.1 1.78 9.1477e-41
1.62 2.1 1.8 9.1477e-41
1.66 2.1 1.78 9.1477e-41
1.71 2.1 1.79 9.1477e-41
1.76 2.1 1.78 9.1477e-41
1.81 2.1 1.79 9.1477e-41
1.85 2.1 1.79 9.1477e-41
1.9 2.1 1.79 9.1477e-41
1.94 2.1 1.78 9.1477e-41
1.98 2.1 1.78 9.1477e-41
2.02 2.1 1.77 9.1477e-41
2.07 2.1 1.79 9.1477e-41
2.12 2.1 1.79 9.1477e-41
2.15 2.1 1.78 9.1477e-41
2.19 2.1 1.77 9.1477e-41
2.23 2.1 1.77 9.1477e-41
2.28 2.1 1.78 9.1477e-41
2.31 2.1 1.76 9.1477e-41
2.35 2.1 1.77 9.1477e-41
2.4 2.1 1.77 9.1477e-41
2.43 2.1 1.74 9.1477e-41
2.46 2.1 1.74 9.1477e-41
2.5 2.1 1.73 9.1477e-41
2.53 2.1 1.71 9.1477e-41
2.55 2.1 1.66 9.1477e-41
2.57 2.1 1.59 9.1477e-41
2.43 2.1 1.1 9.1477e-41
2.45 2.1 1.04 9.1477e-41
2.46 2.1 0.94 9.1477e-41
2.61 2.1 1.25 9.1477e-41
2.65 2.1 1.21 9.1477e-41
2.68 2.1 1.17 9.1477e-41
2.69 2.1 1.09 9.1477e-41
2.71 2.1 1.02 9.1477e-41
2.71 2.1 0.84 9.1477e-41
2.72 2.1 0.72 9.1477e-41
2.7 2.1 0.47 9.1477e-41
1.2 2.13 1.76 9.1477e-41
1.24 2.13 1.75 9.1477e-41
1.32 2.13 1.78 9.1477e-41
1.37 2.13 1.78 9.1477e-41
1.42 2.13 1.79 9.1477e-41
1.48 2.13 1.8 9.1477e-41
1.53 2.13 1.8 9.1477e-41
1.57 2.13 1.79 9.1477e-41
1.62 2.13 1.79 9.1477e-41
1.67 2.13 1.8 9.1477e-41
1.72 2.13 1.8 9.1477e-41
1.77 2.13 1.8 9.1477e-41
1.81 2.13 1.8 9.1477e-41
1.85 2.13 1.79 9.1477e-41
1.9 2.13 1.79 9.1477e-41
1.94 2.13 1.79 9.1477e-41
1.98 2.13 1.78 9.1477e-41
2.03 2.13 1.79 9.1477e-41
2.07 2.13 1.78 9.1477e-41
2.12 2.13 1.79 9.1477e-41
2.15 2.13 1.78 9.1477e-41
2.2 2.13 1.78 9.1477e-41
2.24 2.13 1.78 9.1477e-41
2.28 2.13 1.78 9.1477e-41
2.32 2.13 1.77 9.1477e-41
2.35 2.13 1.76 9.1477e-41
2.39 2.13 1.76 9.1477e-41
2.43 2.13 1.74 9.1477e-41
2.47 2.13 1.75 9.1477e-41
2.51 2.13 1.74 9.1477e-41
2.53 2.13 1.71 9.1477e-41
2.55 2.13 1.66 9.1477e-41
2.58 2.13 1.61 9.1477e-41
2.45 2.13 1.15 9.1477e-41
2.57 2.13 1.37 9.1477e-41
2.61 2.13 1.37 9.1477e-41
2.64 2.13 1.32 9.1477e-41
2.66 2.13 1.25 9.1477e-41
2.68 2.13 1.18 9.1477e-41
2.69 2.13 1.09 9.1477e-41
2.71 2.13 1.01 9.1477e-41
2.71 2.13 0.85 9.1477e-41
2.72 2.13 0.71 9.1477e-41
2.7 2.13 0.48 9.1477e-41
1.2 2.16 1.77 9.1477e-41
1.26 2.16 1.77 9.1477e-41
1.33 2.16 1.79 9.1477e-41
1.37 2.16 1.78 9.1477e-41
1.42 2.16 1.79 9.1477e-41
1.48 2.16 1.8 9.1477e-41
1.53 2.16 1.8 9.1477e-41
1.58 2.16 1.8 9.1477e-41
1.62 2.16 1.8 9.1477e-41
1.67 2.16 1.79 9.1477e-41
1.72 2.16 1.8 9.1477e-41
1.76 2.16 1.79 9.1477e-41
1.81 2.16 1.8 9.1477e-41
1.86 2.16 1.8 9.1477e-41
1.9 2.16 1.79 9.1477e-41
1.94 2.16 1.79 9.1477e-41
1.99 2.16 1.8 9.1477e-41
2.03 2.16 1.79 9.1477e-41
2.07 2.16 1.79 9.1477e-41
2.12 2.16 1.8 9.1477e-41
2.16 2.16 1.79 9.1477e-41
2.2 2.16 1.78 9.1477e-41
2.24 2.16 1.79 9.1477e-41
2.27 2.16 1.77 9.1477e-41
2.32 2.16 1.78 9.1477e-41
2.36 2.16 1.77 9.1477e-41
2.4 2.16 1.77 9.1477e-41
2.43 2.16 1.75 9.1477e-41
2.47 2.16 1.75 9.1477e-41
2.5 2.16 1.73 9.1477e-41
2.53 2.16 1.71 9.1477e-41
2.55 2.16 1.66 9.1477e-41
2.58 2.16 1.63 9.1477e-41
2.58 2.16 1.52 9.1477e-41
2.61 2.16 1.48 9.1477e-41
2.63 2.16 1.42 9.1477e-41
2.64 2.16 1.34 9.1477e-41
2.67 2.16 1.29 9.1477e-41
2.68 2.16 1.2 9.1477e-41
2.7 2.16 1.11 9.1477e-41
2.71 2.16 1 9.1477e-41
2.71 2.16 0.86 9.1477e-41
2.72 2.16 0.72 9.1477e-41
2.71 2.16 0.49 9.1477e-41
1.2 2.19 1.77 9.1477e-41
1.26 2.19 1.78 9.1477e-41
1.33 2.19 1.79 9.1477e-41
1.38 2.19 1.79 9.1477e-41
1.43 2.19 1.79 9.1477e-41
1.48 2.19 1.8 9.1477e-41
1.53 2.19 1.81 9.1477e-41
1.58 2.19 1.81 9.1477e-41
1.63 2.19 1.8 9.1477e-41
1.68 2.19 1.81 9.1477e-41
1.73 2.19 1.81 9.1477e-41
1.77 2.19 1.81 9.1477e-41
1.82 2.19 1.81 9.1477e-41
1.87 2.19 1.81 9.1477e-41
1.9 2.19 1.8 9.1477e-41
1.95 2.19 1.8 9.1477e-41
1.99 2.19 1.8 9.1477e-41
2.03 2.19 1.8 9.1477e-41
2.08 2.19 1.8 9.1477e-41
2.12 2.19 1.8 9.1477e-41
2.16 2.19 1.8 9.1477e-41
2.2 2.19 1.79 9.1477e-41
2.24 2.19 1.78 9.1477e-41
2.29 2.19 1.8 9.1477e-41
2.32 2.19 1.77 9.1477e-41
2.36 2.19 1.77 9.1477e-41
2.4 2.19 1.77 9.1477e-41
2.43 2.19 1.75 9.1477e-41
2.47 2.19 1.76 9.1477e-41
2.51 2.19 1.74 9.1477e-41
2.53 2.19 1.71 9.1477e-41
2.56 2.19 1.67 9.1477e-41
2.58 2.19 1.62 9.1477e-41
2.6 2.19 1.56 9.1477e-41
2.62 2.19 1.5 9.1477e-41
2.63 2.19 1.42 9.1477e-41
2.65 2.19 1.36 9.1477e-41
2.67 2.19 1.28 9.1477e-41
2.68 2.19 1.19 9.1477e-41
2.69 2.19 1.09 9.1477e-41
2.71 2.19 0.99 9.1477e-41
2.71 2.19 0.86 9.1477e-41
2.72 2.19 0.71 9.1477e-41
2.71 2.19 0.49 9.1477e-41
1.21 2.22 1.78 9.1477e-41
1.26 2.22 1.78 9.1477e-41
1.33 2.22 1.8 9.1477e-41
1.38 2.22 1.79 9.1477e-41
1.43 2.22 1.8 9.1477e-41
1.48 2.22 1.8 9.1477e-41
1.54 2.22 1.81 9.1477e-41
1.58 2.22 1.8 9.1477e-41
1.63 2.22 1.8 9.1477e-41
1.68 2.22 1.81 9.1477e-41
1.73 2.22 1.81 9.1477e-41
1.77 2.22 1.8 9.1477e-41
1.82 2.22 1.81 9.1477e-41
1.86 2.22 1.8 9.1477e-41
1.9 2.22 1.8 9.1477e-41
1.95 2.22 1.81 9.1477e-41
2 2.22 1.81 9.1477e-41
2.03 2.22 1.8 9.1477e-41
2.08 2.22 1.8 9.1477e-41
2.12 2.22 1.8 9.1477e-41
2.16 2.22 1.8 9.1477e-41
2.2 2.22 1.79 9.1477e-41
2.25 2.22 1.8 9.1477e-41
2.28 2.22 1.79 9.1477e-41
2.32 2.22 1.78 9.1477e-41
2.36 2.22 1.77 9.1477e-41
2.4 2.22 1.78 9.1477e-41
2.43 2.22 1.76 9.1477e-41
2.47 2.22 1.76 9.1477e-41
2.51 2.22 1.74 9.1477e-41
2.53 2.22 1.71 9.1477e-41
2.56 2.22 1.67 9.1477e-41
2.58 2.22 1.62 9.1477e-41
2.6 2.22 1.57 9.1477e-41
2.62 2.22 1.5 9.1477e-41
2.63 2.22 1.43 9.1477e-41
2.65 2.22 1.35 9.1477e-41
2.67 2.22 1.28 9.1477e-41
2.68 2.22 1.19 9.1477e-41
2.7 2.22 1.1 9.1477e-41
2.71 2.22 1 9.1477e-41
2.71 2.22 0.86 9.1477e-41
2.72 2.22 0.71 9.1477e-41
2.7 2.22 0.48 9.1477e-41
1.2 2.25 1.77 9.1477e-41
1.27 2.25 1.78 9.1477e-41
1.33 2.25 1.8 9.1477e-41
1.38 2.25 1.8 9.1477e-41
1.44 2.25 1.81 9.1477e-41
1.48 2.25 1.8 9.1477e-41
1.53 2.25 1.81 9.1477e-41
1.58 2.25 1.81 9.1477e-41
1.63 2.25 1.81 9.1477e-41
1.68 2.25 1.82 9.1477e-41
1.73 2.25 1.81 9.1477e-41
1.77 2.25 1.81 9.1477e-41
1.82 2.25 1.81 9.1477e-41
1.86 2.25 1.8 9.1477e-41
1.9 2.25 1.8 9.1477e-41
1.95 2.25 1.81 9.1477e-41
2 2.25 1.81 9.1477e-41
2.04 2.25 1.81 9.1477e-41
2.08 2.25 1.8 9.1477e-41
2.12 2.25 1.81 9.1477e-41
2.16 2.25 1.8 9.1477e-41
2.2 2.25 1.79 9.1477e-41
2.24 2.25 1.79 9.1477e-41
2.28 2.25 1.79 9.1477e-41
2.32 2.25 1.79 9.1477e-41
2.36 2.25 1.77 9.1477e-41
2.4 2.25 1.78 9.1477e-41
2.43 2.25 1.76 9.1477e-41
2.48 2.25 1.77 9.1477e-41
2.51 2.25 1.75 9.1477e-41
2.53 2.25 1.71 9.1477e-41
2.56 2.25 1.68 9.1477e-41
2.58 2.25 1.62 9.1477e-41
2.6 2.25 1.56 9.1477e-41
2.62 2.25 1.5 9.1477e-41
2.64 2.25 1.44 9.1477e-41
2.65 2.25 1.35 9.1477e-41
2.67 2.25 1.28 9.1477e-41
2.68 2.25 1.19 9.1477e-41
2.7 2.25 1.11 9.1477e-41
2.71 2.25 0.99 9.1477e-41
2.71 2.25 0.86 9.1477e-41
2.72 2.25 0.71 9.1477e-41
2.7 2.25 0.48 9.1477e-41
1.22 2.28 1.78 9.1477e-41
1.27 2.28 1.79 9.1477e-41
1.33 2.28 1.8 9.1477e-41
1.38 2.28 1.8 9.1477e-41
1.44 2.28 1.81 9.1477e-41
1.49 2.28 1.81 9.1477e-41
1.54 2.28 1.81 9.1477e-41
1.58 2.28 1.81 9.1477e-41
1.64 2.28 1.82 9.1477e-41
1.68 2.28 1.82 9.1477e-41
1.73 2.28 1.82 9.1477e-41
1.78 2.28 1.82 9.1477e-41
1.82 2.28 1.81 9.1477e-41
1.87 2.28 1.82 9.1477e-41
1.91 2.28 1.82 9.1477e-41
1.96 2.28 1.82 9.1477e-41
1.99 2.28 1.8 9.1477e-41
2.04 2.28 1.82 9.1477e-41
2.08 2.28 1.81 9.1477e-41
2.13 2.28 1.82 9.1477e-41
2.16 2.28 1.8 9.1477e-41
2.21 2.28 1.8 9.1477e-41
2.24 2.28 1.79 9.1477e-41
2.28 2.28 1.79 9.1477e-41
2.32 2.28 1.79 9.1477e-41
2.36 2.28 1.78 9.1477e-41
2.4 2.28 1.78 9.1477e-41
2.43 2.28 1.76 9.1477e-41
2.48 2.28 1.77 9.1477e-41
2.51 2.28 1.75 9.1477e-41
2.54 2.28 1.73 9.1477e-41
2.56 2.28 1.68 9.1477e-41
2.58 2.28 1.62 9.1477e-41
2.6 2.28 1.57 9.1477e-41
2.62 2.28 1.5 9.1477e-41
2.63 2.28 1.43 9.1477e-41
2.65 2.28 1.35 9.1477e-41
2.67 2.28 1.28 9.1477e-41
2.68 2.28 1.19 9.1477e-41
2.7 2.28 1.1 9.1477e-41
2.71 2.28 0.99 9.1477e-41
2.72 2.28 0.87 9.1477e-41
2.72 2.28 0.72 9.1477e-41
2.71 2.28 0.49 9.1477e-41
1.21 2.31 1.78 9.1477e-41
1.28 2.31 1.8 9.1477e-41
1.34 2.31 1.81 9.1477e-41
1.39 2.31 1.81 9.1477e-41
1.44 2.31 1.82 9.1477e-41
1.49 2.31 1.81 9.1477e-41
1.54 2.31 1.81 9.1477e-41
1.6 2.31 1.83 9.1477e-41
1.64 2.31 1.82 9.1477e-41
1.69 2.31 1.82 9.1477e-41
1.73 2.31 1.82 9.1477e-41
1.78 2.31 1.82 9.1477e-41
1.82 2.31 1.81 9.1477e-41
1.87 2.31 1.82 9.1477e-41
1.91 2.31 1.81 9.1477e-41
1.96 2.31 1.82 9.1477e-41
2 2.31 1.82 9.1477e-41
2.04 2.31 1.82 9.1477e-41
2.09 2.31 1.82 9.1477e-41
2.12 2.31 1.8 9.1477e-41
2.16 2.31 1.8 9.1477e-41
2.21 2.31 1.8 9.1477e-41
2.24 2.31 1.79 9.1477e-41
2.29 2.31 1.81 9.1477e-41
2.33 2.31 1.8 9.1477e-41
2.36 2.31 1.78 9.1477e-41
2.4 2.31 1.78 9.1477e-41
2.43 2.31 1.76 9.1477e-41
2.48 2.31 1.77 9.1477e-41
2.51 2.31 1.75 9.1477e-41
2.54 2.31 1.72 9.1477e-41
2.56 2.31 1.68 9.1477e-41
2.58 2.31 1.62 9.1477e-41
2.6 2.31 1.56 9.1477e-41
2.61 2.31 1.49 9.1477e-41
2.63 2.31 1.41 9.1477e-41
2.64 2.31 1.34 9.1477e-41
2.65 2.31 1.23 9.1477e-41
2.68 2.31 1.17 9.1477e-41
2.7 2.31 1.1 9.1477e-41
2.71 2.31 1 9.1477e-41
2.71 2.31 0.86 9.1477e-41
2.72 2.31 0.73 9.1477e-41
2.7 2.31 0.48 9.1477e-41
1.21 2.34 1.78 9.1477e-41
1.28 2.34 1.8 9.1477e-41
1.34 2.34 1.81 9.1477e-41
1.39 2.34 1.81 9.1477e-41
1.44 2.34 1.82 9.1477e-41
1.49 2.34 1.82 9.1477e-41
1.55 2.34 1.83 9.1477e-41
1.58 2.34 1.81 9.1477e-41
1.64 2.34 1.83 9.1477e-41
1.69 2.34 1.82 9.1477e-41
1.73 2.34 1.82 9.1477e-41
1.78 2.34 1.83 9.1477e-41
1.83 2.34 1.83 9.1477e-41
1.88 2.34 1.83 9.1477e-41
1.91 2.34 1.82 9.1477e-41
1.96 2.34 1.82 9.1477e-41
2 2.34 1.82 9.1477e-41
2.04 2.34 1.82 9.1477e-41
2.09 2.34 1.82 9.1477e-41
2.13 2.34 1.82 9.1477e-41
2.17 2.34 1.82 9.1477e-41
2.21 2.34 1.8 9.1477e-41
2.25 2.34 1.8 9.1477e-41
2.29 2.34 1.8 9.1477e-41
2.33 2.34 1.8 9.1477e-41
2.37 2.34 1.79 9.1477e-41
2.4 2.34 1.79 9.1477e-41
2.44 2.34 1.77 9.1477e-41
2.48 2.34 1.78 9.1477e-41
2.51 2.34 1.75 9.1477e-41
2.54 2.34 1.73 9.1477e-41
2.56 2.34 1.67 9.1477e-41
2.58 2.34 1.67 3.57e-43
2.6 2.34 1.67 3.57e-43
2.61 2.34 1.67 3.57e-43
2.63 2.34 1.67 3.57e-43
2.64 2.34 1.67 3.57e-43
2.65 2.34 1.23 9.1477e-41
2.68 2.34 1.17 9.1477e-41
2.7 2.34 1.1 9.1477e-41
2.71 2.34 0.99 9.1477e-41
2.72 2.34 0.87 9.1477e-41
2.72 2.34 0.73 9.1477e-41
2.7 2.34 0.48 9.1477e-41
1.22 2.37 1.79 9.1477e-41
1.28 2.37 1.8 9.1477e-41
1.34 2.37 1.81 9.1477e-41
1.39 2.37 1.82 9.1477e-41
1.44 2.37 1.82 9.1477e-41
1.5 2.37 1.83 9.1477e-41
1.55 2.37 1.82 9.1477e-41
1.6 2.37 1.83 9.1477e-41
1.64 2.37 1.83 9.1477e-41
1.69 2.37 1.82 9.1477e-41
1.74 2.37 1.83 9.1477e-41
1.78 2.37 1.83 9.1477e-41
1.83 2.37 1.82 9.1477e-41
1.87 2.37 1.82 9.1477e-41
1.92 2.37 1.83 9.1477e-41
1.96 2.37 1.83 9.1477e-41
2.01 2.37 1.83 9.1477e-41
2.05 2.37 1.83 9.1477e-41
2.09 2.37 1.83 9.1477e-41
2.13 2.37 1.82 9.1477e-41
2.17 2.37 1.81 9.1477e-41
2.21 2.37 1.8 9.1477e-41
2.25 2.37 1.81 9.1477e-41
2.29 2.37 1.81 9.1477e-41
2.33 2.37 1.8 9.1477e-41
2.37 2.37 1.8 9.1477e-41
2.4 2.37 1.78 9.1477e-41
2.44 2.37 1.78 9.1477e-41
2.48 2.37 1.79 9.1477e-41
2.51 2.37 1.75 9.1477e-41
2.54 2.37 1.72 9.1477e-41
2.56 2.37 1.72 3.57e-43
2.58 2.37 1.72 3.57e-43
2.6 2.37 1.72 3.57e-43
2.61 2.37 1.72 3.57e-43
2.63 2.37 1.72 3.57e-43
2.64 2.37 1.72 3.57e-43
2.65 2.37 1.23 9.1477e-41
2.67 2.37 1.15 9.1477e-41
2.69 2.37 1.09 9.1477e-41
2.71 2.37 1.01 9.1477e-41
2.71 2.37 0.86 9.1477e-41
2.72 2.37 0.73 9.1477e-41
2.7 2.37 0.47 9.1477e-41
1.22 2.4 1.79 9.1477e-41
1.28 2.4 1.8 9.1477e-41
1.34 2.4 1.82 9.1477e-41
1.39 2.4 1.82 9.1477e-41
1.44 2.4 1.82 9.1477e-41
1.5 2.4 1.83 9.1477e-41
1.54 2.4 1.81 9.1477e-41
1.6 2.4 1.83 9.1477e-41
1.64 2.4 1.82 9.1477e-41
1.69 2.4 1.82 9.1477e-41
1.73 2.4 1.82 9.1477e-41
1.78 2.4 1.83 9.1477e-41
1.83 2.4 1.83 9.1477e-41
1.87 2.4 1.82 9.1477e-41
1.91 2.4 1.81 9.1477e-41
1.96 2.4 1.83 9.1477e-41
2.01 2.4 1.83 9.1477e-41
2.04 2.4 1.82 9.1477e-41
2.09 2.4 1.83 9.1477e-41
2.13 2.4 1.82 9.1477e-41
2.17 2.4 1.81 9.1477e-41
2.21 2.4 1.81 9.1477e-41
2.25 2.4 1.8 9.1477e-41
2.29 2.4 1.81 9.1477e-41
2.33 2.4 1.81 9.1477e-41
2.37 2.4 1.79 9.1477e-41
2.4 2.4 1.78 9.1477e-41
2.44 2.4 1.78 9.1477e-41
2.48 2.4 1.78 9.1477e-41
2.51 2.4 1.76 9.1477e-41
2.54 2.4 1.72 9.1477e-41
2.56 2.4 1.72 3.57e-43
2.58 2.4 1.72 3.57e-43
2.6 2.4 1.72 3.57e-43
2.61 2.4 1.72 3.57e-43
2.63 2.4 1.72 3.57e-43
2.64 2.4 1.72 3.57e-43
2.65 2.4 1.23 9.1477e-41
2.67 2.4 1.14 9.1477e-41
2.69 2.4 1.09 9.1477e-41
2.71 2.4 1.01 9.1477e-41
2.71 2.4 0.86 9.1477e-41
2.73 2.4 0.74 9.1477e-41
2.71 2.4 0.49 9.1477e-41
1.22 2.43 1.78 9.1477e-41
1.29 2.43 1.81 9.1477e-41
1.34 2.43 1.82 9.1477e-41
1.39 2.43 1.82 9.1477e-41
1.44 2.43 1.82 9.1477e-41
1.49 2.43 1.82 9.1477e-41
1.55 2.43 1.83 9.1477e-41
1.6 2.43 1.83 9.1477e-41
1.64 2.43 1.83 9.1477e-41
1.69 2.43 1.82 9.1477e-41
1.74 2.43 1.83 9.1477e-41
1.78 2.43 1.83 9.1477e-41
1.83 2.43 1.83 9.1477e-41
1.88 2.43 1.83 9.1477e-41
1.92 2.43 1.83 9.1477e-41
1.96 2.43 1.83 9.1477e-41
2.01 2.43 1.83 9.1477e-41
2.05 2.43 1.83 9.1477e-41
2.09 2.43 1.83 9.1477e-41
2.13 2.43 1.82 9.1477e-41
2.17 2.43 1.82 9.1477e-41
2.21 2.43 1.82 9.1477e-41
2.25 2.43 1.81 9.1477e-41
2.29 2.43 1.81 9.1477e-41
2.33 2.43 1.8 9.1477e-41
2.37 2.43 1.81 9.1477e-41
2.41 2.43 1.8 9.1477e-41
2.44 2.43 1.78 9.1477e-41
2.48 2.43 1.79 9.1477e-41
2.51 2.43 1.75 9.1477e-41
2.54 2.43 1.72 9.1477e-41
2.56 2.43 1.72 3.57e-43
2.58 2.43 1.72 3.57e-43
2.6 2.43 1.72 3.57e-43
2.61 2.43 1.72 3.57e-43
2.63 2.43 1.72 3.57e-43
2.64 2.43 1.72 3.57e-43
2.65 2.43 1.23 9.1477e-41
2.67 2.43 1.14 9.1477e-41
2.69 2.43 1.08 9.1477e-41
2.71 2.43 1 9.1477e-41
2.72 2.43 0.87 9.1477e-41
2.72 2.43 0.73 9.1477e-41
2.7 2.43 0.47 9.1477e-41
1.22 2.46 1.79 9.1477e-41
1.29 2.46 1.81 9.1477e-41
1.34 2.46 1.82 9.1477e-41
1.4 2.46 1.82 9.1477e-41
1.45 2.46 1.83 9.1477e-41
1.5 2.46 1.83 9.1477e-41
1.56 2.46 1.84 9.1477e-41
1.6 2.46 1.83 9.1477e-41
1.64 2.46 1.83 9.1477e-41
1.69 2.46 1.83 9.1477e-41
1.74 2.46 1.84 9.1477e-41
1.79 2.46 1.83 9.1477e-41
1.83 2.46 1.83 9.1477e-41
1.88 2.46 1.83 9.1477e-41
1.91 2.46 1.82 9.1477e-41
1.97 2.46 1.84 9.1477e-41
2.01 2.46 1.83 9.1477e-41
2.05 2.46 1.83 9.1477e-41
2.09 2.46 1.82 9.1477e-41
2.13 2.46 1.83 9.1477e-41
2.17 2.46 1.82 9.1477e-41
2.21 2.46 1.81 9.1477e-41
2.25 2.46 1.81 9.1477e-41
2.29 2.46 1.81 9.1477e-41
2.33 2.46 1.81 9.1477e-41
2.37 2.46 1.8 9.1477e-41
2.4 2.46 1.79 9.1477e-41
2.45 2.46 1.79 9.1477e-41
2.48 2.46 1.79 9.1477e-41
2.51 2.46 1.75 9.1477e-41
2.54 2.46 1.73 9.1477e-41
2.56 2.46 1.73 3.57e-43
2.58 2.46 1.73 3.57e-43
2.6 2.46 1.73 3.57e-43
2.61 2.46 1.73 3.57e-43
2.63 2.46 1.73 3.57e-43
2.64 2.46 1.73 3.57e-43
2.65 2.46 1.23 9.1477e-41
2.66 2.46 1.14 9.1477e-41
2.68 2.46 1.06 9.1477e-41
2.71 2.46 1.01 9.1477e-41
2.72 2.46 0.87 9.1477e-41
2.72 2.46 0.73 9.1477e-41
2.7 2.46 0.47 9.1477e-41
1.23 2.49 1.81 9.1477e-41
1.3 2.49 1.82 9.1477e-41
1.34 2.49 1.82 9.1477e-41
1.4 2.49 1.82 9.1477e-41
1.45 2.49 1.83 9.1477e-41
1.5 2.49 1.83 9.1477e-41
1.55 2.49 1.83 9.1477e-41
1.61 2.49 1.84 9.1477e-41
1.64 2.49 1.83 9.1477e-41
1.69 2.49 1.83 9.1477e-41
1.74 2.49 1.84 9.1477e-41
1.79 2.49 1.83 9.1477e-41
1.83 2.49 1.83 9.1477e-41
1.88 2.49 1.84 9.1477e-41
1.92 2.49 1.84 9.1477e-41
1.97 2.49 1.84 9.1477e-41
2.01 2.49 1.83 9.1477e-41
2.05 2.49 1.83 9.1477e-41
2.09 2.49 1.83 9.1477e-41
2.13 2.49 1.82 9.1477e-41
2.18 2.49 1.83 9.1477e-41
2.21 2.49 1.82 9.1477e-41
2.26 2.49 1.82 9.1477e-41
2.3 2.49 1.82 9.1477e-41
2.33 2.49 1.81 9.1477e-41
2.37 2.49 1.8 9.1477e-41
2.4 2.49 1.79 9.1477e-41
2.45 2.49 1.79 9.1477e-41
2.48 2.49 1.79 9.1477e-41
2.52 2.49 1.77 9.1477e-41
2.54 2.49 1.73 9.1477e-41
2.56 2.49 1.73 3.57e-43
2.58 2.49 1.73 3.57e-43
2.6 2.49 1.73 3.57e-43
2.61 2.49 1.73 3.57e-43
2.63 2.49 1.73 3.57e-43
2.64 2.49 1.73 3.57e-43
2.65 2.49 1.23 9.1477e-41
2.67 2.49 1.14 9.1477e-41
2.69 2.49 1.09 9.1477e-41
2.71 2.49 0.99 9.1477e-41
2.71 2.49 0.86 9.1477e-41
2.73 2.49 0.74 9.1477e-41
2.69 2.49 0.45 9.1477e-41
1.23 2.52 1.8 9.1477e-41
1.29 2.52 1.82 9.1477e-41
1.35 2.52 1.82 9.1477e-41
1.4 2.52 1.82 9.1477e-41
1.46 2.52 1.83 9.1477e-41
1.51 2.52 1.84 9.1477e-41
1.55 2.52 1.83 9.1477e-41
1.61 2.52 1.84 9.1477e-41
1.64 2.52 1.83 9.1477e-41
1.7 2.52 1.84 9.1477e-41
1.74 2.52 1.84 9.1477e-41
1.79 2.52 1.83 9.1477e-41
1.84 2.52 1.84 9.1477e-41
1.88 2.52 1.84 9.1477e-41
1.92 2.52 1.84 9.1477e-41
1.97 2.52 1.84 9.1477e-41
2.01 2.52 1.83 9.1477e-41
2.06 2.52 1.84 9.1477e-41
2.1 2.52 1.83 9.1477e-41
2.13 2.52 1.83 9.1477e-41
2.18 2.52 1.84 9.1477e-41
2.21 2.52 1.82 9.1477e-41
2.26 2.52 1.82 9.1477e-41
2.3 2.52 1.82 9.1477e-41
2.33 2.52 1.81 9.1477e-41
2.37 2.52 1.8 9.1477e-41
2.41 2.52 1.8 9.1477e-41
2.45 2.52 1.8 9.1477e-41
2.49 2.52 1.79 9.1477e-41
2.52 2.52 1.77 9.1477e-41
2.54 2.52 1.74 9.1477e-41
2.56 2.52 1.74 3.57e-43
2.58 2.52 1.74 3.57e-43
2.6 2.52 1.74 3.57e-43
2.61 2.52 1.74 3.57e-43
2.63 2.52 1.74 3.57e-43
2.64 2.52 1.74 3.57e-43
2.65 2.52 1.23 9.1477e-41
2.66 2.52 1.14 9.1477e-41
2.69 2.52 1.09 9.1477e-41
2.71 2.52 1 9.1477e-41
2.71 2.52 0.85 9.1477e-41
2.72 2.52 0.73 9.1477e-41
2.69 2.52 0.44 9.1477e-41
1.23 2.55 1.81 9.1477e-41
1.3 2.55 1.82 9.1477e-41
1.35 2.55 1.83 9.1477e-41
1.4 2.55 1.83 9.1477e-41
1.46 2.55 1.83 9.1477e-41
1.51 2.55 1.84 9.1477e-41
1.56 2.55 1.84 9.1477e-41
1.61 2.55 1.84 9.1477e-41
1.66 2.55 1.85 9.1477e-41
1.69 2.55 1.83 9.1477e-41
1.74 2.55 1.84 9.1477e-41
1.79 2.55 1.83 9.1477e-41
1.84 2.55 1.84 9.1477e-41
1.89 2.55 1.85 9.1477e-41
1.92 2.55 1.84 9.1477e-41
1.97 2.55 1.84 9.1477e-41
2.01 2.55 1.84 9.1477e-41
2.05 2.55 1.83 9.1477e-41
2.1 2.55 1.83 9.1477e-41
2.13 2.55 1.83 9.1477e-41
2.18 2.55 1.83 9.1477e-41
2.22 2.55 1.83 9.1477e-41
2.26 2.55 1.82 9.1477e-41
2.29 2.55 1.81 9.1477e-41
2.34 2.55 1.82 9.1477e-41
2.37 2.55 1.8 9.1477e-41
2.41 2.55 1.8 9.1477e-41
2.45 2.55 1.79 9.1477e-41
2.49 2.55 1.79 9.1477e-41
2.51 2.55 1.75 9.1477e-41
2.54 2.55 1.73 9.1477e-41
2.56 2.55 1.73 3.57e-43
2.58 2.55 1.73 3.57e-43
2.6 2.55 1.73 3.57e-43
2.61 2.55 1.73 3.57e-43
2.63 2.55 1.73 3.57e-43
2.64 2.55 1.73 3.57e-43
2.65 2.55 1.23 9.1477e-41
2.67 2.55 1.14 9.1477e-41
2.69 2.55 1.09 9.1477e-41
2.71 2.55 1.01 9.1477e-41
2.71 2.55 0.86 9.1477e-41
2.73 2.55 0.74 9.1477e-41
2.69 2.55 0.44 9.1477e-41
1.22 2.58 1.79 9.1477e-41
1.3 2.58 1.82 9.1477e-41
1.35 2.58 1.83 9.1477e-41
1.4 2.58 1.83 9.1477e-41
1.45 2.58 1.83 9.1477e-41
1.5 2.58 1.83 9.1477e-41
1.56 2.58 1.85 9.1477e-41
1.6 2.58 1.83 9.1477e-41
1.66 2.58 1.85 9.1477e-41
1.71 2.58 1.85 9.1477e-41
1.74 2.58 1.84 9.1477e-41
1.79 2.58 1.83 9.1477e-41
1.84 2.58 1.84 9.1477e-41
1.88 2.58 1.84 9.1477e-41
1.92 2.58 1.84 9.1477e-41
1.97 2.58 1.84 9.1477e-41
2.01 2.58 1.83 9.1477e-41
2.05 2.58 1.83 9.1477e-41
2.1 2.58 1.83 9.1477e-41
2.14 2.58 1.83 9.1477e-41
2.18 2.58 1.84 9.1477e-41
2.22 2.58 1.83 9.1477e-41
2.26 2.58 1.82 9.1477e-41
2.29 2.58 1.81 9.1477e-41
2.34 2.58 1.83 9.1477e-41
2.37 2.58 1.81 9.1477e-41
2.41 2.58 1.8 9.1477e-41
2.45 2.58 1.79 9.1477e-41
2.49 2.58 1.8 9.1477e-41
2.51 2.58 1.76 9.1477e-41
2.54 2.58 1.73 9.1477e-41
2.56 2.58 1.73 3.57e-43
2.58 2.58 1.73 3.57e-43
2.6 2.58 1.73 3.57e-43
2.61 2.58 1.73 3.57e-43
2.63 2.58 1.73 3.57e-43
2.64 2.58 1.73 3.57e-43
2.65 2.58 1.23 9.1477e-41
2.67 2.58 1.14 9.1477e-41
2.69 2.58 1.08 9.1477e-41
2.71 2.58 0.99 9.1477e-41
2.72 2.58 0.87 9.1477e-41
2.73 2.58 0.74 9.1477e-41
2.69 2.58 0.43 9.1477e-41
1.23 2.61 1.81 9.1477e-41
1.3 2.61 1.82 9.1477e-41
1.35 2.61 1.83 9.1477e-41
1.4 2.61 1.83 9.1477e-41
1.46 2.61 1.84 9.1477e-41
1.51 2.61 1.84 9.1477e-41
1.56 2.61 1.84 9.1477e-41
1.6 2.61 1.83 9.1477e-41
1.66 2.61 1.85 9.1477e-41
1.7 2.61 1.84 9.1477e-41
1.75 2.61 1.85 9.1477e-41
1.79 2.61 1.84 9.1477e-41
1.84 2.61 1.84 9.1477e-41
1.89 2.61 1.85 9.1477e-41
1.92 2.61 1.84 9.1477e-41
1.97 2.61 1.84 9.1477e-41
2.01 2.61 1.83 9.1477e-41
2.06 2.61 1.84 9.1477e-41
2.1 2.61 1.83 9.1477e-41
2.14 2.61 1.83 9.1477e-41
2.18 2.61 1.83 9.1477e-41
2.22 2.61 1.83 9.1477e-41
2.26 2.61 1.82 9.1477e-41
2.3 2.61 1.82 9.1477e-41
2.34 2.61 1.82 9.1477e-41
2.37 2.61 1.81 9.1477e-41
2.41 2.61 1.8 9.1477e-41
2.45 2.61 1.81 9.1477e-41
2.49 2.61 1.79 9.1477e-41
2.51 2.61 1.76 9.1477e-41
2.54 2.61 1.73 9.1477e-41
2.56 2.61 1.73 3.57e-43
2.58 2.61 1.73 3.57e-43
2.6 2.61 1.73 3.57e-43
2.61 2.61 1.73 3.57e-43
2.63 2.61 1.73 3.57e-43
2.64 2.61 1.73 3.57e-43
2.65 2.61 1.23 9.1477e-41
2.67 2.61 1.14 9.1477e-41
2.69 2.61 1.08 9.1477e-41
2.71 2.61 1 9.1477e-41
2.72 2.61 0.87 9.1477e-41
2.72 2.61 0.73 9.1477e-41
2.69 2.61 0.43 9.1477e-41
1.23 2.64 1.81 9.1477e-41
1.3 2.64 1.83 9.1477e-41
1.35 2.64 1.83 9.1477e-41
1.4 2.64 1.83 9.1477e-41
1.46 2.64 1.84 9.1477e-41
1.5 2.64 1.83 9.1477e-41
1.56 2.64 1.84 9.1477e-41
1.61 2.64 1.84 9.1477e-41
1.66 2.64 1.85 9.1477e-41
1.7 2.64 1.84 9.1477e-41
1.75 2.64 1.85 9.1477e-41
1.79 2.64 1.84 9.1477e-41
1.84 2.64 1.84 9.1477e-41
1.89 2.64 1.85 9.1477e-41
1.92 2.64 1.84 9.1477e-41
1.97 2.64 1.84 9.1477e-41
2.01 2.64 1.84 9.1477e-41
2.05 2.64 1.83 9.1477e-41
2.1 2.64 1.84 9.1477e-41
2.14 2.64 1.83 9.1477e-41
2.18 2.64 1.84 9.1477e-41
2.22 2.64 1.83 9.1477e-41
2.26 2.64 1.82 9.1477e-41
2.3 2.64 1.82 9.1477e-41
2.34 2.64 1.82 9.1477e-41
2.38 2.64 1.82 9.1477e-41
2.41 2.64 1.8 9.1477e-41
2.45 2.64 1.81 9.1477e-41
2.49 2.64 1.79 9.1477e-41
2.51 2.64 1.76 9.1477e-41
2.54 2.64 1.73 9.1477e-41
2.56 2.64 1.73 3.57e-43
2.58 2.64 1.73 3.57e-43
2.6 2.64 1.73 3.57e-43
2.61 2.64 1.73 3.57e-43
2.63 2.64 1.73 3.57e-43
2.64 2.64 1.73 3.57e-43
2.65 2.64 1.23 9.1477e-41
2.67 2.64 1.14 9.1477e-41
2.69 2.64 1.09 9.1477e-41
2.71 2.64 0.99 9.1477e-41
2.71 2.64 0.85 9.1477e-41
2.73 2.64 0.74 9.1477e-41
2.69 2.64 0.43 9.1477e-41
1.23 2.67 1.81 9.1477e-41
1.3 2.67 1.83 9.1477e-41
1.35 2.67 1.83 9.1477e-41
1.41 2.67 1.84 9.1477e-41
1.46 2.67 1.84 9.1477e-41
1.51 2.67 1.84 9.1477e-41
1.56 2.67 1.84 9.1477e-41
1.61 2.67 1.84 9.1477e-41
1.66 2.67 1.85 9.1477e-41
1.71 2.67 1.85 9.1477e-41
1.75 2.67 1.85 9.1477e-41
1.8 2.67 1.85 9.1477e-41
1.84 2.67 1.84 9.1477e-41
1.88 2.67 1.84 9.1477e-41
1.93 2.67 1.85 9.1477e-41
1.98 2.67 1.85 9.1477e-41
2.01 2.67 1.84 9.1477e-41
2.06 2.67 1.85 9.1477e-41
2.1 2.67 1.83 9.1477e-41
2.14 2.67 1.83 9.1477e-41
2.17 2.67 1.82 9.1477e-41
2.22 2.67 1.84 9.1477e-41
2.26 2.67 1.82 9.1477e-41
2.3 2.67 1.82 9.1477e-41
2.34 2.67 1.82 9.1477e-41
2.37 2.67 1.81 9.1477e-41
2.41 2.67 1.8 9.1477e-41
2.45 2.67 1.81 9.1477e-41
2.49 2.67 1.79 9.1477e-41
2.51 2.67 1.76 9.1477e-41
2.54 2.67 1.72 9.1477e-41
2.56 2.67 1.72 3.57e-43
2.58 2.67 1.72 3.57e-43
2.6 2.67 1.72 3.57e-43
2.61 2.67 1.72 3.57e-43
2.63 2.67 1.72 3.57e-43
2.64 2.67 1.72 3.57e-43
2.65 2.67 1.23 9.1477e-41
2.67 2.67 1.14 9.1477e-41
2.69 2.67 1.08 9.1477e-41
2.71 2.67 0.99 9.1477e-41
2.71 2.67 0.85 9.1477e-41
2.72 2.67 0.73 9.1477e-41
2.69 2.67 0.43 9.1477e-41
1.24 2.7 1.82 9.1477e-41
1.3 2.7 1.83 9.1477e-41
1.36 2.7 1.84 9.1477e-41
1.41 2.7 1.84 9.1477e-41
1.46 2.7 1.84 9.1477e-41
1.51 2.7 1.84 9.1477e-41
1.56 2.7 1.85 9.1477e-41
1.61 2.7 1.85 9.1477e-41
1.66 2.7 1.85 9.1477e-41
1.71 2.7 1.85 9.1477e-41
1.75 2.7 1.85 9.1477e-41
1.8 2.7 1.85 9.1477e-41
1.84 2.7 1.85 9.1477e-41
1.89 2.7 1.85 9.1477e-41
1.93 2.7 1.85 9.1477e-41
1.97 2.7 1.84 9.1477e-41
2.01 2.7 1.84 9.1477e-41
2.05 2.7 1.83 9.1477e-41
2.1 2.7 1.84 9.1477e-41
2.14 2.7 1.83 9.1477e-41
2.18 2.7 1.84 9.1477e-41
2.22 2.7 1.83 9.1477e-41
2.27 2.7 1.84 9.1477e-41
2.3 2.7 1.83 9.1477e-41
2.34 2.7 1.82 9.1477e-41
2.37 2.7 1.81 9.1477e-41
2.41 2.7 1.81 9.1477e-41
2.45 2.7 1.8 9.1477e-41
2.49 2.7 1.79 9.1477e-41
2.51 2.7 1.76 9.1477e-41
2.54 2.7 1.74 9.1477e-41
2.56 2.7 1.74 3.57e-43
2.58 2.7 1.74 3.57e-43
2.6 2.7 1.74 3.57e-43
2.61 2.7 1.74 3.57e-43
2.63 2.7 1.74 3.57e-43
2.64 2.7 1.74 3.57e-43
2.65 2.7 1.23 9.1477e-41
2.67 2.7 1.14 9.1477e-41
2.69 2.7 1.09 9.1477e-41
2.71 2.7 1 9.1477e-41
2.71 2.7 0.85 9.1477e-41
2.73 2.7 0.75 9.1477e-41
2.69 2.7 0.43 9.1477e-41
1.23 2.73 1.81 9.1477e-41
1.31 2.73 1.84 9.1477e-41
1.35 2.73 1.83 9.1477e-41
1.41 2.73 1.84 9.1477e-41
1.46 2.73 1.84 9.1477e-41
1.51 2.73 1.84 9.1477e-41
1.56 2.73 1.85 9.1477e-41
1.61 2.73 1.84 9.1477e-41
1.66 2.73 1.85 9.1477e-41
1.7 2.73 1.84 9.1477e-41
1.75 2.73 1.86 9.1477e-41
1.8 2.73 1.85 9.1477e-41
1.84 2.73 1.84 9.1477e-41
1.89 2.73 1.85 9.1477e-41
1.93 2.73 1.85 9.1477e-41
1.97 2.73 1.84 9.1477e-41
2.01 2.73 1.84 9.1477e-41
2.06 2.73 1.84 9.1477e-41
2.1 2.73 1.84 9.1477e-41
2.14 2.73 1.83 9.1477e-41
2.18 2.73 1.84 9.1477e-41
2.22 2.73 1.84 9.1477e-41
2.26 2.73 1.83 9.1477e-41
2.3 2.73 1.82 9.1477e-41
2.34 2.73 1.82 9.1477e-41
2.38 2.73 1.82 9.1477e-41
2.42 2.73 1.81 9.1477e-41
2.45 2.73 1.81 9.1477e-41
2.48 2.73 1.79 9.1477e-41
2.52 2.73 1.77 9.1477e-41
2.54 2.73 1.72 9.1477e-41
2.57 2.73 1.72 3.57e-43
2.58 2.73 1.72 3.57e-43
2.6 2.73 1.72 3.57e-43
2.61 2.73 1.72 3.57e-43
2.63 2.73 1.72 3.57e-43
2.64 2.73 1.72 3.57e-43
2.65 2.73 1.23 9.1477e-41
2.67 2.73 1.14 9.1477e-41
2.69 2.73 1.09 9.1477e-41
2.71 2.73 0.99 9.1477e-41
2.71 2.73 0.86 9.1477e-41
2.72 2.73 0.73 9.1477e-41
2.69 2.73 0.42 9.1477e-41
1.24 2.76 1.82 9.1477e-41
1.3 2.76 1.82 9.1477e-41
1.35 2.76 1.83 9.1477e-41
1.4 2.76 1.83 9.1477e-41
1.46 2.76 1.84 9.1477e-41
1.51 2.76 1.84 9.1477e-41
1.56 2.76 1.85 9.1477e-41
1.61 2.76 1.85 9.1477e-41
1.66 2.76 1.85 9.1477e-41
1.71 2.76 1.85 9.1477e-41
1.75 2.76 1.86 9.1477e-41
1.8 2.76 1.85 9.1477e-41
1.84 2.76 1.85 9.1477e-41
1.89 2.76 1.86 9.1477e-41
1.92 2.76 1.84 9.1477e-41
1.98 2.76 1.85 9.1477e-41
2.01 2.76 1.84 9.1477e-41
2.06 2.76 1.84 9.1477e-41
2.1 2.76 1.84 9.1477e-41
2.14 2.76 1.84 9.1477e-41
2.19 2.76 1.84 9.1477e-41
2.22 2.76 1.83 9.1477e-41
2.26 2.76 1.83 9.1477e-41
2.3 2.76 1.82 9.1477e-41
2.34 2.76 1.83 9.1477e-41
2.37 2.76 1.81 9.1477e-41
2.41 2.76 1.81 9.1477e-41
2.45 2.76 1.8 9.1477e-41
2.49 2.76 1.79 9.1477e-41
2.52 2.76 1.77 9.1477e-41
2.54 2.76 1.73 9.1477e-41
2.56 2.76 1.73 3.57e-43
2.58 2.76 1.73 3.57e-43
2.6 2.76 1.73 3.57e-43
2.61 2.76 1.73 3.57e-43
2.63 2.76 1.73 3.57e-43
2.64 2.76 1.73 3.57e-43
2.65 2.76 1.23 9.1477e-41
2.67 2.76 1.15 9.1477e-41
2.69 2.76 1.08 9.1477e-41
2.71 2.76 1 9.1477e-41
2.71 2.76 0.86 9.1477e-41
2.73 2.76 0.75 9.1477e-41
2.69 2.76 0.45 9.1477e-41
1.23 2.79 1.81 9.1477e-41
1.31 2.79 1.84 9.1477e-41
1.35 2.79 1.83 9.1477e-41
1.42 2.79 1.85 9.1477e-41
1.46 2.79 1.83 9.1477e-41
1.51 2.79 1.84 9.1477e-41
1.57 2.79 1.86 9.1477e-41
1.61 2.79 1.84 9.1477e-41
1.66 2.79 1.85 9.1477e-41
1.71 2.79 1.85 9.1477e-41
1.76 2.79 1.86 9.1477e-41
1.8 2.79 1.85 9.1477e-41
1.84 2.79 1.85 9.1477e-41
1.89 2.79 1.85 9.1477e-41
1.93 2.79 1.85 9.1477e-41
1.98 2.79 1.85 9.1477e-41
2.01 2.79 1.84 9.1477e-41
2.06 2.79 1.84 9.1477e-41
2.1 2.79 1.84 9.1477e-41
2.14 2.79 1.84 9.1477e-41
2.18 2.79 1.84 9.1477e-41
2.22 2.79 1.84 9.1477e-41
2.26 2.79 1.83 9.1477e-41
2.3 2.79 1.82 9.1477e-41
2.34 2.79 1.83 9.1477e-41
2.37 2.79 1.81 9.1477e-41
2.41 2.79 1.81 9.1477e-41
2.45 2.79 1.8 9.1477e-41
2.49 2.79 1.79 9.1477e-41
2.51 2.79 1.76 9.1477e-41
2.54 2.79 1.73 9.1477e-41
2.56 2.79 1.73 3.57e-43
2.58 2.79 1.73 3.57e-43
2.6 2.79 1.73 3.57e-43
2.61 2.79 1.73 3.57e-43
2.63 2.79 1.73 3.57e-43
2.64 2.79 1.73 3.57e-43
2.65 2.79 1.23 9.1477e-41
2.67 2.79 1.14 9.1477e-41
2.69 2.79 1.09 9.1477e-41
2.71 2.79 0.99 9.1477e-41
2.71 2.79 0.85 9.1477e-41
2.72 2.79 0.73 9.1477e-41
2.71 2.79 0.5 9.1477e-41
1.24 2.82 1.82 9.1477e-41
1.3 2.82 1.83 9.1477e-41
1.35 2.82 1.83 9.1477e-41
1.41 2.82 1.84 9.1477e-41
1.46 2.82 1.84 9.1477e-41
1.51 2.82 1.84 9.1477e-41
1.57 2.82 1.86 9.1477e-41
1.61 2.82 1.85 9.1477e-41
1.66 2.82 1.85 9.1477e-41
1.71 2.82 1.86 9.1477e-41
1.75 2.82 1.86 9.1477e-41
1.8 2.82 1.85 9.1477e-41
1.85 2.82 1.86 9.1477e-41
1.89 2.82 1.85 9.1477e-41
1.93 2.82 1.85 9.1477e-41
1.97 2.82 1.84 9.1477e-41
2.01 2.82 1.84 9.1477e-41
2.06 2.82 1.84 9.1477e-41
2.1 2.82 1.84 9.1477e-41
2.15 2.82 1.85 9.1477e-41
2.18 2.82 1.84 9.1477e-41
2.22 2.82 1.84 9.1477e-41
2.27 2.82 1.84 9.1477e-41
2.3 2.82 1.82 9.1477e-41
2.34 2.82 1.83 9.1477e-41
2.38 2.82 1.82 9.1477e-41
2.42 2.82 1.81 9.1477e-41
2.45 2.82 1.8 9.1477e-41
2.49 2.82 1.79 9.1477e-41
2.51 2.82 1.75 9.1477e-41
2.54 2.82 1.73 9.1477e-41
2.57 2.82 1.73 3.57e-43
2.58 2.82 1.73 3.57e-43
2.6 2.82 1.73 3.57e-43
2.61 2.82 1.73 3.57e-43
2.63 2.82 1.73 3.57e-43
2.64 2.82 1.73 3.57e-43
2.65 2.82 1.23 9.1477e-41
2.67 2.82 1.14 9.1477e-41
2.69 2.82 1.08 9.1477e-41
2.71 2.82 1 9.1477e-41
2.71 2.82 0.85 9.1477e-41
2.73 2.82 0.74 9.1477e-41
2.72 2.82 0.54 9.1477e-41
1.23 2.85 1.81 9.1477e-41
1.3 2.85 1.83 9.1477e-41
1.36 2.85 1.84 9.1477e-41
1.41 2.85 1.84 9.1477e-41
1.47 2.85 1.85 9.1477e-41
1.52 2.85 1.86 9.1477e-41
1.56 2.85 1.85 9.1477e-41
1.62 2.85 1.86 9.1477e-41
1.66 2.85 1.85 9.1477e-41
1.71 2.85 1.85 9.1477e-41
1.75 2.85 1.85 9.1477e-41
1.8 2.85 1.85 9.1477e-41
1.84 2.85 1.85 9.1477e-41
1.89 2.85 1.85 9.1477e-41
1.93 2.85 1.85 9.1477e-41
1.97 2.85 1.84 9.1477e-41
2.01 2.85 1.84 9.1477e-41
2.06 2.85 1.84 9.1477e-41
2.1 2.85 1.85 9.1477e-41
2.14 2.85 1.84 9.1477e-41
2.19 2.85 1.84 9.1477e-41
2.22 2.85 1.84 9.1477e-41
2.26 2.85 1.83 9.1477e-41
2.3 2.85 1.83 9.1477e-41
2.34 2.85 1.83 9.1477e-41
2.38 2.85 1.82 9.1477e-41
2.42 2.85 1.81 9.1477e-41
2.45 2.85 1.81 9.1477e-41
2.49 2.85 1.79 9.1477e-41
2.51 2.85 1.76 9.1477e-41
2.54 2.85 1.73 9.1477e-41
2.57 2.85 1.73 3.57e-43
2.58 2.85 1.73 3.57e-43
2.6 2.85 1.73 3.57e-43
2.61 2.85 1.73 3.57e-43
2.63 2.85 1.73 3.57e-43
2.64 2.85 1.73 3.57e-43
2.65 2.85 1.23 9.1477e-41
2.67 2.85 1.14 9.1477e-41
2.69 2.85 1.08 9.1477e-41
2.71 2.85 0.99 9.1477e-41
2.71 2.85 0.85 9.1477e-41
2.73 2.85 0.74 9.1477e-41
2.71 2.85 0.52 9.1477e-41
1.23 2.88 1.81 9.1477e-41
1.3 2.88 1.83 9.1477e-41
1.37 2.88 1.85 9.1477e-41
1.41 2.88 1.84 9.1477e-41
1.46 2.88 1.84 9.1477e-41
1.52 2.88 1.85 9.1477e-41
1.56 2.88 1.84 9.1477e-41
1.61 2.88 1.85 9.1477e-41
1.66 2.88 1.85 9.1477e-41
1.71 2.88 1.86 9.1477e-41
1.75 2.88 1.86 9.1477e-41
1.8 2.88 1.85 9.1477e-41
1.85 2.88 1.86 9.1477e-41
1.89 2.88 1.85 9.1477e-41
1.93 2.88 1.85 9.1477e-41
1.97 2.88 1.84 9.1477e-41
2.01 2.88 1.84 9.1477e-41
2.06 2.88 1.84 9.1477e-41
2.1 2.88 1.84 9.1477e-41
2.14 2.88 1.83 9.1477e-41
2.18 2.88 1.84 9.1477e-41
2.22 2.88 1.84 9.1477e-41
2.27 2.88 1.84 9.1477e-41
2.3 2.88 1.83 9.1477e-41
2.34 2.88 1.83 9.1477e-41
2.37 2.88 1.81 9.1477e-41
2.42 2.88 1.81 9.1477e-41
2.45 2.88 1.81 9.1477e-41
2.48 2.88 1.79 9.1477e-41
2.52 2.88 1.77 9.1477e-41
2.54 2.88 1.73 9.1477e-41
2.56 2.88 1.73 3.57e-43
2.58 2.88 1.73 3.57e-43
2.6 2.88 1.73 3.57e-43
2.61 2.88 1.73 3.57e-43
2.63 2.88 1.73 3.57e-43
2.64 2.88 1.73 3.57e-43
2.65 2.88 1.23 9.1477e-41
2.67 2.88 1.15 9.1477e-41
2.69 2.88 1.08 9.1477e-41
2.7 2.88 0.98 9.1477e-41
2.71 2.88 0.86 9.1477e-41
2.73 2.88 0.75 9.1477e-41
1.24 2.91 1.82 9.1477e-41
1.3 2.91 1.83 9.1477e-41
1.36 2.91 1.84 9.1477e-41
1.41 2.91 1.84 9.1477e-41
1.47 2.91 1.85 9.1477e-41
1.52 2.91 1.85 9.1477e-41
1.57 2.91 1.86 9.1477e-41
1.61 2.91 1.85 9.1477e-41
1.66 2.91 1.85 9.1477e-41
1.71 2.91 1.86 9.1477e-41
1.75 2.91 1.85 9.1477e-41
1.8 2.91 1.86 9.1477e-41
1.84 2.91 1.85 9.1477e-41
1.89 2.91 1.85 9.1477e-41
1.93 2.91 1.85 9.1477e-41
1.98 2.91 1.85 9.1477e-41
2.02 2.91 1.85 9.1477e-41
2.06 2.91 1.85 9.1477e-41
2.1 2.91 1.85 9.1477e-41
2.14 2.91 1.83 9.1477e-41
2.19 2.91 1.84 9.1477e-41
2.22 2.91 1.84 9.1477e-41
2.27 2.91 1.84 9.1477e-41
2.3 2.91 1.82 9.1477e-41
2.34 2.91 1.83 9.1477e-41
2.38 2.91 1.82 9.1477e-41
2.41 2.91 1.81 9.1477e-41
2.46 2.91 1.82 9.1477e-41
2.49 2.91 1.79 9.1477e-41
2.52 2.91 1.77 9.1477e-41
2.54 2.91 1.73 9.1477e-41
2.56 2.91 1.73 3.57e-43
2.58 2.91 1.73 3.57e-43
2.6 2.91 1.73 3.57e-43
2.61 2.91 1.73 3.57e-43
2.63 2.91 1.73 3.57e-43
2.64 2.91 1.73 3.57e-43
2.65 2.91 1.23 9.1477e-41
2.67 2.91 1.15 9.1477e-41
2.69 2.91 1.08 9.1477e-41
2.71 2.91 0.99 9.1477e-41
2.71 2.91 0.86 9.1477e-41
2.73 2.91 0.76 9.1477e-41
2.7 2.91 0.47 9.1477e-41
1.24 2.94 1.82 9.1477e-41
1.3 2.94 1.83 9.1477e-41
1.36 2.94 1.84 9.1477e-41
1.41 2.94 1.84 9.1477e-41
1.46 2.94 1.84 9.1477e-41
1.52 2.94 1.85 9.1477e-41
1.57 2.94 1.86 9.1477e-41
1.61 2.94 1.85 9.1477e-41
1.67 2.94 1.86 9.1477e-41
1.71 2.94 1.85 9.1477e-41
1.75 2.94 1.86 9.1477e-41
1.8 2.94 1.85 9.1477e-41
1.85 2.94 1.86 9.1477e-41
1.89 2.94 1.86 9.1477e-41
1.93 2.94 1.85 9.1477e-41
1.98 2.94 1.85 9.1477e-41
2.01 2.94 1.84 9.1477e-41
2.06 2.94 1.84 9.1477e-41
2.1 2.94 1.85 9.1477e-41
2.15 2.94 1.85 9.1477e-41
2.19 2.94 1.84 9.1477e-41
2.22 2.94 1.83 9.1477e-41
2.26 2.94 1.83 9.1477e-41
2.3 2.94 1.83 9.1477e-41
2.34 2.94 1.83 9.1477e-41
2.38 2.94 1.82 9.1477e-41
2.41 2.94 1.8 9.1477e-41
2.45 2.94 1.81 9.1477e-41
2.48 2.94 1.79 9.1477e-41
2.52 2.94 1.77 9.1477e-41
2.54 2.94 1.74 9.1477e-41
2.56 2.94 1.74 3.57e-43
2.58 2.94 1.74 3.57e-43
2.6 2.94 1.74 3.57e-43
2.61 2.94 1.74 3.57e-43
2.63 2.94 1.74 3.57e-43
2.64 2.94 1.74 3.57e-43
2.65 2.94 1.23 9.1477e-41
2.67 2.94 1.14 9.1477e-41
2.69 2.94 1.08 9.1477e-41
2.7 2.94 0.98 9.1477e-41
2.72 2.94 0.87 9.1477e-41
2.73 2.94 0.76 9.1477e-41
2.7 2.94 0.46 9.1477e-41
1.24 2.97 1.82 9.1477e-41
1.3 2.97 1.83 9.1477e-41
1.36 2.97 1.84 9.1477e-41
1.41 2.97 1.84 9.1477e-41
1.47 2.97 1.85 9.1477e-41
1.52 2.97 1.85 9.1477e-41
1.56 2.97 1.85 9.1477e-41
1.61 2.97 1.85 9.1477e-41
1.66 2.97 1.85 9.1477e-41
1.71 2.97 1.86 9.1477e-41
1.76 2.97 1.86 9.1477e-41
1.8 2.97 1.85 9.1477e-41
1.84 2.97 1.85 9.1477e-41
1.88 2.97 1.84 9.1477e-41
1.93 2.97 1.85 9.1477e-41
1.98 2.97 1.85 9.1477e-41
2.01 2.97 1.84 9.1477e-41
2.06 2.97 1.85 9.1477e-41
2.1 2.97 1.84 9.1477e-41
2.14 2.97 1.84 9.1477e-41
2.18 2.97 1.84 9.1477e-41
2.22 2.97 1.84 9.1477e-41
2.26 2.97 1.83 9.1477e-41
2.3 2.97 1.83 9.1477e-41
2.34 2.97 1.83 9.1477e-41
2.37 2.97 1.81 9.1477e-41
2.42 2.97 1.81 9.1477e-41
2.46 2.97 1.82 9.1477e-41
2.48 2.97 1.79 9.1477e-41
2.51 2.97 1.76 9.1477e-41
2.54 2.97 1.72 9.1477e-41
2.56 2.97 1.72 3.57e-43
2.58 2.97 1.72 3.57e-43
2.6 2.97 1.72 3.57e-43
2.61 2.97 1.72 3.57e-43
2.63 2.97 1.72 3.57e-43
2.64 2.97 1.72 3.57e-43
2.65 2.97 1.23 9.1477e-41
2.67 2.97 1.15 9.1477e-41
2.69 2.97 1.08 9.1477e-41
2.7 2.97 0.97 9.1477e-41
2.72 2.97 0.87 9.1477e-41
2.73 2.97 0.76 9.1477e-41
2.69 2.97 0.45 9.1477e-41
1.23 3 1.81 9.1477e-41
1.3 3 1.83 9.1477e-41
1.35 3 1.83 9.1477e-41
1.4 3 1.83 9.1477e-41
1.46 3 1.84 9.1477e-41
1.51 3 1.84 9.1477e-41
1.57 3 1.86 9.1477e-41
1.61 3 1.85 9.1477e-41
1.66 3 1.85 9.1477e-41
1.71 3 1.85 9.1477e-41
1.75 3 1.85 9.1477e-41
1.8 3 1.86 9.1477e-41
1.84 3 1.85 9.1477e-41
1.89 3 1.86 9.1477e-41
1.93 3 1.85 9.1477e-41
1.98 3 1.85 9.1477e-41
2.02 3 1.85 9.1477e-41
2.06 3 1.85 9.1477e-41
2.1 3 1.84 9.1477e-41
2.14 3 1.83 9.1477e-41
2.19 3 1.84 9.1477e-41
2.22 3 1.84 9.1477e-41
2.26 3 1.83 9.1477e-41
2.3 3 1.82 9.1477e-41
2.34 3 1.83 9.1477e-41
2.38 3 1.83 9.1477e-41
2.41 3 1.81 9.1477e-41
2.46 3 1.82 9.1477e-41
2.48 3 1.79 9.1477e-41
2.51 3 1.76 9.1477e-41
2.54 3 1.73 9.1477e-41
2.56 3 1.73 3.57e-43
2.58 3 1.73 3.57e-43
2.6 3 1.73 3.57e-43
2.61 3 1.73 3.57e-43
2.63 3 1.73 3.57e-43
2.64 3 1.73 3.57e-43
2.65 3 1.23 9.1477e-41
2.67 3 1.15 9.1477e-41
2.69 3 1.08 9.1477e-41
2.7 3 0.98 9.1477e-41
2.72 3 0.88 9.1477e-41
2.73 3 0.77 9.1477e-41
1.23 3.03 1.81 9.1477e-41
1.3 3.03 1.82 9.1477e-41
1.36 3.03 1.84 9.1477e-41
1.42 3.03 1.85 9.1477e-41
1.47 3.03 1.85 9.1477e-41
1.51 3.03 1.84 9.1477e-41
1.56 3.03 1.85 9.1477e-41
1.61 3.03 1.85 9.1477e-41
1.66 3.03 1.85 9.1477e-41
1.71 3.03 1.86 9.1477e-41
1.75 3.03 1.85 9.1477e-41
1.8 3.03 1.85 9.1477e-41
1.85 3.03 1.86 9.1477e-41
1.89 3.03 1.85 9.1477e-41
1.93 3.03 1.85 9.1477e-41
1.98 3.03 1.85 9.1477e-41
2.02 3.03 1.86 9.1477e-41
2.06 3.03 1.84 9.1477e-41
2.1 3.03 1.84 9.1477e-41
2.14 3.03 1.84 9.1477e-41
2.19 3.03 1.84 9.1477e-41
2.22 3.03 1.84 9.1477e-41
2.26 3.03 1.83 9.1477e-41
2.3 3.03 1.83 9.1477e-41
2.34 3.03 1.83 9.1477e-41
2.37 3.03 1.81 9.1477e-41
2.41 3.03 1.81 9.1477e-41
2.46 3.03 1.82 9.1477e-41
2.48 3.03 1.79 9.1477e-41
2.52 3.03 1.77 9.1477e-41
2.54 3.03 1.72 9.1477e-41
2.57 3.03 1.72 3.57e-43
2.58 3.03 1.72 3.57e-43
2.6 3.03 1.72 3.57e-43
2.61 3.03 1.72 3.57e-43
2.63 3.03 1.72 3.57e-43
2.64 3.03 1.72 3.57e-43
2.65 3.03 1.23 9.1477e-41
2.67 3.03 1.16 9.1477e-41
2.69 3.03 1.08 9.1477e-41
2.7 3.03 0.98 9.1477e-41
2.72 3.03 0.88 9.1477e-41
2.73 3.03 0.75 9.1477e-41
1.23 3.06 1.81 9.1477e-41
1.3 3.06 1.83 9.1477e-41
1.36 3.06 1.84 9.1477e-41
1.41 3.06 1.84 9.1477e-41
1.47 3.06 1.85 9.1477e-41
1.51 3.06 1.84 9.1477e-41
1.56 3.06 1.85 9.1477e-41
1.62 3.06 1.86 9.1477e-41
1.66 3.06 1.85 9.1477e-41
1.71 3.06 1.85 9.1477e-41
1.75 3.06 1.86 9.1477e-41
1.79 3.06 1.84 9.1477e-41
1.84 3.06 1.85 9.1477e-41
1.89 3.06 1.85 9.1477e-41
1.93 3.06 1.85 9.1477e-41
1.98 3.06 1.85 9.1477e-41
2.01 3.06 1.84 9.1477e-41
2.06 3.06 1.85 9.1477e-41
2.1 3.06 1.84 9.1477e-41
2.14 3.06 1.84 9.1477e-41
2.19 3.06 1.84 9.1477e-41
2.22 3.06 1.84 9.1477e-41
2.26 3.06 1.83 9.1477e-41
2.3 3.06 1.83 9.1477e-41
2.34 3.06 1.83 9.1477e-41
2.38 3.06 1.82 9.1477e-41
2.42 3.06 1.81 9.1477e-41
2.45 3.06 1.81 9.1477e-41
2.48 3.06 1.79 9.1477e-41
2.51 3.06 1.76 9.1477e-41
2.54 3.06 1.72 9.1477e-41
2.56 3.06 1.72 3.57e-43
2.58 3.06 1.72 3.57e-43
2.6 3.06 1.72 3.57e-43
2.61 3.06 1.72 3.57e-43
2.63 3.06 1.72 3.57e-43
2.64 3.06 1.72 3.57e-43
2.65 3.06 1.23 9.1477e-41
2.67 3.06 1.15 9.1477e-41
2.69 3.06 1.08 9.1477e-41
2.7 3.06 0.98 9.1477e-41
2.72 3.06 0.88 9.1477e-41
2.73 3.06 0.75 9.1477e-41
1.24 3.09 1.82 9.1477e-41
1.3 3.09 1.82 9.1477e-41
1.35 3.09 1.83 9.1477e-41
1.41 3.09 1.84 9.1477e-41
1.46 3.09 1.84 9.1477e-41
1.52 3.09 1.85 9.1477e-41
1.56 3.09 1.85 9.1477e-41
1.61 3.09 1.84 9.1477e-41
1.66 3.09 1.85 9.1477e-41
1.71 3.09 1.85 9.1477e-41
1.75 3.09 1.86 9.1477e-41
1.8 3.09 1.85 9.1477e-41
1.84 3.09 1.85 9.1477e-41
1.89 3.09 1.86 9.1477e-41
1.93 3.09 1.85 9.1477e-41
1.98 3.09 1.85 9.1477e-41
2.01 3.09 1.84 9.1477e-41
2.06 3.09 1.84 9.1477e-41
2.1 3.09 1.84 9.1477e-41
2.14 3.09 1.83 9.1477e-41
2.18 3.09 1.84 9.1477e-41
2.22 3.09 1.83 9.1477e-41
2.27 3.09 1.84 9.1477e-41
2.3 3.09 1.83 9.1477e-41
2.34 3.09 1.83 9.1477e-41
2.37 3.09 1.81 9.1477e-41
2.41 3.09 1.81 9.1477e-41
2.45 3.09 1.81 9.1477e-41
2.48 3.09 1.78 9.1477e-41
2.51 3.09 1.76 9.1477e-41
2.54 3.09 1.72 9.1477e-41
2.56 3.09 1.72 3.57e-43
2.58 3.09 1.72 3.57e-43
2.6 3.09 1.72 3.57e-43
2.61 3.09 1.72 3.57e-43
2.63 3.09 1.72 3.57e-43
2.64 3.09 1.72 3.57e-43
2.65 3.09 1.23 9.1477e-41
2.67 3.09 1.15 9.1477e-41
2.69 3.09 1.07 9.1477e-41
2.7 3.09 0.98 9.1477e-41
2.72 3.09 0.87 9.1477e-41
2.72 3.09 0.71 9.1477e-41
1.25 3.12 1.82 9.1477e-41
1.3 3.12 1.83 9.1477e-41
1.36 3.12 1.84 9.1477e-41
1.42 3.12 1.85 9.1477e-41
1.46 3.12 1.84 9.1477e-41
1.52 3.12 1.86 9.1477e-41
1.56 3.12 1.85 9.1477e-41
1.61 3.12 1.84 9.1477e-41
1.65 3.12 1.84 9.1477e-41
1.7 3.12 1.84 9.1477e-41
1.75 3.12 1.86 9.1477e-41
1.8 3.12 1.85 9.1477e-41
1.84 3.12 1.85 9.1477e-41
1.88 3.12 1.84 9.1477e-41
1.93 3.12 1.85 9.1477e-41
1.97 3.12 1.84 9.1477e-41
2.01 3.12 1.83 9.1477e-41
2.06 3.12 1.84 9.1477e-41
2.1 3.12 1.84 9.1477e-41
2.14 3.12 1.83 9.1477e-41
2.18 3.12 1.84 9.1477e-41
2.23 3.12 1.85 9.1477e-41
2.27 3.12 1.84 9.1477e-41
2.3 3.12 1.83 9.1477e-41
2.34 3.12 1.83 9.1477e-41
2.37 3.12 1.81 9.1477e-41
2.41 3.12 1.81 9.1477e-41
2.46 3.12 1.83 9.1477e-41
2.47 3.12 1.75 9.1477e-41
2.52 3.12 1.78 9.1477e-41
2.53 3.12 1.71 9.1477e-41
2.56 3.12 1.71 3.57e-43
2.58 3.12 1.71 3.57e-43
2.6 3.12 1.71 3.57e-43
2.61 3.12 1.71 3.57e-43
2.63 3.12 1.71 3.57e-43
2.64 3.12 1.71 3.57e-43
2.65 3.12 1.23 9.1477e-41
2.67 3.12 1.14 9.1477e-41
2.69 3.12 1.08 9.1477e-41
2.7 3.12 0.98 9.1477e-41
2.72 3.12 0.87 9.1477e-41
2.71 3.12 0.68 9.1477e-41
2.68 3.12 0.4 9.1477e-41
1.24 3.15 1.82 9.1477e-41
1.3 3.15 1.82 9.1477e-41
1.35 3.15 1.83 9.1477e-41
1.41 3.15 1.84 9.1477e-41
1.46 3.15 1.84 9.1477e-41
1.51 3.15 1.84 9.1477e-41
1.56 3.15 1.84 9.1477e-41
1.61 3.15 1.85 9.1477e-41
1.66 3.15 1.85 9.1477e-41
1.71 3.15 1.85 9.1477e-41
1.75 3.15 1.86 9.1477e-41
1.79 3.15 1.84 9.1477e-41
1.84 3.15 1.85 9.1477e-41
1.89 3.15 1.85 9.1477e-41
1.92 3.15 1.84 9.1477e-41
1.97 3.15 1.84 9.1477e-41
2.01 3.15 1.84 9.1477e-41
2.06 3.15 1.84 9.1477e-41
2.1 3.15 1.84 9.1477e-41
2.14 3.15 1.83 9.1477e-41
2.18 3.15 1.84 9.1477e-41
2.22 3.15 1.83 9.1477e-41
2.26 3.15 1.83 9.1477e-41
2.3 3.15 1.82 9.1477e-41
2.34 3.15 1.83 9.1477e-41
2.37 3.15 1.81 9.1477e-41
2.41 3.15 1.81 9.1477e-41
2.46 3.15 1.83 9.1477e-41
2.48 3.15 1.77 9.1477e-41
2.53 3.15 1.81 9.1477e-41
2.53 3.15 1.71 9.1477e-41
2.56 3.15 1.71 3.57e-43
2.58 3.15 1.71 3.57e-43
2.6 3.15 1.71 3.57e-43
2.61 3.15 1.71 3.57e-43
2.63 3.15 1.71 3.57e-43
2.64 3.15 1.71 3.57e-43
2.65 3.15 1.23 9.1477e-41
2.67 3.15 1.15 9.1477e-41
2.68 3.15 1.06 9.1477e-41
2.7 3.15 0.98 9.1477e-41
2.72 3.15 0.87 9.1477e-41
2.72 3.15 0.72 9.1477e-41
1.24 3.18 1.82 9.1477e-41
1.3 3.18 1.83 9.1477e-41
1.35 3.18 1.83 9.1477e-41
1.4 3.18 1.83 9.1477e-41
1.46 3.18 1.83 9.1477e-41
1.51 3.18 1.84 9.1477e-41
1.56 3.18 1.85 9.1477e-41
1.61 3.18 1.84 9.1477e-41
1.66 3.18 1.85 9.1477e-41
1.7 3.18 1.84 9.1477e-41
1.75 3.18 1.85 9.1477e-41
1.79 3.18 1.84 9.1477e-41
1.84 3.18 1.85 9.1477e-41
1.89 3.18 1.85 9.1477e-41
1.93 3.18 1.85 9.1477e-41
1.97 3.18 1.84 9.1477e-41
2.01 3.18 1.84 9.1477e-41
2.06 3.18 1.84 9.1477e-41
2.1 3.18 1.84 9.1477e-41
2.14 3.18 1.83 9.1477e-41
2.19 3.18 1.84 9.1477e-41
2.22 3.18 1.84 9.1477e-41
2.26 3.18 1.83 9.1477e-41
2.29 3.18 1.81 9.1477e-41
2.34 3.18 1.83 9.1477e-41
2.37 3.18 1.8 9.1477e-41
2.42 3.18 1.81 9.1477e-41
2.48 3.18 1.86 9.1477e-41
