# .PCD v.7 - Point Cloud Data file format
VERSION .7
FIELDS x y z rgb
SIZE 4 4 4 4
TYPE F F F F
WIDTH 1896
HEIGHT 1
POINTS 1896
DATA ascii
1.83 0.69 0.94 9.1477e-41
1.85 0.69 0.86 9.1477e-41
1.87 0.69 0.8 9.1477e-41
1.88 0.69 0.71 9.1477e-41
1.86 0.69 0.53 9.1477e-41
1.86 0.69 0.42 9.1477e-41
0.31 0.72 1.08 9.1477e-41
0.39 0.72 1.1 9.1477e-41
0.46 0.72 1.1 9.1477e-41
0.53 0.72 1.11 9.1477e-41
0.59 0.72 1.11 9.1477e-41
0.66 0.72 1.12 9.1477e-41
0.72 0.72 1.12 9.1477e-41
0.79 0.72 1.12 9.1477e-41
0.84 0.72 1.12 9.1477e-41
0.91 0.72 1.12 9.1477e-41
0.96 0.72 1.12 9.1477e-41
1.03 0.72 1.12 9.1477e-41
1.08 0.72 1.11 9.1477e-41
1.14 0.72 1.12 9.1477e-41
1.19 0.72 1.11 9.1477e-41
1.24 0.72 1.1 9.1477e-41
1.29 0.72 1.1 9.1477e-41
1.35 0.72 1.11 9.1477e-41
1.39 0.72 1.09 9.1477e-41
1.45 0.72 1.09 9.1477e-41
1.5 0.72 1.08 9.1477e-41
1.55 0.72 1.08 9.1477e-41
1.6 0.72 1.08 9.1477e-41
1.64 0.72 1.07 9.1477e-41
1.69 0.72 1.06 9.1477e-41
1.74 0.72 1.06 9.1477e-41
1.78 0.72 1.04 9.1477e-41
1.81 0.72 0.98 9.1477e-41
1.83 0.72 0.93 9.1477e-41
1.86 0.72 0.89 9.1477e-41
1.88 0.72 0.81 9.1477e-41
1.88 0.72 0.71 9.1477e-41
1.86 0.72 0.54 9.1477e-41
0.32 0.75 1.1 9.1477e-41
0.4 0.75 1.11 9.1477e-41
0.46 0.75 1.1 9.1477e-41
0.54 0.75 1.12 9.1477e-41
0.6 0.75 1.12 9.1477e-41
0.66 0.75 1.12 9.1477e-41
0.73 0.75 1.13 9.1477e-41
0.8 0.75 1.14 9.1477e-41
0.85 0.75 1.13 9.1477e-41
0.91 0.75 1.13 9.1477e-41
0.97 0.75 1.13 9.1477e-41
1.03 0.75 1.12 9.1477e-41
1.09 0.75 1.13 9.1477e-41
1.14 0.75 1.12 9.1477e-41
1.2 0.75 1.13 9.1477e-41
1.25 0.75 1.12 9.1477e-41
1.3 0.75 1.11 9.1477e-41
1.35 0.75 1.11 9.1477e-41
1.4 0.75 1.1 9.1477e-41
1.46 0.75 1.1 9.1477e-41
1.5 0.75 1.08 9.1477e-41
1.55 0.75 1.08 9.1477e-41
1.6 0.75 1.08 9.1477e-41
1.65 0.75 1.08 9.1477e-41
1.7 0.75 1.07 9.1477e-41
1.75 0.75 1.07 9.1477e-41
1.78 0.75 1.04 9.1477e-41
1.81 0.75 0.99 9.1477e-41
1.83 0.75 0.94 9.1477e-41
1.86 0.75 0.89 9.1477e-41
1.88 0.75 0.82 9.1477e-41
1.88 0.75 0.71 9.1477e-41
1.86 0.75 0.53 9.1477e-41
0.33 0.78 1.11 9.1477e-41
0.4 0.78 1.11 9.1477e-41
0.48 0.78 1.13 9.1477e-41
0.55 0.78 1.14 9.1477e-41
0.6 0.78 1.12 9.1477e-41
0.67 0.78 1.13 9.1477e-41
0.73 0.78 1.13 9.1477e-41
0.8 0.78 1.14 9.1477e-41
0.85 0.78 1.12 9.1477e-41
0.91 0.78 1.13 9.1477e-41
0.97 0.78 1.13 9.1477e-41
1.03 0.78 1.13 9.1477e-41
1.08 0.78 1.12 9.1477e-41
1.14 0.78 1.12 9.1477e-41
1.2 0.78 1.13 9.1477e-41
1.25 0.78 1.12 9.1477e-41
1.3 0.78 1.12 9.1477e-41
1.35 0.78 1.11 9.1477e-41
1.41 0.78 1.12 9.1477e-41
1.46 0.78 1.1 9.1477e-41
1.51 0.78 1.11 9.1477e-41
1.55 0.78 1.09 9.1477e-41
1.61 0.78 1.1 9.1477e-41
1.65 0.78 1.08 9.1477e-41
1.7 0.78 1.08 9.1477e-41
1.75 0.78 1.07 9.1477e-41
1.79 0.78 1.05 9.1477e-41
1.82 0.78 1 9.1477e-41
1.84 0.78 0.95 9.1477e-41
1.86 0.78 0.89 9.1477e-41
1.88 0.78 0.82 9.1477e-41
1.89 0.78 0.72 9.1477e-41
1.86 0.78 0.53 9.1477e-41
0.28 0.81 1.12 9.1477e-41
0.34 0.81 1.11 9.1477e-41
0.41 0.81 1.13 9.1477e-41
0.48 0.81 1.13 9.1477e-41
0.54 0.81 1.13 9.1477e-41
0.61 0.81 1.14 9.1477e-41
0.68 0.81 1.14 9.1477e-41
0.73 0.81 1.13 9.1477e-41
0.8 0.81 1.14 9.1477e-41
0.85 0.81 1.13 9.1477e-41
0.92 0.81 1.14 9.1477e-41
0.98 0.81 1.14 9.1477e-41
1.03 0.81 1.12 9.1477e-41
1.09 0.81 1.14 9.1477e-41
1.14 0.81 1.13 9.1477e-41
1.2 0.81 1.13 9.1477e-41
1.25 0.81 1.13 9.1477e-41
1.3 0.81 1.12 9.1477e-41
1.35 0.81 1.11 9.1477e-41
1.41 0.81 1.11 9.1477e-41
1.46 0.81 1.11 9.1477e-41
1.51 0.81 1.11 9.1477e-41
1.56 0.81 1.11 9.1477e-41
1.61 0.81 1.1 9.1477e-41
1.66 0.81 1.09 9.1477e-41
1.71 0.81 1.09 9.1477e-41
1.76 0.81 1.09 9.1477e-41
1.79 0.81 1.05 9.1477e-41
1.82 0.81 1 9.1477e-41
1.84 0.81 0.95 9.1477e-41
1.86 0.81 0.89 9.1477e-41
1.88 0.81 0.81 9.1477e-41
1.89 0.81 0.71 9.1477e-41
1.85 0.81 0.52 9.1477e-41
0.28 0.84 1.12 9.1477e-41
0.34 0.84 1.12 9.1477e-41
0.41 0.84 1.13 9.1477e-41
0.48 0.84 1.14 9.1477e-41
0.54 0.84 1.13 9.1477e-41
0.61 0.84 1.13 9.1477e-41
0.67 0.84 1.13 9.1477e-41
0.72 0.84 1.11 9.1477e-41
0.76 0.84 1.08 9.1477e-41
0.8 0.84 1.05 9.1477e-41
0.86 0.84 1.05 9.1477e-41
0.93 0.84 1.07 9.1477e-41
1 0.84 1.08 9.1477e-41
1.06 0.84 1.1 9.1477e-41
1.14 0.84 1.13 9.1477e-41
1.2 0.84 1.13 9.1477e-41
1.25 0.84 1.13 9.1477e-41
1.31 0.84 1.13 9.1477e-41
1.36 0.84 1.12 9.1477e-41
1.42 0.84 1.13 9.1477e-41
1.47 0.84 1.12 9.1477e-41
1.51 0.84 1.11 9.1477e-41
1.57 0.84 1.12 9.1477e-41
1.61 0.84 1.11 9.1477e-41
1.66 0.84 1.09 9.1477e-41
1.71 0.84 1.1 9.1477e-41
1.76 0.84 1.09 9.1477e-41
1.79 0.84 1.06 9.1477e-41
1.82 0.84 1.02 9.1477e-41
1.84 0.84 0.95 9.1477e-41
1.87 0.84 0.9 9.1477e-41
1.88 0.84 0.82 9.1477e-41
1.89 0.84 0.72 9.1477e-41
1.86 0.84 0.54 9.1477e-41
0.29 0.87 1.14 9.1477e-41
0.35 0.87 1.13 9.1477e-41
0.42 0.87 1.14 9.1477e-41
0.48 0.87 1.13 9.1477e-41
0.49 0.87 1.07 9.1477e-41
0.55 0.87 1.06 9.1477e-41
0.62 0.87 1.06 9.1477e-41
0.69 0.87 1.07 9.1477e-41
0.76 0.87 1.08 9.1477e-41
0.82 0.87 1.08 9.1477e-41
0.87 0.87 1.06 9.1477e-41
0.94 0.87 1.08 9.1477e-41
1 0.87 1.08 3.57e-43
1.06 0.87 1.08 3.57e-43
1.14 0.87 1.08 3.57e-43
1.2 0.87 1.13 9.1477e-41
1.22 0.87 1.08 9.1477e-41
1.28 0.87 1.09 9.1477e-41
1.35 0.87 1.11 9.1477e-41
1.42 0.87 1.13 9.1477e-41
1.47 0.87 1.13 9.1477e-41
1.52 0.87 1.12 9.1477e-41
1.57 0.87 1.12 9.1477e-41
1.62 0.87 1.12 9.1477e-41
1.66 0.87 1.1 9.1477e-41
1.72 0.87 1.12 9.1477e-41
1.76 0.87 1.09 9.1477e-41
1.8 0.87 1.07 9.1477e-41
1.82 0.87 1.01 9.1477e-41
1.85 0.87 0.96 9.1477e-41
1.87 0.87 0.9 9.1477e-41
1.88 0.87 0.82 9.1477e-41
1.88 0.87 0.7 9.1477e-41
1.86 0.87 0.53 9.1477e-41
0.29 0.9 1.14 9.1477e-41
0.35 0.9 1.14 9.1477e-41
0.36 0.9 1.07 9.1477e-41
0.42 0.9 1.06 9.1477e-41
0.49 0.9 1.07 9.1477e-41
0.56 0.9 1.07 9.1477e-41
0.63 0.9 1.07 9.1477e-41
0.7 0.9 1.08 9.1477e-41
0.76 0.9 1.09 9.1477e-41
0.83 0.9 1.09 3.57e-43
0.87 0.9 1.09 3.57e-43
0.94 0.9 1.09 3.57e-43
1 0.9 1.09 3.57e-43
1.06 0.9 1.1 9.1477e-41
1.12 0.9 1.09 9.1477e-41
1.17 0.9 1.08 9.1477e-41
1.23 0.9 1.09 9.1477e-41
1.27 0.9 1.07 9.1477e-41
1.33 0.9 1.07 9.1477e-41
1.38 0.9 1.07 9.1477e-41
1.45 0.9 1.09 9.1477e-41
1.52 0.9 1.12 9.1477e-41
1.57 0.9 1.12 9.1477e-41
1.63 0.9 1.13 9.1477e-41
1.68 0.9 1.13 9.1477e-41
1.72 0.9 1.12 9.1477e-41
1.76 0.9 1.1 9.1477e-41
1.8 0.9 1.07 9.1477e-41
1.83 0.9 1.03 9.1477e-41
1.84 0.9 0.95 9.1477e-41
1.87 0.9 0.91 9.1477e-41
1.89 0.9 0.83 9.1477e-41
1.88 0.9 0.71 9.1477e-41
1.86 0.9 0.53 9.1477e-41
0.3 0.93 1.15 9.1477e-41
0.33 0.93 1.11 9.1477e-41
0.36 0.93 1.07 9.1477e-41
0.43 0.93 1.07 9.1477e-41
0.49 0.93 1.07 3.57e-43
0.56 0.93 1.07 3.57e-43
0.63 0.93 1.07 3.57e-43
0.7 0.93 1.07 3.57e-43
0.76 0.93 1.07 3.57e-43
0.83 0.93 1.07 3.57e-43
0.87 0.93 1.07 3.57e-43
0.94 0.93 1.07 3.57e-43
1 0.93 1.08 9.1477e-41
1.09 0.93 1.08 3.57e-43
1.12 0.93 1.08 3.57e-43
1.17 0.93 1.08 9.1477e-41
1.24 0.93 1.11 9.1477e-41
1.29 0.93 1.1 9.1477e-41
1.34 0.93 1.09 9.1477e-41
1.38 0.93 1.07 9.1477e-41
1.44 0.93 1.07 9.1477e-41
1.5 0.93 1.08 9.1477e-41
1.56 0.93 1.11 9.1477e-41
1.63 0.93 1.13 9.1477e-41
1.67 0.93 1.12 9.1477e-41
1.72 0.93 1.12 9.1477e-41
1.77 0.93 1.11 9.1477e-41
1.81 0.93 1.08 9.1477e-41
1.83 0.93 1.03 9.1477e-41
1.85 0.93 0.96 9.1477e-41
1.87 0.93 0.9 9.1477e-41
1.88 0.93 0.82 9.1477e-41
1.88 0.93 0.71 9.1477e-41
1.85 0.93 0.52 9.1477e-41
0.28 0.96 1.12 9.1477e-41
0.32 0.96 1.09 9.1477e-41
0.37 0.96 1.09 3.57e-43
0.43 0.96 1.09 3.57e-43
0.49 0.96 1.07 9.1477e-41
0.63 0.96 1.15 9.1477e-41
0.67 0.96 1.15 3.57e-43
0.7 0.96 1.08 9.1477e-41
0.81 0.96 1.15 9.1477e-41
0.88 0.96 1.16 9.1477e-41
0.93 0.96 1.15 9.1477e-41
0.98 0.96 1.15 3.57e-43
1 0.96 1.08 9.1477e-41
1.09 0.96 1.14 9.1477e-41
1.14 0.96 1.13 9.1477e-41
1.21 0.96 1.15 9.1477e-41
1.25 0.96 1.12 9.1477e-41
1.3 0.96 1.11 9.1477e-41
1.34 0.96 1.1 9.1477e-41
1.39 0.96 1.1 3.57e-43
1.44 0.96 1.07 9.1477e-41
1.5 0.96 1.08 9.1477e-41
1.54 0.96 1.07 9.1477e-41
1.6 0.96 1.08 9.1477e-41
1.68 0.96 1.14 9.1477e-41
1.73 0.96 1.12 9.1477e-41
1.77 0.96 1.11 9.1477e-41
1.8 0.96 1.08 9.1477e-41
1.83 0.96 1.03 9.1477e-41
1.85 0.96 0.97 9.1477e-41
1.87 0.96 0.9 9.1477e-41
1.88 0.96 0.82 9.1477e-41
1.89 0.96 0.71 9.1477e-41
1.86 0.96 0.53 9.1477e-41
0.29 0.99 1.14 9.1477e-41
0.32 0.99 1.14 3.57e-43
0.37 0.99 1.14 3.57e-43
0.43 0.99 1.07 9.1477e-41
0.57 0.99 1.16 9.1477e-41
0.63 0.99 1.16 3.57e-43
0.67 0.99 1.16 3.57e-43
0.7 0.99 1.16 3.57e-43
0.81 0.99 1.16 3.57e-43
0.88 0.99 1.16 3.57e-43
0.93 0.99 1.16 3.57e-43
0.98 0.99 1.16 3.57e-43
1 0.99 1.16 3.57e-43
1.09 0.99 1.16 3.57e-43
1.14 0.99 1.16 3.57e-43
1.21 0.99 1.16 3.57e-43
1.25 0.99 1.16 3.57e-43
1.3 0.99 1.16 3.57e-43
1.34 0.99 1.16 3.57e-43
1.39 0.99 1.16 3.57e-43
1.44 0.99 1.16 3.57e-43
1.5 0.99 1.16 3.57e-43
1.54 0.99 1.07 9.1477e-41
1.59 0.99 1.07 9.1477e-41
1.66 0.99 1.1 9.1477e-41
1.74 0.99 1.15 9.1477e-41
1.77 0.99 1.11 9.1477e-41
1.81 0.99 1.09 9.1477e-41
1.83 0.99 1.03 9.1477e-41
1.85 0.99 0.97 9.1477e-41
1.87 0.99 0.9 9.1477e-41
1.88 0.99 0.82 9.1477e-41
1.89 0.99 0.71 9.1477e-41
1.86 0.99 0.53 9.1477e-41
0.26 1.02 1.19 9.1477e-41
0.29 1.02 1.19 3.57e-43
0.32 1.02 1.09 9.1477e-41
0.45 1.02 1.09 3.57e-43
0.43 1.02 1.09 3.57e-43
0.57 1.02 1.09 3.57e-43
0.63 1.02 1.09 3.57e-43
0.67 1.02 1.09 3.57e-43
0.7 1.02 1.09 3.57e-43
0.81 1.02 1.09 3.57e-43
0.88 1.02 1.09 3.57e-43
0.93 1.02 1.09 3.57e-43
0.98 1.02 1.09 3.57e-43
1 1.02 1.09 3.57e-43
1.09 1.02 1.09 3.57e-43
1.14 1.02 1.09 3.57e-43
1.21 1.02 1.09 3.57e-43
1.25 1.02 1.09 3.57e-43
1.3 1.02 1.09 3.57e-43
1.34 1.02 1.09 3.57e-43
1.39 1.02 1.09 3.57e-43
1.44 1.02 1.09 3.57e-43
1.5 1.02 1.09 3.57e-43
1.54 1.02 1.09 3.57e-43
1.59 1.02 1.07 9.1477e-41
1.65 1.02 1.08 9.1477e-41
1.74 1.02 1.16 9.1477e-41
1.78 1.02 1.12 9.1477e-41
1.81 1.02 1.08 9.1477e-41
1.83 1.02 1.04 9.1477e-41
1.85 1.02 0.97 9.1477e-41
1.87 1.02 0.91 9.1477e-41
1.88 1.02 0.82 9.1477e-41
1.89 1.02 0.72 9.1477e-41
1.85 1.02 0.52 9.1477e-41
0.26 1.05 1.19 9.1477e-41
0.32 1.05 1.17 9.1477e-41
0.39 1.05 1.17 3.57e-43
0.45 1.05 1.17 3.57e-43
0.43 1.05 1.17 3.57e-43
0.57 1.05 1.17 3.57e-43
0.63 1.05 1.17 3.57e-43
0.67 1.05 1.17 3.57e-43
0.7 1.05 1.17 3.57e-43
0.81 1.05 1.17 3.57e-43
0.88 1.05 1.17 3.57e-43
0.93 1.05 1.17 3.57e-43
0.98 1.05 1.17 3.57e-43
1 1.05 1.17 3.57e-43
1.09 1.05 1.17 3.57e-43
1.14 1.05 1.17 3.57e-43
1.21 1.05 1.17 3.57e-43
1.25 1.05 1.17 3.57e-43
1.3 1.05 1.17 3.57e-43
1.34 1.05 1.17 3.57e-43
1.39 1.05 1.17 3.57e-43
1.44 1.05 1.17 3.57e-43
1.5 1.05 1.17 3.57e-43
1.54 1.05 1.17 3.57e-43
1.59 1.05 1.07 9.1477e-41
1.67 1.05 1.11 9.1477e-41
1.74 1.05 1.16 9.1477e-41
1.78 1.05 1.13 9.1477e-41
1.81 1.05 1.09 9.1477e-41
1.83 1.05 1.04 9.1477e-41
1.85 1.05 0.96 9.1477e-41
1.87 1.05 0.91 9.1477e-41
1.88 1.05 0.82 9.1477e-41
1.89 1.05 0.73 9.1477e-41
1.86 1.05 0.53 9.1477e-41
0.26 1.08 1.19 9.1477e-41
0.31 1.08 1.19 3.57e-43
0.39 1.08 1.19 3.57e-43
0.45 1.08 1.19 3.57e-43
0.43 1.08 1.19 3.57e-43
0.57 1.08 1.19 3.57e-43
0.63 1.08 1.19 3.57e-43
0.67 1.08 1.19 3.57e-43
0.7 1.08 1.19 3.57e-43
0.81 1.08 1.19 3.57e-43
0.88 1.08 1.19 3.57e-43
0.93 1.08 1.19 3.57e-43
0.98 1.08 1.19 3.57e-43
1 1.08 1.19 3.57e-43
1.09 1.08 1.19 3.57e-43
1.14 1.08 1.19 3.57e-43
1.21 1.08 1.19 3.57e-43
1.25 1.08 1.19 3.57e-43
1.3 1.08 1.19 3.57e-43
1.34 1.08 1.19 3.57e-43
1.39 1.08 1.19 3.57e-43
1.44 1.08 1.19 3.57e-43
1.5 1.08 1.19 3.57e-43
1.54 1.08 1.19 3.57e-43
1.59 1.08 1.07 9.1477e-41
1.68 1.08 1.13 9.1477e-41
1.75 1.08 1.17 9.1477e-41
1.78 1.08 1.14 9.1477e-41
1.82 1.08 1.11 9.1477e-41
1.83 1.08 1.04 9.1477e-41
1.86 1.08 0.98 9.1477e-41
1.87 1.08 0.9 9.1477e-41
1.88 1.08 0.82 9.1477e-41
1.89 1.08 0.73 9.1477e-41
1.86 1.08 0.54 9.1477e-41
1 1.11 1.08 3.57e-43
1.19 1.11 1.08 3.57e-43
1.14 1.11 1.08 3.57e-43
1.21 1.11 1.08 3.57e-43
1.25 1.11 1.08 3.57e-43
1.3 1.11 1.08 3.57e-43
1.34 1.11 1.08 3.57e-43
1.39 1.11 1.08 3.57e-43
1.44 1.11 1.08 3.57e-43
1.5 1.11 1.08 3.57e-43
1.54 1.11 1.07 9.1477e-41
1.66 1.11 1.18 9.1477e-41
1.7 1.11 1.16 9.1477e-41
1.75 1.11 1.18 9.1477e-41
1.79 1.11 1.15 9.1477e-41
1.82 1.11 1.11 9.1477e-41
1.83 1.11 1.04 9.1477e-41
1.85 1.11 0.96 9.1477e-41
1.87 1.11 0.9 9.1477e-41
1.88 1.11 0.82 9.1477e-41
1.89 1.11 0.72 9.1477e-41
1.85 1.11 0.51 9.1477e-41
1.86 1.11 0.41 9.1477e-41
0.26 1.14 1.26 9.1477e-41
0.29 1.14 1.26 3.57e-43
0.31 1.14 1.26 3.57e-43
0.39 1.14 1.26 3.57e-43
0.45 1.14 1.26 3.57e-43
0.43 1.14 1.26 3.57e-43
0.57 1.14 1.26 3.57e-43
0.63 1.14 1.26 3.57e-43
0.67 1.14 1.26 3.57e-43
0.7 1.14 1.26 3.57e-43
0.81 1.14 1.26 3.57e-43
0.88 1.14 1.26 3.57e-43
0.93 1.14 1.26 3.57e-43
0.98 1.14 1.26 3.57e-43
1 1.14 1.08 9.1477e-41
1.19 1.14 1.08 3.57e-43
1.14 1.14 1.08 3.57e-43
1.21 1.14 1.08 3.57e-43
1.25 1.14 1.08 3.57e-43
1.3 1.14 1.08 3.57e-43
1.34 1.14 1.08 3.57e-43
1.39 1.14 1.08 3.57e-43
1.44 1.14 1.08 3.57e-43
1.5 1.14 1.08 3.57e-43
1.54 1.14 1.07 9.1477e-41
1.67 1.14 1.21 9.1477e-41
1.7 1.14 1.17 9.1477e-41
1.76 1.14 1.2 9.1477e-41
1.79 1.14 1.16 9.1477e-41
1.82 1.14 1.12 9.1477e-41
1.82 1.14 1.02 9.1477e-41
1.85 1.14 0.96 9.1477e-41
1.86 1.14 0.89 9.1477e-41
1.88 1.14 0.82 9.1477e-41
1.89 1.14 0.71 9.1477e-41
1.87 1.14 0.56 9.1477e-41
0.27 1.17 1.28 9.1477e-41
0.3 1.17 1.28 3.57e-43
0.31 1.17 1.28 3.57e-43
0.39 1.17 1.28 3.57e-43
0.45 1.17 1.28 3.57e-43
0.43 1.17 1.28 3.57e-43
0.57 1.17 1.28 3.57e-43
0.63 1.17 1.28 3.57e-43
0.67 1.17 1.28 3.57e-43
0.7 1.17 1.28 3.57e-43
0.81 1.17 1.28 3.57e-43
0.88 1.17 1.28 3.57e-43
0.93 1.17 1.28 3.57e-43
0.98 1.17 1.28 3.57e-43
1 1.17 1.28 3.57e-43
1.19 1.17 1.28 3.57e-43
1.14 1.17 1.28 3.57e-43
1.21 1.17 1.28 3.57e-43
1.25 1.17 1.28 3.57e-43
1.3 1.17 1.28 3.57e-43
1.34 1.17 1.28 3.57e-43
1.39 1.17 1.28 3.57e-43
1.44 1.17 1.28 3.57e-43
1.5 1.17 1.08 9.1477e-41
1.64 1.17 1.24 9.1477e-41
1.68 1.17 1.22 9.1477e-41
1.72 1.17 1.22 9.1477e-41
1.77 1.17 1.2 9.1477e-41
1.8 1.17 1.18 9.1477e-41
1.83 1.17 1.14 9.1477e-41
1.82 1.17 1.02 9.1477e-41
1.85 1.17 0.97 9.1477e-41
1.86 1.17 0.89 9.1477e-41
1.88 1.17 0.82 9.1477e-41
1.89 1.17 0.71 9.1477e-41
1.88 1.17 0.59 9.1477e-41
0.27 1.2 1.28 9.1477e-41
0.32 1.2 1.28 3.57e-43
0.31 1.2 1.28 3.57e-43
0.39 1.2 1.28 3.57e-43
0.45 1.2 1.28 3.57e-43
0.43 1.2 1.28 3.57e-43
0.57 1.2 1.28 3.57e-43
0.63 1.2 1.28 3.57e-43
0.67 1.2 1.28 3.57e-43
0.7 1.2 1.28 3.57e-43
0.81 1.2 1.28 3.57e-43
0.88 1.2 1.28 3.57e-43
0.93 1.2 1.28 3.57e-43
0.98 1.2 1.28 3.57e-43
1 1.2 1.28 3.57e-43
1.19 1.2 1.28 3.57e-43
1.14 1.2 1.28 3.57e-43
1.21 1.2 1.28 3.57e-43
1.25 1.2 1.28 3.57e-43
1.3 1.2 1.28 3.57e-43
1.34 1.2 1.28 3.57e-43
1.39 1.2 1.28 3.57e-43
1.44 1.2 1.28 3.57e-43
1.5 1.2 1.08 9.1477e-41
1.65 1.2 1.26 9.1477e-41
1.68 1.2 1.23 9.1477e-41
1.74 1.2 1.25 9.1477e-41
1.78 1.2 1.22 9.1477e-41
1.81 1.2 1.18 9.1477e-41
1.83 1.2 1.14 9.1477e-41
1.82 1.2 1.02 9.1477e-41
1.84 1.2 0.95 9.1477e-41
1.86 1.2 0.89 9.1477e-41
1.87 1.2 0.8 9.1477e-41
1.88 1.2 0.7 9.1477e-41
1.87 1.2 0.56 9.1477e-41
0.3 1.23 1.31 9.1477e-41
0.34 1.23 1.31 3.57e-43
0.31 1.23 1.31 3.57e-43
0.39 1.23 1.31 3.57e-43
0.45 1.23 1.31 3.57e-43
0.43 1.23 1.31 3.57e-43
0.57 1.23 1.31 3.57e-43
0.63 1.23 1.31 3.57e-43
0.67 1.23 1.31 3.57e-43
0.7 1.23 1.31 3.57e-43
0.81 1.23 1.31 3.57e-43
0.88 1.23 1.31 3.57e-43
0.93 1.23 1.31 3.57e-43
0.98 1.23 1.31 3.57e-43
1 1.23 1.31 3.57e-43
1.19 1.23 1.31 3.57e-43
1.14 1.23 1.31 3.57e-43
1.21 1.23 1.31 3.57e-43
1.25 1.23 1.31 3.57e-43
1.3 1.23 1.31 3.57e-43
1.34 1.23 1.31 3.57e-43
1.39 1.23 1.31 3.57e-43
1.44 1.23 1.31 3.57e-43
1.5 1.23 1.31 3.57e-43
1.65 1.23 1.26 9.1477e-41
1.71 1.23 1.28 9.1477e-41
1.76 1.23 1.28 9.1477e-41
1.79 1.23 1.24 9.1477e-41
1.81 1.23 1.24 3.57e-43
1.83 1.23 1.14 9.1477e-41
1.82 1.23 1.01 9.1477e-41
1.85 1.23 0.96 9.1477e-41
1.86 1.23 0.89 9.1477e-41
1.87 1.23 0.79 9.1477e-41
1.88 1.23 0.71 9.1477e-41
1.88 1.23 0.59 9.1477e-41
1.86 1.23 0.41 9.1477e-41
1.63 1.26 1.32 3.57e-43
1.67 1.26 1.3 9.1477e-41
1.72 1.26 1.31 9.1477e-41
1.76 1.26 1.29 9.1477e-41
1.79 1.26 1.24 9.1477e-41
1.82 1.26 1.24 3.57e-43
1.83 1.26 1.14 9.1477e-41
1.82 1.26 1.02 9.1477e-41
1.85 1.26 0.97 9.1477e-41
1.86 1.26 0.89 9.1477e-41
1.87 1.26 0.79 9.1477e-41
1.88 1.26 0.7 9.1477e-41
1.88 1.26 0.59 9.1477e-41
1.87 1.26 0.43 9.1477e-41
0.29 1.29 1.38 9.1477e-41
0.38 1.29 1.4 9.1477e-41
0.41 1.29 1.4 3.57e-43
0.31 1.29 1.4 3.57e-43
0.39 1.29 1.4 3.57e-43
0.45 1.29 1.4 3.57e-43
0.43 1.29 1.4 3.57e-43
0.57 1.29 1.4 3.57e-43
0.63 1.29 1.4 3.57e-43
0.67 1.29 1.4 3.57e-43
0.7 1.29 1.4 3.57e-43
0.81 1.29 1.4 3.57e-43
0.88 1.29 1.4 3.57e-43
0.93 1.29 1.4 3.57e-43
0.98 1.29 1.4 3.57e-43
1 1.29 1.4 3.57e-43
1.19 1.29 1.4 3.57e-43
1.14 1.29 1.4 3.57e-43
1.21 1.29 1.4 3.57e-43
1.25 1.29 1.4 3.57e-43
1.3 1.29 1.4 3.57e-43
1.34 1.29 1.4 3.57e-43
1.39 1.29 1.4 3.57e-43
1.44 1.29 1.07 9.1477e-41
1.63 1.29 1.32 9.1477e-41
1.68 1.29 1.32 9.1477e-41
1.74 1.29 1.33 9.1477e-41
1.77 1.29 1.3 9.1477e-41
1.79 1.29 1.3 3.57e-43
1.82 1.29 1.3 3.57e-43
1.83 1.29 1.14 9.1477e-41
1.83 1.29 1.04 9.1477e-41
1.85 1.29 0.97 9.1477e-41
1.87 1.29 0.9 9.1477e-41
1.87 1.29 0.79 9.1477e-41
1.88 1.29 0.7 9.1477e-41
1.88 1.29 0.59 9.1477e-41
1.87 1.29 0.43 9.1477e-41
0.3 1.32 1.39 9.1477e-41
0.36 1.32 1.39 3.57e-43
0.41 1.32 1.39 3.57e-43
0.31 1.32 1.39 3.57e-43
0.39 1.32 1.39 3.57e-43
0.45 1.32 1.39 3.57e-43
0.43 1.32 1.39 3.57e-43
0.57 1.32 1.39 3.57e-43
0.63 1.32 1.39 3.57e-43
0.67 1.32 1.39 3.57e-43
0.7 1.32 1.39 3.57e-43
0.81 1.32 1.39 3.57e-43
0.88 1.32 1.39 3.57e-43
0.93 1.32 1.39 3.57e-43
0.98 1.32 1.39 3.57e-43
1 1.32 1.39 3.57e-43
1.19 1.32 1.39 3.57e-43
1.14 1.32 1.39 3.57e-43
1.21 1.32 1.39 3.57e-43
1.25 1.32 1.39 3.57e-43
1.3 1.32 1.39 3.57e-43
1.34 1.32 1.39 3.57e-43
1.39 1.32 1.39 3.57e-43
1.44 1.32 1.39 3.57e-43
1.63 1.32 1.32 9.1477e-41
1.7 1.32 1.35 9.1477e-41
1.75 1.32 1.36 9.1477e-41
1.77 1.32 1.3 9.1477e-41
1.8 1.32 1.3 3.57e-43
1.82 1.32 1.2 9.1477e-41
1.81 1.32 1.09 9.1477e-41
1.83 1.32 1.03 9.1477e-41
1.85 1.32 0.97 9.1477e-41
1.86 1.32 0.89 9.1477e-41
1.87 1.32 0.8 9.1477e-41
1.88 1.32 0.7 9.1477e-41
1.88 1.32 0.59 9.1477e-41
1.87 1.32 0.43 9.1477e-41
1.61 1.35 1.28 3.57e-43
1.72 1.35 1.39 9.1477e-41
1.75 1.35 1.36 9.1477e-41
1.79 1.35 1.33 9.1477e-41
1.81 1.35 1.33 3.57e-43
1.82 1.35 1.2 9.1477e-41
1.8 1.35 1.08 9.1477e-41
1.83 1.35 1.04 9.1477e-41
1.86 1.35 0.98 9.1477e-41
1.88 1.35 0.92 9.1477e-41
1.88 1.35 0.81 9.1477e-41
1.88 1.35 0.7 9.1477e-41
1.89 1.35 0.59 9.1477e-41
1.87 1.35 0.44 9.1477e-41
0.3 1.38 1.46 9.1477e-41
0.33 1.38 1.46 3.57e-43
0.36 1.38 1.46 3.57e-43
0.41 1.38 1.46 3.57e-43
0.31 1.38 1.16 9.1477e-41
0.41 1.38 1.2 9.1477e-41
0.46 1.38 1.2 3.57e-43
0.43 1.38 1.2 3.57e-43
0.57 1.38 1.16 9.1477e-41
0.67 1.38 1.22 9.1477e-41
0.74 1.38 1.22 9.1477e-41
0.8 1.38 1.22 3.57e-43
0.81 1.38 1.22 3.57e-43
0.88 1.38 1.22 3.57e-43
0.93 1.38 1.22 3.57e-43
0.98 1.38 1.22 3.57e-43
1 1.38 1.22 3.57e-43
1.19 1.38 1.22 3.57e-43
1.14 1.38 1.22 3.57e-43
1.21 1.38 1.22 3.57e-43
1.25 1.38 1.12 9.1477e-41
1.37 1.38 1.23 9.1477e-41
1.42 1.38 1.23 9.1477e-41
1.47 1.38 1.21 9.1477e-41
1.52 1.38 1.21 9.1477e-41
1.61 1.38 1.28 9.1477e-41
1.73 1.38 1.41 9.1477e-41
1.76 1.38 1.37 9.1477e-41
1.79 1.38 1.37 3.57e-43
1.81 1.38 1.37 3.57e-43
1.82 1.38 1.2 9.1477e-41
1.82 1.38 1.11 9.1477e-41
1.83 1.38 1.04 9.1477e-41
1.86 1.38 0.99 9.1477e-41
1.88 1.38 0.92 9.1477e-41
1.88 1.38 0.81 9.1477e-41
1.87 1.38 0.69 9.1477e-41
1.89 1.38 0.61 9.1477e-41
1.87 1.38 0.44 9.1477e-41
0.31 1.41 1.47 9.1477e-41
0.34 1.41 1.47 3.57e-43
0.36 1.41 1.47 3.57e-43
0.41 1.41 1.47 3.57e-43
0.31 1.41 1.16 9.1477e-41
0.42 1.41 1.22 9.1477e-41
0.44 1.41 1.22 3.57e-43
0.43 1.41 1.22 3.57e-43
0.57 1.41 1.22 3.57e-43
0.67 1.41 1.22 9.1477e-41
0.72 1.41 1.2 9.1477e-41
0.78 1.41 1.2 3.57e-43
0.81 1.41 1.2 3.57e-43
0.88 1.41 1.2 3.57e-43
0.93 1.41 1.2 3.57e-43
0.98 1.41 1.2 3.57e-43
1 1.41 1.2 3.57e-43
1.19 1.41 1.2 3.57e-43
1.14 1.41 1.2 3.57e-43
1.21 1.41 1.15 9.1477e-41
1.33 1.41 1.26 9.1477e-41
1.37 1.41 1.23 9.1477e-41
1.43 1.41 1.23 9.1477e-41
1.47 1.41 1.21 9.1477e-41
1.52 1.41 1.21 9.1477e-41
1.7 1.41 1.44 9.1477e-41
1.73 1.41 1.42 9.1477e-41
1.77 1.41 1.39 9.1477e-41
1.79 1.41 1.39 3.57e-43
1.81 1.41 1.28 9.1477e-41
1.79 1.41 1.16 9.1477e-41
1.84 1.41 1.15 9.1477e-41
1.84 1.41 1.05 9.1477e-41
1.86 1.41 1 9.1477e-41
1.87 1.41 0.91 9.1477e-41
1.88 1.41 0.81 9.1477e-41
1.88 1.41 0.7 9.1477e-41
1.89 1.41 0.6 9.1477e-41
1.87 1.41 0.43 9.1477e-41
0.26 1.44 1.49 9.1477e-41
0.32 1.44 1.49 3.57e-43
0.34 1.44 1.49 3.57e-43
0.36 1.44 1.49 3.57e-43
0.41 1.44 1.49 3.57e-43
0.31 1.44 1.49 3.57e-43
0.42 1.44 1.49 3.57e-43
0.44 1.44 1.49 3.57e-43
0.43 1.44 1.49 3.57e-43
0.57 1.44 1.49 3.57e-43
0.67 1.44 1.49 3.57e-43
0.72 1.44 1.49 3.57e-43
0.78 1.44 1.49 3.57e-43
0.81 1.44 1.49 3.57e-43
0.88 1.44 1.49 3.57e-43
0.93 1.44 1.49 3.57e-43
0.98 1.44 1.49 3.57e-43
1 1.44 1.49 3.57e-43
1.19 1.44 1.49 3.57e-43
1.14 1.44 1.49 3.57e-43
1.21 1.44 1.15 9.1477e-41
1.31 1.44 1.21 9.1477e-41
1.36 1.44 1.21 9.1477e-41
1.43 1.44 1.23 9.1477e-41
1.47 1.44 1.22 9.1477e-41
1.54 1.44 1.25 9.1477e-41
1.71 1.44 1.46 9.1477e-41
1.75 1.44 1.44 9.1477e-41
1.77 1.44 1.4 9.1477e-41
1.79 1.44 1.4 3.57e-43
1.81 1.44 1.28 9.1477e-41
1.8 1.44 1.17 9.1477e-41
1.85 1.44 1.16 9.1477e-41
1.91 1.44 1.2 9.1477e-41
1.93 1.44 1.13 9.1477e-41
1.88 1.44 0.92 9.1477e-41
1.87 1.44 0.8 9.1477e-41
1.87 1.44 0.69 9.1477e-41
1.89 1.44 0.6 9.1477e-41
1.86 1.44 0.41 9.1477e-41
0.3 1.47 1.54 9.1477e-41
0.33 1.47 1.54 3.57e-43
0.34 1.47 1.54 3.57e-43
0.36 1.47 1.54 3.57e-43
0.41 1.47 1.54 3.57e-43
0.31 1.47 1.16 9.1477e-41
0.3 1.47 1.16 3.57e-43
0.44 1.47 1.16 3.57e-43
0.43 1.47 1.16 3.57e-43
0.57 1.47 1.16 3.57e-43
0.67 1.47 1.16 3.57e-43
0.72 1.47 1.16 3.57e-43
0.78 1.47 1.16 3.57e-43
0.81 1.47 1.16 3.57e-43
0.88 1.47 1.16 3.57e-43
0.93 1.47 1.16 3.57e-43
0.98 1.47 1.16 3.57e-43
1 1.47 1.16 3.57e-43
1.19 1.47 1.16 3.57e-43
1.14 1.47 1.16 3.57e-43
1.21 1.47 1.16 3.57e-43
1.31 1.47 1.16 3.57e-43
1.36 1.47 1.16 3.57e-43
1.43 1.47 1.16 3.57e-43
1.47 1.47 1.16 3.57e-43
1.54 1.47 1.25 9.1477e-41
1.72 1.47 1.48 9.1477e-41
1.75 1.47 1.44 9.1477e-41
1.78 1.47 1.44 3.57e-43
1.79 1.47 1.44 3.57e-43
1.81 1.47 1.28 9.1477e-41
1.8 1.47 1.18 9.1477e-41
1.84 1.47 1.15 9.1477e-41
1.95 1.47 1.27 9.1477e-41
1.98 1.47 1.27 3.57e-43
1.88 1.47 0.92 9.1477e-41
1.88 1.47 0.82 9.1477e-41
1.88 1.47 0.7 9.1477e-41
1.89 1.47 0.6 9.1477e-41
1.86 1.47 0.41 9.1477e-41
0.32 1.5 1.55 9.1477e-41
0.35 1.5 1.55 3.57e-43
0.34 1.5 1.44 9.1477e-41
0.53 1.5 1.58 9.1477e-41
0.57 1.5 1.58 3.57e-43
0.31 1.5 1.16 9.1477e-41
0.3 1.5 1.16 3.57e-43
0.44 1.5 1.16 3.57e-43
0.43 1.5 1.16 3.57e-43
0.57 1.5 1.16 3.57e-43
0.67 1.5 1.16 3.57e-43
0.72 1.5 1.16 3.57e-43
0.78 1.5 1.16 3.57e-43
0.81 1.5 1.16 3.57e-43
0.88 1.5 1.16 3.57e-43
0.93 1.5 1.16 3.57e-43
0.98 1.5 1.16 3.57e-43
1 1.5 1.08 9.1477e-41
1.05 1.5 1.08 9.1477e-41
1.09 1.5 1.08 3.57e-43
1.21 1.5 1.08 3.57e-43
1.31 1.5 1.21 9.1477e-41
1.4 1.5 1.28 9.1477e-41
1.45 1.5 1.28 3.57e-43
1.47 1.5 1.22 9.1477e-41
1.69 1.5 1.51 9.1477e-41
1.72 1.5 1.48 9.1477e-41
1.76 1.5 1.46 9.1477e-41
1.78 1.5 1.46 3.57e-43
1.79 1.5 1.46 3.57e-43
1.81 1.5 1.28 9.1477e-41
1.77 1.5 1.1 9.1477e-41
1.81 1.5 1.08 9.1477e-41
1.86 1.5 1.1 9.1477e-41
1.99 1.5 1.25 9.1477e-41
2.03 1.5 1.25 3.57e-43
1.88 1.5 0.82 9.1477e-41
1.87 1.5 0.68 9.1477e-41
1.89 1.5 0.6 9.1477e-41
1.86 1.5 0.42 9.1477e-41
0.33 1.53 1.57 9.1477e-41
0.37 1.53 1.57 3.57e-43
0.34 1.53 1.57 3.57e-43
0.53 1.53 1.57 3.57e-43
0.57 1.53 1.57 3.57e-43
0.31 1.53 1.16 9.1477e-41
0.72 1.53 1.58 9.1477e-41
0.77 1.53 1.58 3.57e-43
0.43 1.53 1.58 3.57e-43
0.57 1.53 1.58 3.57e-43
0.67 1.53 1.58 3.57e-43
0.72 1.53 1.58 3.57e-43
0.78 1.53 1.58 3.57e-43
0.81 1.53 1.58 3.57e-43
0.88 1.53 1.58 3.57e-43
0.93 1.53 1.58 3.57e-43
0.98 1.53 1.58 3.57e-43
1 1.53 1.08 9.1477e-41
1.06 1.53 1.1 9.1477e-41
1.1 1.53 1.1 3.57e-43
1.21 1.53 1.1 3.57e-43
1.31 1.53 1.21 9.1477e-41
1.4 1.53 1.28 9.1477e-41
1.45 1.53 1.28 3.57e-43
1.47 1.53 1.22 9.1477e-41
1.71 1.53 1.54 9.1477e-41
1.73 1.53 1.5 9.1477e-41
1.76 1.53 1.46 9.1477e-41
1.76 1.53 1.38 9.1477e-41
1.53 1.53 0.85 9.1477e-41
1.63 1.53 0.94 9.1477e-41
1.74 1.53 1.06 9.1477e-41
1.8 1.53 1.08 9.1477e-41
1.84 1.53 1.06 9.1477e-41
1.88 1.53 1.04 9.1477e-41
1.92 1.53 1.01 9.1477e-41
1.98 1.53 1.03 9.1477e-41
1.87 1.53 0.69 9.1477e-41
1.89 1.53 0.6 9.1477e-41
1.87 1.53 0.43 9.1477e-41
0.88 1.56 1.63 3.57e-43
1.17 1.56 1.5 9.1477e-41
1.23 1.56 1.5 9.1477e-41
1.28 1.56 1.5 9.1477e-41
1.26 1.56 1.5 3.57e-43
1.1 1.56 1.5 3.57e-43
1.21 1.56 1.5 3.57e-43
1.31 1.56 1.5 3.57e-43
1.4 1.56 1.28 9.1477e-41
1.45 1.56 1.27 9.1477e-41
1.65 1.56 1.52 9.1477e-41
1.71 1.56 1.54 9.1477e-41
1.74 1.56 1.51 9.1477e-41
1.73 1.56 1.41 9.1477e-41
1.51 1.56 0.91 9.1477e-41
1.55 1.56 0.88 9.1477e-41
1.67 1.56 1.02 9.1477e-41
1.74 1.56 1.06 9.1477e-41
1.81 1.56 1.09 9.1477e-41
1.84 1.56 1.06 9.1477e-41
1.86 1.56 0.99 9.1477e-41
1.87 1.56 0.91 9.1477e-41
1.88 1.56 0.82 9.1477e-41
1.87 1.56 0.69 9.1477e-41
1.87 1.56 0.57 9.1477e-41
1.86 1.56 0.41 9.1477e-41
0.52 1.59 1.64 3.57e-43
0.57 1.59 1.62 9.1477e-41
0.65 1.59 1.64 9.1477e-41
0.71 1.59 1.64 9.1477e-41
0.77 1.59 1.64 9.1477e-41
0.83 1.59 1.64 9.1477e-41
0.88 1.59 1.64 9.1477e-41
0.94 1.59 1.64 9.1477e-41
0.99 1.59 1.63 9.1477e-41
1.06 1.59 1.63 3.57e-43
0.78 1.59 1.63 3.57e-43
0.81 1.59 1.63 3.57e-43
0.88 1.59 1.63 3.57e-43
1.17 1.59 1.5 9.1477e-41
1.25 1.59 1.53 9.1477e-41
1.3 1.59 1.53 9.1477e-41
1.35 1.59 1.52 9.1477e-41
1.42 1.59 1.56 9.1477e-41
1.49 1.59 1.58 9.1477e-41
1.54 1.59 1.59 9.1477e-41
1.59 1.59 1.58 9.1477e-41
1.61 1.59 1.53 9.1477e-41
1.68 1.59 1.57 9.1477e-41
1.72 1.59 1.56 9.1477e-41
1.75 1.59 1.52 9.1477e-41
1.73 1.59 1.42 9.1477e-41
1.5 1.59 0.9 9.1477e-41
1.54 1.59 0.87 9.1477e-41
1.62 1.59 0.92 9.1477e-41
1.74 1.59 1.06 9.1477e-41
1.81 1.59 1.1 9.1477e-41
1.84 1.59 1.06 9.1477e-41
1.86 1.59 1 9.1477e-41
1.88 1.59 0.92 9.1477e-41
1.88 1.59 0.82 9.1477e-41
1.88 1.59 0.7 9.1477e-41
1.89 1.59 0.59 9.1477e-41
1.87 1.59 0.44 9.1477e-41
0.38 1.62 1.62 9.1477e-41
0.47 1.62 1.65 9.1477e-41
0.52 1.62 1.64 9.1477e-41
0.6 1.62 1.65 9.1477e-41
0.66 1.62 1.65 9.1477e-41
0.73 1.62 1.66 9.1477e-41
0.78 1.62 1.65 9.1477e-41
0.84 1.62 1.66 9.1477e-41
0.9 1.62 1.66 9.1477e-41
0.96 1.62 1.66 9.1477e-41
1.01 1.62 1.65 9.1477e-41
1.06 1.62 1.65 9.1477e-41
1.12 1.62 1.66 9.1477e-41
1.17 1.62 1.65 9.1477e-41
1.22 1.62 1.65 9.1477e-41
1.26 1.62 1.63 9.1477e-41
1.32 1.62 1.64 9.1477e-41
1.37 1.62 1.63 9.1477e-41
1.41 1.62 1.62 9.1477e-41
1.46 1.62 1.62 9.1477e-41
1.51 1.62 1.62 3.57e-43
1.54 1.62 1.59 9.1477e-41
1.59 1.62 1.59 3.57e-43
1.61 1.62 1.53 9.1477e-41
1.69 1.62 1.6 9.1477e-41
1.72 1.62 1.56 9.1477e-41
1.75 1.62 1.52 9.1477e-41
1.77 1.62 1.48 9.1477e-41
1.51 1.62 0.91 9.1477e-41
1.55 1.62 0.88 9.1477e-41
1.61 1.62 0.89 9.1477e-41
1.75 1.62 1.07 9.1477e-41
1.81 1.62 1.09 9.1477e-41
1.84 1.62 1.05 9.1477e-41
1.87 1.62 1.01 9.1477e-41
1.88 1.62 0.93 9.1477e-41
1.88 1.62 0.82 9.1477e-41
1.89 1.62 0.71 9.1477e-41
1.89 1.62 0.61 9.1477e-41
1.88 1.62 0.45 9.1477e-41
0.34 1.65 1.65 9.1477e-41
0.41 1.65 1.66 9.1477e-41
0.49 1.65 1.67 9.1477e-41
0.55 1.65 1.67 9.1477e-41
0.62 1.65 1.68 9.1477e-41
0.68 1.65 1.68 9.1477e-41
0.74 1.65 1.68 9.1477e-41
0.8 1.65 1.68 9.1477e-41
0.86 1.65 1.68 9.1477e-41
0.91 1.65 1.68 9.1477e-41
0.97 1.65 1.67 9.1477e-41
1.02 1.65 1.67 9.1477e-41
1.08 1.65 1.67 9.1477e-41
1.13 1.65 1.67 9.1477e-41
1.19 1.65 1.67 9.1477e-41
1.23 1.65 1.66 9.1477e-41
1.29 1.65 1.67 9.1477e-41
1.34 1.65 1.66 9.1477e-41
1.38 1.65 1.65 9.1477e-41
1.43 1.65 1.65 9.1477e-41
1.48 1.65 1.64 9.1477e-41
1.52 1.65 1.64 9.1477e-41
1.56 1.65 1.62 9.1477e-41
1.61 1.65 1.62 9.1477e-41
1.65 1.65 1.6 9.1477e-41
1.7 1.65 1.61 9.1477e-41
1.72 1.65 1.56 9.1477e-41
1.76 1.65 1.54 9.1477e-41
1.47 1.65 0.93 9.1477e-41
1.5 1.65 0.9 9.1477e-41
1.55 1.65 0.88 9.1477e-41
1.63 1.65 0.94 9.1477e-41
1.75 1.65 1.07 9.1477e-41
1.81 1.65 1.09 9.1477e-41
1.85 1.65 1.06 9.1477e-41
1.86 1.65 1 9.1477e-41
1.88 1.65 0.94 9.1477e-41
1.88 1.65 0.82 9.1477e-41
1.88 1.65 0.7 9.1477e-41
1.89 1.65 0.59 9.1477e-41
1.87 1.65 0.43 9.1477e-41
0.35 1.68 1.66 9.1477e-41
0.43 1.68 1.67 9.1477e-41
0.5 1.68 1.68 9.1477e-41
0.56 1.68 1.68 9.1477e-41
0.62 1.68 1.68 9.1477e-41
0.7 1.68 1.7 9.1477e-41
0.75 1.68 1.69 9.1477e-41
0.81 1.68 1.69 9.1477e-41
0.87 1.68 1.7 9.1477e-41
0.93 1.68 1.69 9.1477e-41
0.97 1.68 1.68 9.1477e-41
1.05 1.68 1.7 9.1477e-41
1.09 1.68 1.68 9.1477e-41
1.14 1.68 1.69 9.1477e-41
1.19 1.68 1.68 9.1477e-41
1.25 1.68 1.69 9.1477e-41
1.29 1.68 1.67 9.1477e-41
1.34 1.68 1.67 9.1477e-41
1.39 1.68 1.67 9.1477e-41
1.45 1.68 1.67 9.1477e-41
1.49 1.68 1.66 9.1477e-41
1.53 1.68 1.65 9.1477e-41
1.58 1.68 1.65 9.1477e-41
1.62 1.68 1.64 9.1477e-41
1.66 1.68 1.62 9.1477e-41
1.7 1.68 1.62 9.1477e-41
1.74 1.68 1.59 9.1477e-41
1.71 1.68 1.46 9.1477e-41
1.45 1.68 0.91 9.1477e-41
1.5 1.68 0.89 9.1477e-41
1.55 1.68 0.89 9.1477e-41
1.59 1.68 0.89 3.57e-43
1.75 1.68 1.07 9.1477e-41
1.81 1.68 1.1 9.1477e-41
1.85 1.68 1.06 9.1477e-41
1.87 1.68 1.02 9.1477e-41
1.88 1.68 0.92 9.1477e-41
1.88 1.68 0.82 9.1477e-41
1.88 1.68 0.71 9.1477e-41
1.88 1.68 0.59 9.1477e-41
1.88 1.68 0.46 9.1477e-41
0.36 1.71 1.67 9.1477e-41
0.45 1.71 1.69 9.1477e-41
0.51 1.71 1.69 9.1477e-41
0.58 1.71 1.7 9.1477e-41
0.64 1.71 1.71 9.1477e-41
0.7 1.71 1.71 9.1477e-41
0.77 1.71 1.71 9.1477e-41
0.83 1.71 1.72 9.1477e-41
0.89 1.71 1.71 9.1477e-41
0.93 1.71 1.7 9.1477e-41
1 1.71 1.71 9.1477e-41
1.05 1.71 1.71 9.1477e-41
1.1 1.71 1.7 9.1477e-41
1.16 1.71 1.7 9.1477e-41
1.2 1.71 1.69 9.1477e-41
1.25 1.71 1.69 9.1477e-41
1.31 1.71 1.69 9.1477e-41
1.35 1.71 1.69 9.1477e-41
1.41 1.71 1.69 9.1477e-41
1.45 1.71 1.68 9.1477e-41
1.5 1.71 1.67 9.1477e-41
1.54 1.71 1.67 9.1477e-41
1.58 1.71 1.66 9.1477e-41
1.63 1.71 1.65 9.1477e-41
1.66 1.71 1.63 9.1477e-41
1.71 1.71 1.63 9.1477e-41
1.74 1.71 1.59 9.1477e-41
1.67 1.71 1.39 9.1477e-41
1.46 1.71 0.93 9.1477e-41
1.5 1.71 0.9 9.1477e-41
1.55 1.71 0.89 9.1477e-41
1.57 1.71 0.83 9.1477e-41
1.72 1.71 1.02 9.1477e-41
1.81 1.71 1.1 9.1477e-41
1.85 1.71 1.06 9.1477e-41
1.87 1.71 1.01 9.1477e-41
1.88 1.71 0.92 9.1477e-41
1.88 1.71 0.82 9.1477e-41
1.88 1.71 0.71 9.1477e-41
1.89 1.71 0.59 9.1477e-41
1.88 1.71 0.46 9.1477e-41
0.37 1.74 1.68 9.1477e-41
0.45 1.74 1.7 9.1477e-41
0.53 1.74 1.71 9.1477e-41
0.6 1.74 1.72 9.1477e-41
0.65 1.74 1.71 9.1477e-41
0.72 1.74 1.73 9.1477e-41
0.77 1.74 1.71 9.1477e-41
0.84 1.74 1.72 9.1477e-41
0.89 1.74 1.71 9.1477e-41
0.95 1.74 1.72 9.1477e-41
1 1.74 1.72 9.1477e-41
1.06 1.74 1.72 9.1477e-41
1.12 1.74 1.72 9.1477e-41
1.16 1.74 1.71 9.1477e-41
1.21 1.74 1.71 9.1477e-41
1.27 1.74 1.71 9.1477e-41
1.32 1.74 1.71 9.1477e-41
1.36 1.74 1.7 9.1477e-41
1.41 1.74 1.69 9.1477e-41
1.46 1.74 1.69 9.1477e-41
1.51 1.74 1.69 9.1477e-41
1.55 1.74 1.69 9.1477e-41
1.6 1.74 1.68 9.1477e-41
1.63 1.74 1.66 9.1477e-41
1.68 1.74 1.66 9.1477e-41
1.71 1.74 1.63 9.1477e-41
1.74 1.74 1.6 9.1477e-41
1.59 1.74 1.24 9.1477e-41
1.48 1.74 0.96 9.1477e-41
1.5 1.74 0.9 9.1477e-41
1.55 1.74 0.88 9.1477e-41
1.57 1.74 0.83 9.1477e-41
1.7 1.74 0.97 9.1477e-41
1.82 1.74 1.11 9.1477e-41
1.85 1.74 1.08 9.1477e-41
1.87 1.74 1.02 9.1477e-41
1.88 1.74 0.93 9.1477e-41
1.88 1.74 0.82 9.1477e-41
1.88 1.74 0.71 9.1477e-41
1.89 1.74 0.6 9.1477e-41
1.88 1.74 0.46 9.1477e-41
0.38 1.77 1.7 9.1477e-41
0.47 1.77 1.72 9.1477e-41
0.54 1.77 1.72 9.1477e-41
0.6 1.77 1.73 9.1477e-41
0.66 1.77 1.72 9.1477e-41
0.72 1.77 1.73 9.1477e-41
0.78 1.77 1.73 9.1477e-41
0.84 1.77 1.72 9.1477e-41
0.9 1.77 1.73 9.1477e-41
0.96 1.77 1.73 9.1477e-41
1.01 1.77 1.73 9.1477e-41
1.06 1.77 1.72 9.1477e-41
1.12 1.77 1.73 9.1477e-41
1.17 1.77 1.73 9.1477e-41
1.22 1.77 1.72 9.1477e-41
1.27 1.77 1.72 9.1477e-41
1.32 1.77 1.71 9.1477e-41
1.37 1.77 1.71 9.1477e-41
1.42 1.77 1.7 9.1477e-41
1.46 1.77 1.7 9.1477e-41
1.51 1.77 1.7 9.1477e-41
1.56 1.77 1.69 9.1477e-41
1.6 1.77 1.68 9.1477e-41
1.64 1.77 1.67 9.1477e-41
1.69 1.77 1.67 9.1477e-41
1.72 1.77 1.65 9.1477e-41
1.74 1.77 1.59 9.1477e-41
1.56 1.77 1.2 9.1477e-41
1.49 1.77 0.97 9.1477e-41
1.5 1.77 0.89 9.1477e-41
1.54 1.77 0.87 9.1477e-41
1.57 1.77 0.83 9.1477e-41
1.66 1.77 0.89 9.1477e-41
1.82 1.77 1.11 9.1477e-41
1.85 1.77 1.07 9.1477e-41
1.87 1.77 1.01 9.1477e-41
1.88 1.77 0.94 9.1477e-41
1.88 1.77 0.82 9.1477e-41
1.88 1.77 0.7 9.1477e-41
1.9 1.77 0.62 9.1477e-41
1.89 1.77 0.47 9.1477e-41
0.4 1.8 1.71 9.1477e-41
0.49 1.8 1.74 9.1477e-41
0.55 1.8 1.74 9.1477e-41
0.62 1.8 1.74 9.1477e-41
0.67 1.8 1.74 9.1477e-41
0.74 1.8 1.74 9.1477e-41
0.79 1.8 1.74 9.1477e-41
0.85 1.8 1.74 9.1477e-41
0.91 1.8 1.74 9.1477e-41
0.96 1.8 1.74 9.1477e-41
1.02 1.8 1.74 9.1477e-41
1.08 1.8 1.74 9.1477e-41
1.13 1.8 1.75 9.1477e-41
1.18 1.8 1.74 9.1477e-41
1.24 1.8 1.74 9.1477e-41
1.28 1.8 1.73 9.1477e-41
1.33 1.8 1.73 9.1477e-41
1.38 1.8 1.72 9.1477e-41
1.43 1.8 1.73 9.1477e-41
1.48 1.8 1.72 9.1477e-41
1.52 1.8 1.71 9.1477e-41
1.57 1.8 1.71 9.1477e-41
1.61 1.8 1.7 9.1477e-41
1.64 1.8 1.68 9.1477e-41
1.7 1.8 1.69 9.1477e-41
1.72 1.8 1.65 9.1477e-41
1.73 1.8 1.57 9.1477e-41
1.54 1.8 1.17 9.1477e-41
1.48 1.8 0.96 9.1477e-41
1.5 1.8 0.89 9.1477e-41
1.54 1.8 0.86 9.1477e-41
1.57 1.8 0.82 9.1477e-41
1.69 1.8 0.95 9.1477e-41
1.82 1.8 1.11 9.1477e-41
1.85 1.8 1.08 9.1477e-41
1.87 1.8 1.02 9.1477e-41
1.88 1.8 0.93 9.1477e-41
1.88 1.8 0.82 9.1477e-41
1.89 1.8 0.71 9.1477e-41
1.89 1.8 0.59 9.1477e-41
1.89 1.8 0.47 9.1477e-41
0.36 1.83 1.74 9.1477e-41
0.41 1.83 1.72 9.1477e-41
0.49 1.83 1.75 9.1477e-41
0.56 1.83 1.75 9.1477e-41
0.63 1.83 1.76 9.1477e-41
0.68 1.83 1.75 9.1477e-41
0.75 1.83 1.76 9.1477e-41
0.8 1.83 1.75 9.1477e-41
0.86 1.83 1.75 9.1477e-41
0.92 1.83 1.76 9.1477e-41
0.98 1.83 1.75 9.1477e-41
1.04 1.83 1.76 9.1477e-41
1.08 1.83 1.75 9.1477e-41
1.14 1.83 1.75 9.1477e-41
1.19 1.83 1.74 9.1477e-41
1.24 1.83 1.74 9.1477e-41
1.29 1.83 1.74 9.1477e-41
1.34 1.83 1.73 9.1477e-41
1.39 1.83 1.74 9.1477e-41
1.43 1.83 1.73 9.1477e-41
1.48 1.83 1.73 9.1477e-41
1.52 1.83 1.72 9.1477e-41
1.57 1.83 1.71 9.1477e-41
1.61 1.83 1.71 9.1477e-41
1.66 1.83 1.7 9.1477e-41
1.7 1.83 1.69 9.1477e-41
1.72 1.83 1.65 9.1477e-41
1.71 1.83 1.54 9.1477e-41
1.54 1.83 1.17 9.1477e-41
1.49 1.83 0.98 9.1477e-41
1.5 1.83 0.89 9.1477e-41
1.54 1.83 0.86 9.1477e-41
1.57 1.83 0.82 9.1477e-41
1.71 1.83 1 9.1477e-41
1.82 1.83 1.12 9.1477e-41
1.85 1.83 1.07 9.1477e-41
1.88 1.83 1.03 9.1477e-41
1.88 1.83 0.94 9.1477e-41
1.88 1.83 0.82 9.1477e-41
1.88 1.83 0.71 9.1477e-41
1.88 1.83 0.59 9.1477e-41
1.88 1.83 0.46 9.1477e-41
0.36 1.86 1.74 9.1477e-41
0.42 1.86 1.73 9.1477e-41
0.51 1.86 1.76 9.1477e-41
0.57 1.86 1.76 9.1477e-41
0.63 1.86 1.76 9.1477e-41
0.7 1.86 1.77 9.1477e-41
0.76 1.86 1.77 9.1477e-41
0.81 1.86 1.76 9.1477e-41
0.87 1.86 1.76 9.1477e-41
0.93 1.86 1.77 9.1477e-41
0.99 1.86 1.77 9.1477e-41
1.04 1.86 1.76 9.1477e-41
1.09 1.86 1.76 9.1477e-41
1.14 1.86 1.75 9.1477e-41
1.2 1.86 1.76 9.1477e-41
1.24 1.86 1.75 9.1477e-41
1.3 1.86 1.76 9.1477e-41
1.35 1.86 1.75 9.1477e-41
1.39 1.86 1.74 9.1477e-41
1.44 1.86 1.74 9.1477e-41
1.48 1.86 1.73 9.1477e-41
1.54 1.86 1.73 9.1477e-41
1.58 1.86 1.73 9.1477e-41
1.61 1.86 1.71 9.1477e-41
1.67 1.86 1.71 9.1477e-41
1.7 1.86 1.69 9.1477e-41
1.73 1.86 1.66 9.1477e-41
1.7 1.86 1.52 9.1477e-41
1.55 1.86 1.18 9.1477e-41
1.5 1.86 0.99 9.1477e-41
1.5 1.86 0.9 9.1477e-41
1.54 1.86 0.86 9.1477e-41
1.56 1.86 0.81 9.1477e-41
1.74 1.86 1.06 9.1477e-41
1.83 1.86 1.14 9.1477e-41
1.85 1.86 1.08 9.1477e-41
1.87 1.86 1.02 9.1477e-41
1.88 1.86 0.93 9.1477e-41
1.88 1.86 0.82 9.1477e-41
1.88 1.86 0.71 9.1477e-41
1.88 1.86 0.59 9.1477e-41
1.89 1.86 0.47 9.1477e-41
0.37 1.89 1.75 9.1477e-41
0.43 1.89 1.75 9.1477e-41
0.51 1.89 1.76 9.1477e-41
0.58 1.89 1.77 9.1477e-41
0.64 1.89 1.77 9.1477e-41
0.7 1.89 1.77 9.1477e-41
0.76 1.89 1.77 9.1477e-41
0.82 1.89 1.78 9.1477e-41
0.88 1.89 1.77 9.1477e-41
0.94 1.89 1.77 9.1477e-41
0.99 1.89 1.78 9.1477e-41
1.04 1.89 1.77 9.1477e-41
1.1 1.89 1.77 9.1477e-41
1.15 1.89 1.77 9.1477e-41
1.2 1.89 1.77 9.1477e-41
1.26 1.89 1.77 9.1477e-41
1.3 1.89 1.75 9.1477e-41
1.36 1.89 1.77 9.1477e-41
1.4 1.89 1.76 9.1477e-41
1.44 1.89 1.75 9.1477e-41
1.49 1.89 1.74 9.1477e-41
1.54 1.89 1.74 9.1477e-41
1.59 1.89 1.74 9.1477e-41
1.63 1.89 1.72 9.1477e-41
1.67 1.89 1.72 9.1477e-41
1.7 1.89 1.69 9.1477e-41
1.73 1.89 1.67 9.1477e-41
1.68 1.89 1.49 9.1477e-41
1.55 1.89 1.18 9.1477e-41
1.52 1.89 1.02 9.1477e-41
1.51 1.89 0.92 9.1477e-41
1.54 1.89 0.87 9.1477e-41
1.56 1.89 0.81 9.1477e-41
1.77 1.89 1.11 9.1477e-41
1.83 1.89 1.14 9.1477e-41
1.86 1.89 1.09 9.1477e-41
1.88 1.89 1.04 9.1477e-41
1.88 1.89 0.92 9.1477e-41
1.88 1.89 0.82 9.1477e-41
1.88 1.89 0.71 9.1477e-41
1.88 1.89 0.59 9.1477e-41
1.88 1.89 0.46 9.1477e-41
0.36 1.92 1.74 9.1477e-41
0.45 1.92 1.76 9.1477e-41
0.51 1.92 1.77 9.1477e-41
0.58 1.92 1.77 9.1477e-41
0.64 1.92 1.77 9.1477e-41
0.71 1.92 1.78 9.1477e-41
0.78 1.92 1.79 9.1477e-41
0.82 1.92 1.77 9.1477e-41
0.88 1.92 1.78 9.1477e-41
0.94 1.92 1.77 9.1477e-41
1 1.92 1.79 9.1477e-41
1.05 1.92 1.77 9.1477e-41
1.1 1.92 1.77 9.1477e-41
1.16 1.92 1.78 9.1477e-41
1.21 1.92 1.78 9.1477e-41
1.26 1.92 1.77 9.1477e-41
1.31 1.92 1.77 9.1477e-41
1.35 1.92 1.76 9.1477e-41
1.4 1.92 1.76 9.1477e-41
1.45 1.92 1.75 9.1477e-41
1.5 1.92 1.76 9.1477e-41
1.55 1.92 1.75 9.1477e-41
1.59 1.92 1.74 9.1477e-41
1.63 1.92 1.73 9.1477e-41
1.68 1.92 1.73 9.1477e-41
1.71 1.92 1.7 9.1477e-41
1.73 1.92 1.67 9.1477e-41
1.65 1.92 1.43 9.1477e-41
1.56 1.92 1.19 9.1477e-41
1.52 1.92 1.03 9.1477e-41
1.53 1.92 0.95 9.1477e-41
1.55 1.92 0.88 9.1477e-41
1.56 1.92 0.8 9.1477e-41
1.79 1.92 1.16 9.1477e-41
1.84 1.92 1.15 9.1477e-41
1.86 1.92 1.1 9.1477e-41
1.87 1.92 1.02 9.1477e-41
1.88 1.92 0.92 9.1477e-41
1.88 1.92 0.82 9.1477e-41
1.89 1.92 0.71 9.1477e-41
1.88 1.92 0.58 9.1477e-41
1.88 1.92 0.46 9.1477e-41
0.38 1.95 1.76 9.1477e-41
0.45 1.95 1.76 9.1477e-41
0.53 1.95 1.78 9.1477e-41
0.59 1.95 1.78 9.1477e-41
0.66 1.95 1.79 9.1477e-41
0.72 1.95 1.79 9.1477e-41
0.78 1.95 1.79 9.1477e-41
0.83 1.95 1.78 9.1477e-41
0.9 1.95 1.79 9.1477e-41
0.94 1.95 1.78 9.1477e-41
1 1.95 1.79 9.1477e-41
1.05 1.95 1.78 9.1477e-41
1.11 1.95 1.78 9.1477e-41
1.16 1.95 1.79 9.1477e-41
1.21 1.95 1.78 9.1477e-41
1.26 1.95 1.78 9.1477e-41
1.31 1.95 1.77 9.1477e-41
1.36 1.95 1.77 9.1477e-41
1.41 1.95 1.77 9.1477e-41
1.46 1.95 1.77 9.1477e-41
1.51 1.95 1.76 9.1477e-41
1.55 1.95 1.76 9.1477e-41
1.59 1.95 1.74 9.1477e-41
1.63 1.95 1.73 9.1477e-41
1.68 1.95 1.74 9.1477e-41
1.71 1.95 1.7 9.1477e-41
1.73 1.95 1.67 9.1477e-41
1.6 1.95 1.35 9.1477e-41
1.54 1.95 1.16 9.1477e-41
1.51 1.95 1.01 9.1477e-41
1.53 1.95 0.95 9.1477e-41
1.55 1.95 0.89 9.1477e-41
1.59 1.95 0.87 9.1477e-41
1.81 1.95 1.18 9.1477e-41
1.85 1.95 1.16 9.1477e-41
1.86 1.95 1.1 9.1477e-41
1.87 1.95 1.01 9.1477e-41
1.88 1.95 0.93 9.1477e-41
1.88 1.95 0.82 9.1477e-41
1.89 1.95 0.72 9.1477e-41
1.88 1.95 0.59 9.1477e-41
1.88 1.95 0.46 9.1477e-41
0.38 1.98 1.76 9.1477e-41
0.46 1.98 1.78 9.1477e-41
0.53 1.98 1.78 9.1477e-41
0.6 1.98 1.79 9.1477e-41
0.66 1.98 1.79 9.1477e-41
0.72 1.98 1.8 9.1477e-41
0.78 1.98 1.79 9.1477e-41
0.84 1.98 1.8 9.1477e-41
0.9 1.98 1.79 9.1477e-41
0.95 1.98 1.8 9.1477e-41
1.01 1.98 1.79 9.1477e-41
1.06 1.98 1.79 9.1477e-41
1.12 1.98 1.8 9.1477e-41
1.17 1.98 1.79 9.1477e-41
1.22 1.98 1.79 9.1477e-41
1.27 1.98 1.78 9.1477e-41
1.32 1.98 1.78 9.1477e-41
1.36 1.98 1.78 9.1477e-41
1.42 1.98 1.78 9.1477e-41
1.46 1.98 1.77 9.1477e-41
1.51 1.98 1.77 9.1477e-41
1.55 1.98 1.76 9.1477e-41
1.6 1.98 1.75 9.1477e-41
1.64 1.98 1.74 9.1477e-41
1.68 1.98 1.74 9.1477e-41
1.71 1.98 1.71 9.1477e-41
1.72 1.98 1.65 9.1477e-41
1.54 1.98 1.25 9.1477e-41
1.52 1.98 1.12 9.1477e-41
1.5 1.98 1 9.1477e-41
1.56 1.98 1 9.1477e-41
1.63 1.98 1.03 9.1477e-41
1.71 1.98 1.1 9.1477e-41
1.82 1.98 1.21 9.1477e-41
1.85 1.98 1.16 9.1477e-41
1.87 1.98 1.11 9.1477e-41
1.87 1.98 1.02 9.1477e-41
1.88 1.98 0.93 9.1477e-41
1.88 1.98 0.82 9.1477e-41
1.89 1.98 0.72 9.1477e-41
1.88 1.98 0.58 9.1477e-41
1.88 1.98 0.46 9.1477e-41
0.38 2.01 1.77 9.1477e-41
0.47 2.01 1.78 9.1477e-41
0.54 2.01 1.8 9.1477e-41
0.6 2.01 1.79 9.1477e-41
0.67 2.01 1.8 9.1477e-41
0.72 2.01 1.8 9.1477e-41
0.79 2.01 1.8 9.1477e-41
0.84 2.01 1.8 9.1477e-41
0.9 2.01 1.8 9.1477e-41
0.95 2.01 1.8 9.1477e-41
1.01 2.01 1.79 9.1477e-41
1.07 2.01 1.8 9.1477e-41
1.12 2.01 1.8 9.1477e-41
1.18 2.01 1.8 9.1477e-41
1.22 2.01 1.79 9.1477e-41
1.27 2.01 1.78 9.1477e-41
1.31 2.01 1.78 9.1477e-41
1.36 2.01 1.78 9.1477e-41
1.42 2.01 1.79 9.1477e-41
1.46 2.01 1.77 9.1477e-41
1.51 2.01 1.77 9.1477e-41
1.56 2.01 1.77 9.1477e-41
1.59 2.01 1.74 9.1477e-41
1.64 2.01 1.75 9.1477e-41
1.68 2.01 1.74 9.1477e-41
1.71 2.01 1.71 9.1477e-41
1.73 2.01 1.66 9.1477e-41
1.49 2.01 1.15 9.1477e-41
1.49 2.01 1.07 9.1477e-41
1.55 2.01 1.09 9.1477e-41
1.62 2.01 1.12 9.1477e-41
1.75 2.01 1.27 9.1477e-41
1.8 2.01 1.26 9.1477e-41
1.83 2.01 1.24 9.1477e-41
1.85 2.01 1.17 9.1477e-41
1.87 2.01 1.11 9.1477e-41
1.88 2.01 1.03 9.1477e-41
1.88 2.01 0.93 9.1477e-41
1.88 2.01 0.82 9.1477e-41
1.89 2.01 0.71 9.1477e-41
1.88 2.01 0.58 9.1477e-41
1.88 2.01 0.46 9.1477e-41
0.39 2.04 1.77 9.1477e-41
0.47 2.04 1.79 9.1477e-41
0.54 2.04 1.8 9.1477e-41
0.61 2.04 1.8 9.1477e-41
0.67 2.04 1.8 9.1477e-41
0.73 2.04 1.8 9.1477e-41
0.79 2.04 1.8 9.1477e-41
0.84 2.04 1.8 9.1477e-41
0.9 2.04 1.8 9.1477e-41
0.97 2.04 1.81 9.1477e-41
1.01 2.04 1.8 9.1477e-41
1.07 2.04 1.8 9.1477e-41
1.12 2.04 1.8 9.1477e-41
1.18 2.04 1.8 9.1477e-41
1.23 2.04 1.8 9.1477e-41
1.27 2.04 1.79 9.1477e-41
1.33 2.04 1.79 9.1477e-41
1.37 2.04 1.78 9.1477e-41
1.42 2.04 1.79 9.1477e-41
1.47 2.04 1.78 9.1477e-41
1.51 2.04 1.77 9.1477e-41
1.56 2.04 1.77 9.1477e-41
1.6 2.04 1.76 9.1477e-41
1.65 2.04 1.77 9.1477e-41
1.69 2.04 1.74 9.1477e-41
1.72 2.04 1.71 9.1477e-41
1.73 2.04 1.66 9.1477e-41
1.71 2.04 1.66 3.57e-43
1.49 2.04 1.07 9.1477e-41
1.72 2.04 1.4 9.1477e-41
1.79 2.04 1.42 9.1477e-41
1.8 2.04 1.37 9.1477e-41
1.83 2.04 1.32 9.1477e-41
1.84 2.04 1.26 9.1477e-41
1.86 2.04 1.19 9.1477e-41
1.87 2.04 1.11 9.1477e-41
1.88 2.04 1.03 9.1477e-41
1.88 2.04 0.93 9.1477e-41
1.88 2.04 0.82 9.1477e-41
1.89 2.04 0.71 9.1477e-41
1.88 2.04 0.59 9.1477e-41
1.88 2.04 0.45 9.1477e-41
0.38 2.07 1.77 9.1477e-41
0.47 2.07 1.79 9.1477e-41
0.55 2.07 1.8 9.1477e-41
0.6 2.07 1.8 9.1477e-41
0.67 2.07 1.8 9.1477e-41
0.74 2.07 1.81 9.1477e-41
0.79 2.07 1.8 9.1477e-41
0.86 2.07 1.81 9.1477e-41
0.91 2.07 1.81 9.1477e-41
0.97 2.07 1.81 9.1477e-41
1.02 2.07 1.81 9.1477e-41
1.07 2.07 1.81 9.1477e-41
1.13 2.07 1.81 9.1477e-41
1.18 2.07 1.8 9.1477e-41
1.23 2.07 1.8 9.1477e-41
1.27 2.07 1.79 9.1477e-41
1.33 2.07 1.8 9.1477e-41
1.38 2.07 1.8 9.1477e-41
1.43 2.07 1.79 9.1477e-41
1.48 2.07 1.8 9.1477e-41
1.52 2.07 1.78 9.1477e-41
1.56 2.07 1.78 9.1477e-41
1.6 2.07 1.76 9.1477e-41
1.65 2.07 1.77 9.1477e-41
1.68 2.07 1.74 9.1477e-41
1.71 2.07 1.71 9.1477e-41
1.73 2.07 1.67 9.1477e-41
1.76 2.07 1.62 9.1477e-41
1.77 2.07 1.56 9.1477e-41
1.78 2.07 1.49 9.1477e-41
1.8 2.07 1.44 9.1477e-41
1.81 2.07 1.38 9.1477e-41
1.83 2.07 1.32 9.1477e-41
1.84 2.07 1.26 9.1477e-41
1.86 2.07 1.18 9.1477e-41
1.86 2.07 1.1 9.1477e-41
1.88 2.07 1.03 9.1477e-41
1.88 2.07 0.93 9.1477e-41
1.88 2.07 0.82 9.1477e-41
1.89 2.07 0.72 9.1477e-41
1.88 2.07 0.58 9.1477e-41
1.89 2.07 0.48 9.1477e-41
0.4 2.1 1.78 9.1477e-41
0.47 2.1 1.79 9.1477e-41
0.55 2.1 1.8 9.1477e-41
0.61 2.1 1.8 9.1477e-41
0.68 2.1 1.81 9.1477e-41
0.73 2.1 1.8 9.1477e-41
0.8 2.1 1.82 9.1477e-41
0.86 2.1 1.82 9.1477e-41
0.91 2.1 1.82 9.1477e-41
0.98 2.1 1.83 9.1477e-41
1.03 2.1 1.82 9.1477e-41
1.08 2.1 1.81 9.1477e-41
1.14 2.1 1.82 9.1477e-41
1.19 2.1 1.82 9.1477e-41
1.23 2.1 1.81 9.1477e-41
1.28 2.1 1.8 9.1477e-41
1.33 2.1 1.8 9.1477e-41
1.38 2.1 1.8 9.1477e-41
1.43 2.1 1.79 9.1477e-41
1.48 2.1 1.8 9.1477e-41
1.52 2.1 1.78 9.1477e-41
1.56 2.1 1.78 9.1477e-41
1.6 2.1 1.76 9.1477e-41
1.65 2.1 1.77 9.1477e-41
1.68 2.1 1.74 9.1477e-41
1.72 2.1 1.71 9.1477e-41
1.73 2.1 1.67 9.1477e-41
1.76 2.1 1.62 9.1477e-41
1.77 2.1 1.56 9.1477e-41
1.78 2.1 1.5 9.1477e-41
1.8 2.1 1.45 9.1477e-41
1.82 2.1 1.39 9.1477e-41
1.83 2.1 1.33 9.1477e-41
1.84 2.1 1.26 9.1477e-41
1.86 2.1 1.2 9.1477e-41
1.86 2.1 1.1 9.1477e-41
1.88 2.1 1.03 9.1477e-41
1.88 2.1 0.94 9.1477e-41
1.88 2.1 0.82 9.1477e-41
1.89 2.1 0.72 9.1477e-41
1.87 2.1 0.57 9.1477e-41
1.89 2.1 0.47 9.1477e-41
0.4 2.13 1.78 9.1477e-41
0.48 2.13 1.8 9.1477e-41
0.55 2.13 1.81 9.1477e-41
0.62 2.13 1.82 9.1477e-41
0.68 2.13 1.81 9.1477e-41
0.74 2.13 1.82 9.1477e-41
0.8 2.13 1.81 9.1477e-41
0.86 2.13 1.82 9.1477e-41
0.92 2.13 1.82 9.1477e-41
0.97 2.13 1.82 9.1477e-41
1.03 2.13 1.82 9.1477e-41
1.08 2.13 1.81 9.1477e-41
1.14 2.13 1.82 9.1477e-41
1.19 2.13 1.82 9.1477e-41
1.24 2.13 1.82 9.1477e-41
1.29 2.13 1.81 9.1477e-41
1.34 2.13 1.81 9.1477e-41
1.39 2.13 1.81 9.1477e-41
1.43 2.13 1.79 9.1477e-41
1.48 2.13 1.8 9.1477e-41
1.53 2.13 1.8 9.1477e-41
1.57 2.13 1.78 9.1477e-41
1.61 2.13 1.77 9.1477e-41
1.66 2.13 1.77 9.1477e-41
1.69 2.13 1.75 9.1477e-41
1.72 2.13 1.71 9.1477e-41
1.74 2.13 1.68 9.1477e-41
1.76 2.13 1.62 9.1477e-41
1.77 2.13 1.57 9.1477e-41
1.79 2.13 1.51 9.1477e-41
1.8 2.13 1.46 9.1477e-41
1.82 2.13 1.4 9.1477e-41
1.83 2.13 1.32 9.1477e-41
1.85 2.13 1.26 9.1477e-41
1.86 2.13 1.18 9.1477e-41
1.87 2.13 1.12 9.1477e-41
1.88 2.13 1.03 9.1477e-41
1.88 2.13 0.94 9.1477e-41
1.88 2.13 0.82 9.1477e-41
1.89 2.13 0.72 9.1477e-41
1.88 2.13 0.58 9.1477e-41
1.89 2.13 0.47 9.1477e-41
0.4 2.16 1.78 9.1477e-41
0.49 2.16 1.81 9.1477e-41
0.55 2.16 1.81 9.1477e-41
0.62 2.16 1.82 9.1477e-41
0.68 2.16 1.82 9.1477e-41
0.75 2.16 1.83 9.1477e-41
0.8 2.16 1.82 9.1477e-41
0.86 2.16 1.82 9.1477e-41
0.91 2.16 1.82 9.1477e-41
0.97 2.16 1.82 9.1477e-41
1.03 2.16 1.82 9.1477e-41
1.09 2.16 1.83 9.1477e-41
1.14 2.16 1.83 9.1477e-41
1.18 2.16 1.81 9.1477e-41
1.24 2.16 1.82 9.1477e-41
1.29 2.16 1.82 9.1477e-41
1.34 2.16 1.82 9.1477e-41
1.39 2.16 1.81 9.1477e-41
1.43 2.16 1.8 9.1477e-41
1.48 2.16 1.8 9.1477e-41
1.52 2.16 1.79 9.1477e-41
1.57 2.16 1.79 9.1477e-41
1.61 2.16 1.77 9.1477e-41
1.66 2.16 1.78 9.1477e-41
1.69 2.16 1.74 9.1477e-41
1.72 2.16 1.72 9.1477e-41
1.74 2.16 1.68 9.1477e-41
1.76 2.16 1.62 9.1477e-41
1.77 2.16 1.56 9.1477e-41
1.79 2.16 1.51 9.1477e-41
1.8 2.16 1.46 9.1477e-41
1.81 2.16 1.38 9.1477e-41
1.84 2.16 1.34 9.1477e-41
1.84 2.16 1.26 9.1477e-41
1.86 2.16 1.19 9.1477e-41
1.87 2.16 1.11 9.1477e-41
1.88 2.16 1.03 9.1477e-41
1.88 2.16 0.94 9.1477e-41
1.89 2.16 0.84 9.1477e-41
1.89 2.16 0.72 9.1477e-41
1.88 2.16 0.58 9.1477e-41
1.89 2.16 0.47 9.1477e-41
0.41 2.19 1.79 9.1477e-41
0.49 2.19 1.81 9.1477e-41
0.56 2.19 1.82 9.1477e-41
0.63 2.19 1.83 9.1477e-41
0.7 2.19 1.83 9.1477e-41
0.74 2.19 1.82 9.1477e-41
0.8 2.19 1.82 9.1477e-41
0.87 2.19 1.83 9.1477e-41
0.92 2.19 1.82 9.1477e-41
0.98 2.19 1.83 9.1477e-41
1.03 2.19 1.82 9.1477e-41
1.09 2.19 1.83 9.1477e-41
1.14 2.19 1.82 9.1477e-41
1.19 2.19 1.83 9.1477e-41
1.25 2.19 1.82 9.1477e-41
1.29 2.19 1.82 9.1477e-41
1.34 2.19 1.82 9.1477e-41
1.39 2.19 1.81 9.1477e-41
1.44 2.19 1.81 9.1477e-41
1.48 2.19 1.8 9.1477e-41
1.53 2.19 1.8 9.1477e-41
1.57 2.19 1.79 9.1477e-41
1.62 2.19 1.79 9.1477e-41
1.66 2.19 1.77 9.1477e-41
1.69 2.19 1.75 9.1477e-41
1.72 2.19 1.71 9.1477e-41
1.73 2.19 1.67 9.1477e-41
1.76 2.19 1.62 9.1477e-41
1.77 2.19 1.57 9.1477e-41
1.79 2.19 1.51 9.1477e-41
1.8 2.19 1.45 9.1477e-41
1.81 2.19 1.38 9.1477e-41
1.82 2.19 1.31 9.1477e-41
1.83 2.19 1.24 9.1477e-41
1.86 2.19 1.18 9.1477e-41
1.87 2.19 1.11 9.1477e-41
1.88 2.19 1.04 9.1477e-41
1.88 2.19 0.94 9.1477e-41
1.89 2.19 0.83 9.1477e-41
1.89 2.19 0.72 9.1477e-41
1.88 2.19 0.58 9.1477e-41
1.88 2.19 0.46 9.1477e-41
0.41 2.22 1.79 9.1477e-41
0.5 2.22 1.82 9.1477e-41
0.56 2.22 1.82 9.1477e-41
0.62 2.22 1.82 9.1477e-41
0.69 2.22 1.83 9.1477e-41
0.76 2.22 1.83 9.1477e-41
0.81 2.22 1.83 9.1477e-41
0.87 2.22 1.83 9.1477e-41
0.93 2.22 1.83 9.1477e-41
0.98 2.22 1.83 9.1477e-41
1.04 2.22 1.83 9.1477e-41
1.09 2.22 1.83 9.1477e-41
1.14 2.22 1.83 9.1477e-41
1.19 2.22 1.83 9.1477e-41
1.24 2.22 1.82 9.1477e-41
1.3 2.22 1.83 9.1477e-41
1.34 2.22 1.82 9.1477e-41
1.39 2.22 1.81 9.1477e-41
1.43 2.22 1.8 9.1477e-41
1.48 2.22 1.8 9.1477e-41
1.53 2.22 1.81 9.1477e-41
1.57 2.22 1.78 9.1477e-41
1.61 2.22 1.78 9.1477e-41
1.66 2.22 1.78 9.1477e-41
1.69 2.22 1.75 9.1477e-41
1.72 2.22 1.71 9.1477e-41
1.73 2.22 1.67 9.1477e-41
1.76 2.22 1.67 3.57e-43
1.77 2.22 1.67 3.57e-43
1.79 2.22 1.67 3.57e-43
1.8 2.22 1.67 3.57e-43
1.81 2.22 1.67 3.57e-43
1.82 2.22 1.67 3.57e-43
1.83 2.22 1.24 9.1477e-41
1.85 2.22 1.17 9.1477e-41
1.86 2.22 1.1 9.1477e-41
1.88 2.22 1.03 9.1477e-41
1.88 2.22 0.94 9.1477e-41
1.88 2.22 0.82 9.1477e-41
1.89 2.22 0.72 9.1477e-41
1.87 2.22 0.57 9.1477e-41
1.88 2.22 0.46 9.1477e-41
