# .PCD v.7 - Point Cloud Data file format
VERSION .7
FIELDS x y z rgb
SIZE 4 4 4 4
TYPE F F F F
WIDTH 1926
HEIGHT 1
POINTS 1926
DATA ascii
3.48 0.38 1.02 9.1477e-41
3.52 0.38 1 9.1477e-41
3.56 0.38 1.01 9.1477e-41
3.6 0.38 1.01 9.1477e-41
3.65 0.38 1.01 9.1477e-41
3.69 0.38 0.99 9.1477e-41
3.73 0.38 1 9.1477e-41
3.77 0.38 1.01 9.1477e-41
3.81 0.38 1 9.1477e-41
3.85 0.38 0.99 9.1477e-41
3.89 0.38 1 9.1477e-41
3.93 0.38 1 9.1477e-41
3.97 0.38 0.99 9.1477e-41
4.01 0.38 0.98 9.1477e-41
4.05 0.38 0.98 9.1477e-41
4.09 0.38 0.97 9.1477e-41
4.18 0.38 0.96 9.1477e-41
4.22 0.38 0.96 9.1477e-41
4.26 0.38 0.96 9.1477e-41
4.3 0.38 0.95 9.1477e-41
4.34 0.38 0.95 3.57e-43
4.4 0.38 0.71 9.1477e-41
4.44 0.38 0.78 9.1477e-41
4.48 0.38 0.73 9.1477e-41
2.93 0.4 0.8 9.1477e-41
3.02 0.4 1 9.1477e-41
3.06 0.4 1 9.1477e-41
3.1 0.4 1 9.1477e-41
3.14 0.4 1 9.1477e-41
3.19 0.4 1 9.1477e-41
3.23 0.4 1 9.1477e-41
3.27 0.4 1.01 9.1477e-41
3.32 0.4 1.02 9.1477e-41
3.36 0.4 1 9.1477e-41
3.4 0.4 1.01 9.1477e-41
3.44 0.4 1.01 9.1477e-41
3.48 0.4 1.01 9.1477e-41
3.52 0.4 1.01 9.1477e-41
3.56 0.4 1.01 9.1477e-41
3.6 0.4 1.01 9.1477e-41
3.65 0.4 1.02 9.1477e-41
3.69 0.4 1 9.1477e-41
3.73 0.4 1.01 9.1477e-41
3.77 0.4 1.01 9.1477e-41
3.81 0.4 1 9.1477e-41
3.85 0.4 1 9.1477e-41
3.89 0.4 1 9.1477e-41
3.93 0.4 1 9.1477e-41
3.97 0.4 0.99 9.1477e-41
4.01 0.4 1 9.1477e-41
4.05 0.4 0.98 9.1477e-41
4.09 0.4 0.99 9.1477e-41
4.18 0.4 0.97 9.1477e-41
4.22 0.4 0.98 9.1477e-41
4.26 0.4 0.96 9.1477e-41
4.3 0.4 0.95 9.1477e-41
4.34 0.4 0.95 3.57e-43
4.4 0.4 0.71 9.1477e-41
4.44 0.4 0.76 9.1477e-41
4.48 0.4 0.73 9.1477e-41
2.95 0.42 0.91 9.1477e-41
3.02 0.42 1 9.1477e-41
3.06 0.42 1 9.1477e-41
3.1 0.42 1.01 9.1477e-41
3.15 0.42 1.01 9.1477e-41
3.19 0.42 1.01 9.1477e-41
3.23 0.42 1.01 9.1477e-41
3.27 0.42 1.02 9.1477e-41
3.32 0.42 1.02 9.1477e-41
3.36 0.42 1.01 9.1477e-41
3.4 0.42 1.03 9.1477e-41
3.44 0.42 1.03 9.1477e-41
3.48 0.42 1.03 9.1477e-41
3.52 0.42 1.03 9.1477e-41
3.57 0.42 1.03 9.1477e-41
3.61 0.42 1.02 9.1477e-41
3.65 0.42 1.02 9.1477e-41
3.69 0.42 1.01 9.1477e-41
3.73 0.42 1.02 9.1477e-41
3.77 0.42 1.02 9.1477e-41
3.81 0.42 1.01 9.1477e-41
3.85 0.42 1.01 9.1477e-41
3.89 0.42 1 9.1477e-41
3.93 0.42 1.02 9.1477e-41
3.97 0.42 1.01 9.1477e-41
4.01 0.42 1 9.1477e-41
4.05 0.42 1 9.1477e-41
4.09 0.42 0.98 9.1477e-41
4.18 0.42 0.99 9.1477e-41
4.22 0.42 0.98 9.1477e-41
4.26 0.42 0.97 9.1477e-41
4.3 0.42 0.97 9.1477e-41
4.34 0.42 0.97 3.57e-43
4.4 0.42 0.71 9.1477e-41
4.44 0.42 0.78 9.1477e-41
4.48 0.42 0.77 9.1477e-41
2.9 0.44 0.89 9.1477e-41
2.95 0.44 0.91 9.1477e-41
3.02 0.44 1.01 9.1477e-41
3.06 0.44 1.02 9.1477e-41
3.11 0.44 1.02 9.1477e-41
3.15 0.44 1.02 9.1477e-41
3.19 0.44 1.02 9.1477e-41
3.23 0.44 1.02 9.1477e-41
3.27 0.44 1.02 9.1477e-41
3.32 0.44 1.02 9.1477e-41
3.36 0.44 1.03 9.1477e-41
3.4 0.44 1.03 9.1477e-41
3.44 0.44 1.03 9.1477e-41
3.48 0.44 1.04 9.1477e-41
3.52 0.44 1.03 9.1477e-41
3.57 0.44 1.04 9.1477e-41
3.61 0.44 1.02 9.1477e-41
3.65 0.44 1.03 9.1477e-41
3.69 0.44 1.02 9.1477e-41
3.73 0.44 1.03 9.1477e-41
3.77 0.44 1.03 9.1477e-41
3.81 0.44 1.01 9.1477e-41
3.85 0.44 1.02 9.1477e-41
3.89 0.44 1.02 9.1477e-41
3.93 0.44 1.02 9.1477e-41
3.97 0.44 1.02 9.1477e-41
4.01 0.44 1.01 9.1477e-41
4.05 0.44 1 9.1477e-41
4.09 0.44 1 9.1477e-41
4.18 0.44 1 9.1477e-41
4.22 0.44 0.99 9.1477e-41
4.26 0.44 0.98 9.1477e-41
4.3 0.44 0.97 9.1477e-41
4.34 0.44 0.97 9.1477e-41
4.38 0.44 0.97 3.57e-43
4.44 0.44 0.79 9.1477e-41
4.48 0.44 0.82 9.1477e-41
2.9 0.46 0.89 9.1477e-41
2.98 0.46 1.02 9.1477e-41
3.02 0.46 1.02 9.1477e-41
3.06 0.46 1.02 9.1477e-41
3.11 0.46 1.02 9.1477e-41
3.15 0.46 1.02 9.1477e-41
3.19 0.46 1.02 9.1477e-41
3.23 0.46 1.03 9.1477e-41
3.28 0.46 1.04 9.1477e-41
3.32 0.46 1.04 9.1477e-41
3.36 0.46 1.03 9.1477e-41
3.4 0.46 1.04 9.1477e-41
3.44 0.46 1.04 9.1477e-41
3.48 0.46 1.04 9.1477e-41
3.53 0.46 1.04 9.1477e-41
3.57 0.46 1.04 9.1477e-41
3.61 0.46 1.04 9.1477e-41
3.65 0.46 1.04 9.1477e-41
3.69 0.46 1.03 9.1477e-41
3.73 0.46 1.04 9.1477e-41
3.77 0.46 1.04 9.1477e-41
3.81 0.46 1.03 9.1477e-41
3.85 0.46 1.02 9.1477e-41
3.89 0.46 1.03 9.1477e-41
3.93 0.46 1.03 9.1477e-41
3.97 0.46 1.02 9.1477e-41
4.01 0.46 1.02 9.1477e-41
4.05 0.46 1.01 9.1477e-41
4.09 0.46 1.01 9.1477e-41
4.18 0.46 1.01 9.1477e-41
4.22 0.46 0.99 9.1477e-41
4.26 0.46 0.99 9.1477e-41
4.3 0.46 0.99 9.1477e-41
4.34 0.46 0.98 9.1477e-41
4.38 0.46 0.97 9.1477e-41
4.42 0.46 0.96 9.1477e-41
4.47 0.46 0.88 9.1477e-41
4.53 0.46 0.73 9.1477e-41
2.92 0.48 0.98 9.1477e-41
2.98 0.48 1.02 9.1477e-41
3.02 0.48 1.03 9.1477e-41
3.06 0.48 1.03 9.1477e-41
3.11 0.48 1.03 9.1477e-41
3.15 0.48 1.04 9.1477e-41
3.19 0.48 1.04 9.1477e-41
3.23 0.48 1.03 9.1477e-41
3.28 0.48 1.05 9.1477e-41
3.32 0.48 1.04 9.1477e-41
3.36 0.48 1.04 9.1477e-41
3.4 0.48 1.04 9.1477e-41
3.45 0.48 1.05 9.1477e-41
3.49 0.48 1.04 9.1477e-41
3.53 0.48 1.04 9.1477e-41
3.57 0.48 1.04 9.1477e-41
3.61 0.48 1.04 9.1477e-41
3.65 0.48 1.06 9.1477e-41
3.69 0.48 1.05 9.1477e-41
3.73 0.48 1.05 9.1477e-41
3.77 0.48 1.04 9.1477e-41
3.81 0.48 1.03 9.1477e-41
3.85 0.48 1.04 9.1477e-41
3.89 0.48 1.03 9.1477e-41
3.93 0.48 1.04 9.1477e-41
3.97 0.48 1.03 9.1477e-41
4.01 0.48 1.03 9.1477e-41
4.05 0.48 1.02 9.1477e-41
4.09 0.48 1.02 9.1477e-41
4.18 0.48 1.02 9.1477e-41
4.22 0.48 1 9.1477e-41
4.26 0.48 1 9.1477e-41
4.3 0.48 1 9.1477e-41
4.34 0.48 0.99 9.1477e-41
4.38 0.48 0.97 9.1477e-41
4.42 0.48 0.96 9.1477e-41
4.47 0.48 0.89 9.1477e-41
4.52 0.48 0.79 9.1477e-41
2.93 0.5 1.01 9.1477e-41
2.98 0.5 1.03 9.1477e-41
3.02 0.5 1.03 9.1477e-41
3.07 0.5 1.05 9.1477e-41
3.11 0.5 1.04 9.1477e-41
3.15 0.5 1.05 9.1477e-41
3.2 0.5 1.05 9.1477e-41
3.24 0.5 1.05 9.1477e-41
3.28 0.5 1.06 9.1477e-41
3.32 0.5 1.05 9.1477e-41
3.36 0.5 1.05 9.1477e-41
3.4 0.5 1.06 9.1477e-41
3.45 0.5 1.06 9.1477e-41
3.49 0.5 1.05 9.1477e-41
3.53 0.5 1.06 9.1477e-41
3.57 0.5 1.05 9.1477e-41
3.61 0.5 1.05 9.1477e-41
3.65 0.5 1.06 9.1477e-41
3.69 0.5 1.05 9.1477e-41
3.73 0.5 1.05 9.1477e-41
3.77 0.5 1.05 9.1477e-41
3.81 0.5 1.05 9.1477e-41
3.85 0.5 1.05 9.1477e-41
3.89 0.5 1.04 9.1477e-41
3.93 0.5 1.04 9.1477e-41
3.97 0.5 1.04 9.1477e-41
4.01 0.5 1.04 9.1477e-41
4.05 0.5 1.02 9.1477e-41
4.09 0.5 1.03 9.1477e-41
4.18 0.5 1.02 9.1477e-41
4.22 0.5 1.01 9.1477e-41
4.26 0.5 1.01 9.1477e-41
4.3 0.5 1 9.1477e-41
4.34 0.5 1.01 9.1477e-41
4.38 0.5 1 9.1477e-41
4.42 0.5 0.98 9.1477e-41
4.47 0.5 0.9 9.1477e-41
4.52 0.5 0.84 9.1477e-41
2.94 0.52 1.03 9.1477e-41
2.98 0.52 1.04 9.1477e-41
3.02 0.52 1.04 9.1477e-41
3.07 0.52 1.05 9.1477e-41
3.11 0.52 1.05 9.1477e-41
3.15 0.52 1.05 9.1477e-41
3.2 0.52 1.05 9.1477e-41
3.24 0.52 1.05 9.1477e-41
3.28 0.52 1.06 9.1477e-41
3.32 0.52 1.06 9.1477e-41
3.37 0.52 1.07 9.1477e-41
3.41 0.52 1.08 9.1477e-41
3.45 0.52 1.07 9.1477e-41
3.49 0.52 1.06 9.1477e-41
3.53 0.52 1.06 9.1477e-41
3.57 0.52 1.06 9.1477e-41
3.61 0.52 1.07 9.1477e-41
3.65 0.52 1.07 9.1477e-41
3.69 0.52 1.06 9.1477e-41
3.73 0.52 1.06 9.1477e-41
3.77 0.52 1.07 9.1477e-41
3.81 0.52 1.05 9.1477e-41
3.85 0.52 1.05 9.1477e-41
3.89 0.52 1.05 9.1477e-41
3.93 0.52 1.05 9.1477e-41
3.97 0.52 1.05 9.1477e-41
4.01 0.52 1.05 9.1477e-41
4.05 0.52 1.04 9.1477e-41
4.09 0.52 1.04 9.1477e-41
4.18 0.52 1.03 9.1477e-41
4.22 0.52 1.02 9.1477e-41
4.26 0.52 1.02 9.1477e-41
4.3 0.52 1.01 9.1477e-41
4.34 0.52 1.01 9.1477e-41
4.38 0.52 1 9.1477e-41
4.42 0.52 1 9.1477e-41
4.47 0.52 0.96 9.1477e-41
4.52 0.52 0.87 9.1477e-41
2.94 0.54 1.03 9.1477e-41
2.98 0.54 1.05 9.1477e-41
3.03 0.54 1.06 9.1477e-41
3.07 0.54 1.06 9.1477e-41
3.11 0.54 1.06 9.1477e-41
3.16 0.54 1.06 9.1477e-41
3.2 0.54 1.05 9.1477e-41
3.24 0.54 1.06 9.1477e-41
3.28 0.54 1.07 9.1477e-41
3.32 0.54 1.07 9.1477e-41
3.37 0.54 1.07 9.1477e-41
3.41 0.54 1.07 9.1477e-41
3.45 0.54 1.07 9.1477e-41
3.49 0.54 1.07 9.1477e-41
3.53 0.54 1.07 9.1477e-41
3.57 0.54 1.06 9.1477e-41
3.61 0.54 1.06 9.1477e-41
3.65 0.54 1.07 9.1477e-41
3.69 0.54 1.07 9.1477e-41
3.73 0.54 1.07 9.1477e-41
3.77 0.54 1.07 9.1477e-41
3.81 0.54 1.07 9.1477e-41
3.85 0.54 1.06 9.1477e-41
3.89 0.54 1.06 9.1477e-41
3.93 0.54 1.06 9.1477e-41
3.97 0.54 1.06 9.1477e-41
4.01 0.54 1.05 9.1477e-41
4.05 0.54 1.05 9.1477e-41
4.09 0.54 1.04 9.1477e-41
4.18 0.54 1.03 9.1477e-41
4.22 0.54 1.02 9.1477e-41
4.26 0.54 1.02 9.1477e-41
4.3 0.54 1.02 9.1477e-41
4.34 0.54 1.01 9.1477e-41
4.38 0.54 1.02 9.1477e-41
4.42 0.54 1 9.1477e-41
4.46 0.54 0.98 9.1477e-41
4.52 0.54 0.88 9.1477e-41
2.94 0.56 1.05 9.1477e-41
2.99 0.56 1.06 9.1477e-41
3.03 0.56 1.06 9.1477e-41
3.07 0.56 1.07 9.1477e-41
3.12 0.56 1.07 9.1477e-41
3.16 0.56 1.08 9.1477e-41
3.2 0.56 1.07 9.1477e-41
3.24 0.56 1.06 9.1477e-41
3.28 0.56 1.08 9.1477e-41
3.33 0.56 1.08 9.1477e-41
3.37 0.56 1.07 9.1477e-41
3.41 0.56 1.08 9.1477e-41
3.45 0.56 1.08 9.1477e-41
3.49 0.56 1.07 9.1477e-41
3.53 0.56 1.08 9.1477e-41
3.57 0.56 1.07 9.1477e-41
3.61 0.56 1.07 9.1477e-41
3.65 0.56 1.08 9.1477e-41
3.69 0.56 1.07 9.1477e-41
3.73 0.56 1.07 9.1477e-41
3.77 0.56 1.07 9.1477e-41
3.81 0.56 1.07 9.1477e-41
3.85 0.56 1.06 9.1477e-41
3.89 0.56 1.06 9.1477e-41
3.93 0.56 1.06 9.1477e-41
3.97 0.56 1.07 9.1477e-41
4.01 0.56 1.06 9.1477e-41
4.05 0.56 1.05 9.1477e-41
4.09 0.56 1.06 9.1477e-41
4.18 0.56 1.05 9.1477e-41
4.22 0.56 1.04 9.1477e-41
4.26 0.56 1.03 9.1477e-41
4.3 0.56 1.03 9.1477e-41
4.34 0.56 1.02 9.1477e-41
4.38 0.56 1.03 9.1477e-41
4.42 0.56 1.01 9.1477e-41
4.46 0.56 0.98 9.1477e-41
4.51 0.56 0.92 9.1477e-41
2.86 0.58 0.88 9.1477e-41
2.94 0.58 1.06 9.1477e-41
2.99 0.58 1.06 9.1477e-41
3.03 0.58 1.07 9.1477e-41
3.07 0.58 1.07 9.1477e-41
3.12 0.58 1.08 9.1477e-41
3.16 0.58 1.07 9.1477e-41
3.2 0.58 1.08 9.1477e-41
3.24 0.58 1.08 9.1477e-41
3.29 0.58 1.09 9.1477e-41
3.33 0.58 1.09 9.1477e-41
3.37 0.58 1.08 9.1477e-41
3.41 0.58 1.09 9.1477e-41
3.45 0.58 1.08 9.1477e-41
3.49 0.58 1.08 9.1477e-41
3.53 0.58 1.08 9.1477e-41
3.57 0.58 1.08 9.1477e-41
3.61 0.58 1.08 9.1477e-41
3.65 0.58 1.08 9.1477e-41
3.69 0.58 1.08 9.1477e-41
3.73 0.58 1.07 9.1477e-41
3.77 0.58 1.08 9.1477e-41
3.81 0.58 1.07 9.1477e-41
3.85 0.58 1.07 9.1477e-41
3.89 0.58 1.07 9.1477e-41
3.93 0.58 1.07 9.1477e-41
3.97 0.58 1.07 9.1477e-41
4.01 0.58 1.07 9.1477e-41
4.05 0.58 1.06 9.1477e-41
4.09 0.58 1.07 9.1477e-41
4.18 0.58 1.06 9.1477e-41
4.22 0.58 1.05 9.1477e-41
4.26 0.58 1.04 9.1477e-41
4.3 0.58 1.03 9.1477e-41
4.34 0.58 1.04 9.1477e-41
4.38 0.58 1.03 9.1477e-41
4.42 0.58 1.01 9.1477e-41
4.46 0.58 1 9.1477e-41
4.51 0.58 0.92 9.1477e-41
2.87 0.6 0.94 9.1477e-41
2.95 0.6 1.07 9.1477e-41
2.99 0.6 1.07 9.1477e-41
3.03 0.6 1.07 9.1477e-41
3.08 0.6 1.09 9.1477e-41
3.12 0.6 1.08 9.1477e-41
3.16 0.6 1.09 9.1477e-41
3.2 0.6 1.08 9.1477e-41
3.25 0.6 1.09 9.1477e-41
3.29 0.6 1.09 9.1477e-41
3.33 0.6 1.09 9.1477e-41
3.37 0.6 1.09 9.1477e-41
3.41 0.6 1.1 9.1477e-41
3.45 0.6 1.1 9.1477e-41
3.49 0.6 1.09 9.1477e-41
3.53 0.6 1.09 9.1477e-41
3.57 0.6 1.08 9.1477e-41
3.61 0.6 1.09 9.1477e-41
3.65 0.6 1.09 9.1477e-41
3.69 0.6 1.09 9.1477e-41
3.73 0.6 1.09 9.1477e-41
3.77 0.6 1.09 9.1477e-41
3.81 0.6 1.09 9.1477e-41
3.85 0.6 1.09 9.1477e-41
3.89 0.6 1.08 9.1477e-41
3.93 0.6 1.08 9.1477e-41
3.97 0.6 1.08 9.1477e-41
4.01 0.6 1.08 9.1477e-41
4.05 0.6 1.07 9.1477e-41
4.09 0.6 1.07 9.1477e-41
4.18 0.6 1.06 9.1477e-41
4.22 0.6 1.05 9.1477e-41
4.26 0.6 1.04 9.1477e-41
4.3 0.6 1.04 9.1477e-41
4.34 0.6 1.04 9.1477e-41
4.38 0.6 1.04 9.1477e-41
4.42 0.6 1.03 9.1477e-41
4.46 0.6 1 9.1477e-41
4.51 0.6 0.93 9.1477e-41
2.89 0.62 1 9.1477e-41
2.95 0.62 1.07 9.1477e-41
2.99 0.62 1.09 9.1477e-41
3.04 0.62 1.09 9.1477e-41
3.08 0.62 1.09 9.1477e-41
3.12 0.62 1.09 9.1477e-41
3.16 0.62 1.09 9.1477e-41
3.2 0.62 1.09 9.1477e-41
3.25 0.62 1.09 9.1477e-41
3.29 0.62 1.1 9.1477e-41
3.33 0.62 1.1 9.1477e-41
3.37 0.62 1.1 9.1477e-41
3.41 0.62 1.1 9.1477e-41
3.45 0.62 1.1 9.1477e-41
3.49 0.62 1.1 9.1477e-41
3.53 0.62 1.09 9.1477e-41
3.57 0.62 1.1 9.1477e-41
3.61 0.62 1.09 9.1477e-41
3.65 0.62 1.1 9.1477e-41
3.69 0.62 1.09 9.1477e-41
3.73 0.62 1.1 9.1477e-41
3.77 0.62 1.1 9.1477e-41
3.81 0.62 1.09 9.1477e-41
3.85 0.62 1.09 9.1477e-41
3.89 0.62 1.09 9.1477e-41
3.93 0.62 1.09 9.1477e-41
3.97 0.62 1.08 9.1477e-41
4.01 0.62 1.08 9.1477e-41
4.05 0.62 1.07 9.1477e-41
4.09 0.62 1.07 9.1477e-41
4.18 0.62 1.07 9.1477e-41
4.22 0.62 1.06 9.1477e-41
4.26 0.62 1.05 9.1477e-41
4.3 0.62 1.05 9.1477e-41
4.34 0.62 1.04 9.1477e-41
4.38 0.62 1.04 9.1477e-41
4.42 0.62 1.04 9.1477e-41
4.46 0.62 1.02 9.1477e-41
4.51 0.62 0.95 9.1477e-41
2.89 0.64 1.01 9.1477e-41
2.95 0.64 1.08 9.1477e-41
2.99 0.64 1.09 9.1477e-41
3.04 0.64 1.1 9.1477e-41
3.08 0.64 1.1 9.1477e-41
3.12 0.64 1.1 9.1477e-41
3.16 0.64 1.1 9.1477e-41
3.21 0.64 1.1 9.1477e-41
3.25 0.64 1.1 9.1477e-41
3.29 0.64 1.11 9.1477e-41
3.33 0.64 1.11 9.1477e-41
3.37 0.64 1.1 9.1477e-41
3.41 0.64 1.11 9.1477e-41
3.45 0.64 1.11 9.1477e-41
3.49 0.64 1.1 9.1477e-41
3.53 0.64 1.1 9.1477e-41
3.57 0.64 1.1 9.1477e-41
3.61 0.64 1.1 9.1477e-41
3.66 0.64 1.11 9.1477e-41
3.69 0.64 1.1 9.1477e-41
3.73 0.64 1.09 9.1477e-41
3.78 0.64 1.11 9.1477e-41
3.81 0.64 1.09 9.1477e-41
3.85 0.64 1.09 9.1477e-41
3.89 0.64 1.09 9.1477e-41
3.94 0.64 1.1 9.1477e-41
3.97 0.64 1.09 9.1477e-41
4.01 0.64 1.09 9.1477e-41
4.05 0.64 1.09 9.1477e-41
4.09 0.64 1.08 9.1477e-41
4.18 0.64 1.07 9.1477e-41
4.22 0.64 1.07 9.1477e-41
4.26 0.64 1.06 9.1477e-41
4.3 0.64 1.05 9.1477e-41
4.34 0.64 1.05 9.1477e-41
4.38 0.64 1.05 9.1477e-41
4.42 0.64 1.04 9.1477e-41
4.46 0.64 1.03 9.1477e-41
4.51 0.64 0.97 9.1477e-41
2.9 0.66 1.04 9.1477e-41
2.95 0.66 1.09 9.1477e-41
3 0.66 1.1 9.1477e-41
3.04 0.66 1.11 9.1477e-41
3.08 0.66 1.11 9.1477e-41
3.12 0.66 1.1 9.1477e-41
3.17 0.66 1.11 9.1477e-41
3.21 0.66 1.11 9.1477e-41
3.25 0.66 1.11 9.1477e-41
3.29 0.66 1.11 9.1477e-41
3.33 0.66 1.11 9.1477e-41
3.37 0.66 1.11 9.1477e-41
3.41 0.66 1.11 9.1477e-41
3.45 0.66 1.09 9.1477e-41
3.49 0.66 1.09 9.1477e-41
3.53 0.66 1.1 9.1477e-41
3.57 0.66 1.09 9.1477e-41
3.61 0.66 1.09 9.1477e-41
3.66 0.66 1.11 9.1477e-41
3.69 0.66 1.1 9.1477e-41
3.73 0.66 1.1 9.1477e-41
3.78 0.66 1.11 9.1477e-41
3.81 0.66 1.09 9.1477e-41
3.85 0.66 1.09 9.1477e-41
3.89 0.66 1.09 9.1477e-41
3.94 0.66 1.1 9.1477e-41
3.98 0.66 1.1 9.1477e-41
4.01 0.66 1.09 9.1477e-41
4.05 0.66 1.09 9.1477e-41
4.09 0.66 1.08 9.1477e-41
4.18 0.66 1.08 9.1477e-41
4.22 0.66 1.08 9.1477e-41
4.26 0.66 1.07 9.1477e-41
4.3 0.66 1.06 9.1477e-41
4.34 0.66 1.06 9.1477e-41
4.38 0.66 1.06 9.1477e-41
4.42 0.66 1.05 9.1477e-41
4.46 0.66 1.04 9.1477e-41
4.51 0.66 0.99 9.1477e-41
2.9 0.68 1.05 9.1477e-41
2.95 0.68 1.1 9.1477e-41
3 0.68 1.1 9.1477e-41
3.04 0.68 1.11 9.1477e-41
3.08 0.68 1.1 9.1477e-41
3.12 0.68 1.11 9.1477e-41
3.17 0.68 1.11 9.1477e-41
3.21 0.68 1.12 9.1477e-41
3.25 0.68 1.11 9.1477e-41
3.29 0.68 1.1 9.1477e-41
3.33 0.68 1.1 9.1477e-41
3.36 0.68 1.04 9.1477e-41
3.4 0.68 1.05 9.1477e-41
3.44 0.68 1.03 9.1477e-41
3.48 0.68 1.02 9.1477e-41
3.52 0.68 1.03 9.1477e-41
3.56 0.68 1.02 9.1477e-41
3.6 0.68 1.01 9.1477e-41
3.65 0.68 1.03 9.1477e-41
3.69 0.68 1.02 9.1477e-41
3.73 0.68 1.03 9.1477e-41
3.77 0.68 1.03 9.1477e-41
3.81 0.68 1.01 9.1477e-41
3.85 0.68 1.03 9.1477e-41
3.89 0.68 1.07 9.1477e-41
3.94 0.68 1.1 9.1477e-41
3.97 0.68 1.08 9.1477e-41
4.01 0.68 1.09 9.1477e-41
4.05 0.68 1.09 9.1477e-41
4.09 0.68 1.09 9.1477e-41
4.18 0.68 1.09 9.1477e-41
4.22 0.68 1.08 9.1477e-41
4.26 0.68 1.07 9.1477e-41
4.3 0.68 1.07 9.1477e-41
4.34 0.68 1.08 9.1477e-41
4.38 0.68 1.07 9.1477e-41
4.42 0.68 1.06 9.1477e-41
4.46 0.68 1.05 9.1477e-41
4.51 0.68 0.99 9.1477e-41
4.56 0.68 0.83 9.1477e-41
2.9 0.7 1.07 9.1477e-41
2.96 0.7 1.1 9.1477e-41
3 0.7 1.11 9.1477e-41
3.04 0.7 1.11 9.1477e-41
3.08 0.7 1.12 9.1477e-41
3.12 0.7 1.11 9.1477e-41
3.17 0.7 1.11 9.1477e-41
3.2 0.7 1.06 9.1477e-41
3.23 0.7 1.03 9.1477e-41
3.28 0.7 1.03 9.1477e-41
3.32 0.7 1.03 9.1477e-41
3.36 0.7 1.04 9.1477e-41
3.4 0.7 1.05 9.1477e-41
3.44 0.7 1.04 9.1477e-41
3.49 0.7 1.04 9.1477e-41
3.53 0.7 1.04 9.1477e-41
3.57 0.7 1.04 9.1477e-41
3.61 0.7 1.03 9.1477e-41
3.65 0.7 1.04 9.1477e-41
3.69 0.7 1.05 9.1477e-41
3.73 0.7 1.04 9.1477e-41
3.77 0.7 1.08 9.1477e-41
3.81 0.7 1.08 3.57e-43
3.85 0.7 1.03 9.1477e-41
3.89 0.7 1.06 9.1477e-41
3.93 0.7 1.04 9.1477e-41
3.97 0.7 1.04 9.1477e-41
4.01 0.7 1.02 9.1477e-41
4.05 0.7 1.03 9.1477e-41
4.09 0.7 1.08 9.1477e-41
4.18 0.7 1.09 9.1477e-41
4.22 0.7 1.08 9.1477e-41
4.26 0.7 1.08 9.1477e-41
4.3 0.7 1.07 9.1477e-41
4.34 0.7 1.08 9.1477e-41
4.38 0.7 1.07 9.1477e-41
4.42 0.7 1.07 9.1477e-41
4.46 0.7 1.05 9.1477e-41
4.5 0.7 1.01 9.1477e-41
4.56 0.7 0.83 9.1477e-41
2.91 0.72 1.08 9.1477e-41
2.96 0.72 1.11 9.1477e-41
3 0.72 1.11 9.1477e-41
3.04 0.72 1.11 9.1477e-41
3.08 0.72 1.11 9.1477e-41
3.11 0.72 1.05 9.1477e-41
3.15 0.72 1.04 9.1477e-41
3.19 0.72 1.04 9.1477e-41
3.23 0.72 1.02 9.1477e-41
3.28 0.72 1.05 9.1477e-41
3.32 0.72 1.05 9.1477e-41
3.36 0.72 1.05 9.1477e-41
3.4 0.72 1.06 9.1477e-41
3.45 0.72 1.05 9.1477e-41
3.49 0.72 1.05 9.1477e-41
3.53 0.72 1.06 9.1477e-41
3.57 0.72 1.05 9.1477e-41
3.61 0.72 1.05 9.1477e-41
3.65 0.72 1.08 9.1477e-41
3.69 0.72 1.08 9.1477e-41
3.73 0.72 1.08 9.1477e-41
3.77 0.72 1.06 9.1477e-41
3.81 0.72 1.04 9.1477e-41
3.85 0.72 1.04 9.1477e-41
3.89 0.72 1.04 9.1477e-41
3.93 0.72 1.04 9.1477e-41
3.97 0.72 1.04 9.1477e-41
4.01 0.72 1.04 9.1477e-41
4.05 0.72 1.02 9.1477e-41
4.09 0.72 1.01 9.1477e-41
4.18 0.72 1.03 9.1477e-41
4.22 0.72 1.09 9.1477e-41
4.26 0.72 1.09 9.1477e-41
4.3 0.72 1.08 9.1477e-41
4.34 0.72 1.08 9.1477e-41
4.38 0.72 1.07 9.1477e-41
4.42 0.72 1.07 9.1477e-41
4.46 0.72 1.05 9.1477e-41
4.5 0.72 1.02 9.1477e-41
4.56 0.72 0.84 9.1477e-41
2.91 0.74 1.09 9.1477e-41
2.96 0.74 1.12 9.1477e-41
3 0.74 1.11 9.1477e-41
3.04 0.74 1.11 9.1477e-41
3.07 0.74 1.04 9.1477e-41
3.11 0.74 1.04 9.1477e-41
3.15 0.74 1.04 9.1477e-41
3.2 0.74 1.05 9.1477e-41
3.24 0.74 1.04 9.1477e-41
3.28 0.74 1.06 9.1477e-41
3.32 0.74 1.06 9.1477e-41
3.37 0.74 1.06 3.57e-43
3.4 0.74 1.06 3.57e-43
3.45 0.74 1.06 3.57e-43
3.49 0.74 1.06 3.57e-43
3.53 0.74 1.06 3.57e-43
3.57 0.74 1.06 3.57e-43
3.61 0.74 1.06 3.57e-43
3.65 0.74 1.06 3.57e-43
3.69 0.74 1.06 3.57e-43
3.73 0.74 1.06 3.57e-43
3.77 0.74 1.06 9.1477e-41
3.82 0.74 1.1 9.1477e-41
3.85 0.74 1.09 9.1477e-41
3.89 0.74 1.06 9.1477e-41
3.93 0.74 1.06 9.1477e-41
3.97 0.74 1.05 9.1477e-41
4.01 0.74 1.05 9.1477e-41
4.05 0.74 1.05 9.1477e-41
4.09 0.74 1.03 9.1477e-41
4.18 0.74 1.03 3.57e-43
4.22 0.74 1.09 9.1477e-41
4.26 0.74 1.04 9.1477e-41
4.3 0.74 1.08 9.1477e-41
4.34 0.74 1.08 9.1477e-41
4.38 0.74 1.09 9.1477e-41
4.42 0.74 1.07 9.1477e-41
4.46 0.74 1.07 9.1477e-41
4.5 0.74 1.04 9.1477e-41
4.56 0.74 0.84 9.1477e-41
2.91 0.76 1.11 9.1477e-41
2.96 0.76 1.11 9.1477e-41
3 0.76 1.11 9.1477e-41
3.03 0.76 1.07 9.1477e-41
3.07 0.76 1.04 9.1477e-41
3.11 0.76 1.04 9.1477e-41
3.15 0.76 1.04 3.57e-43
3.2 0.76 1.04 3.57e-43
3.24 0.76 1.04 3.57e-43
3.28 0.76 1.04 3.57e-43
3.32 0.76 1.06 9.1477e-41
3.37 0.76 1.06 3.57e-43
3.4 0.76 1.06 9.1477e-41
3.45 0.76 1.11 9.1477e-41
3.49 0.76 1.11 9.1477e-41
3.54 0.76 1.13 9.1477e-41
3.58 0.76 1.11 9.1477e-41
3.62 0.76 1.11 9.1477e-41
3.66 0.76 1.12 9.1477e-41
3.7 0.76 1.12 9.1477e-41
3.74 0.76 1.11 9.1477e-41
3.78 0.76 1.11 9.1477e-41
3.81 0.76 1.09 9.1477e-41
3.86 0.76 1.1 9.1477e-41
3.89 0.76 1.09 9.1477e-41
3.93 0.76 1.07 9.1477e-41
3.97 0.76 1.06 9.1477e-41
4.01 0.76 1.07 9.1477e-41
4.05 0.76 1.06 9.1477e-41
4.09 0.76 1.04 9.1477e-41
4.18 0.76 1.04 9.1477e-41
4.22 0.76 1.02 9.1477e-41
4.26 0.76 1.02 9.1477e-41
4.3 0.76 1.01 9.1477e-41
4.34 0.76 1.09 9.1477e-41
4.38 0.76 1.09 9.1477e-41
4.42 0.76 1.08 9.1477e-41
4.46 0.76 1.08 9.1477e-41
4.5 0.76 1.04 9.1477e-41
4.56 0.76 0.84 9.1477e-41
2.91 0.78 1.11 9.1477e-41
2.96 0.78 1.12 9.1477e-41
3 0.78 1.1 9.1477e-41
3.03 0.78 1.1 3.57e-43
3.07 0.78 1.1 3.57e-43
3.11 0.78 1.1 3.57e-43
3.15 0.78 1.1 3.57e-43
3.2 0.78 1.05 9.1477e-41
3.26 0.78 1.15 9.1477e-41
3.29 0.78 1.13 9.1477e-41
3.33 0.78 1.12 9.1477e-41
3.37 0.78 1.12 3.57e-43
3.4 0.78 1.06 9.1477e-41
3.46 0.78 1.06 3.57e-43
3.49 0.78 1.06 3.57e-43
3.54 0.78 1.06 3.57e-43
3.58 0.78 1.06 3.57e-43
3.62 0.78 1.06 3.57e-43
3.66 0.78 1.06 3.57e-43
3.7 0.78 1.06 3.57e-43
3.74 0.78 1.06 3.57e-43
3.78 0.78 1.06 3.57e-43
3.81 0.78 1.06 3.57e-43
3.86 0.78 1.06 3.57e-43
3.89 0.78 1.06 3.57e-43
3.93 0.78 1.06 3.57e-43
3.97 0.78 1.06 3.57e-43
4.01 0.78 1.06 3.57e-43
4.05 0.78 1.06 3.57e-43
4.09 0.78 1.06 3.57e-43
4.14 0.78 1.06 3.57e-43
4.18 0.78 1.06 3.57e-43
4.22 0.78 1.02 9.1477e-41
4.26 0.78 1.03 9.1477e-41
4.3 0.78 1.02 9.1477e-41
4.34 0.78 1.01 9.1477e-41
4.38 0.78 1.08 9.1477e-41
4.42 0.78 1.1 9.1477e-41
4.46 0.78 1.08 9.1477e-41
4.5 0.78 1.05 9.1477e-41
4.56 0.78 0.86 9.1477e-41
2.91 0.8 1.1 9.1477e-41
2.96 0.8 1.12 9.1477e-41
3 0.8 1.12 3.57e-43
3.03 0.8 1.12 3.57e-43
3.07 0.8 1.12 3.57e-43
3.11 0.8 1.04 9.1477e-41
3.17 0.8 1.15 9.1477e-41
3.22 0.8 1.15 9.1477e-41
3.25 0.8 1.15 3.57e-43
3.29 0.8 1.15 3.57e-43
3.33 0.8 1.15 3.57e-43
3.37 0.8 1.15 3.57e-43
3.4 0.8 1.15 3.57e-43
3.46 0.8 1.15 3.57e-43
3.49 0.8 1.15 3.57e-43
3.54 0.8 1.15 3.57e-43
3.58 0.8 1.15 3.57e-43
3.62 0.8 1.15 3.57e-43
3.66 0.8 1.15 3.57e-43
3.7 0.8 1.15 3.57e-43
3.74 0.8 1.15 3.57e-43
3.78 0.8 1.15 3.57e-43
3.81 0.8 1.15 3.57e-43
3.86 0.8 1.15 3.57e-43
3.89 0.8 1.15 3.57e-43
3.93 0.8 1.15 3.57e-43
3.97 0.8 1.15 3.57e-43
4.01 0.8 1.15 3.57e-43
4.05 0.8 1.15 3.57e-43
4.09 0.8 1.15 3.57e-43
4.14 0.8 1.15 3.57e-43
4.18 0.8 1.15 3.57e-43
4.22 0.8 1.15 3.57e-43
4.26 0.8 1.15 3.57e-43
4.3 0.8 1.02 9.1477e-41
4.34 0.8 1.04 9.1477e-41
4.38 0.8 1.04 9.1477e-41
4.42 0.8 1.08 9.1477e-41
4.46 0.8 1.08 9.1477e-41
4.5 0.8 1.07 9.1477e-41
4.56 0.8 0.88 9.1477e-41
2.92 0.82 1.12 9.1477e-41
2.97 0.82 1.15 9.1477e-41
3 0.82 1.15 3.57e-43
3.03 0.82 1.06 9.1477e-41
3.09 0.82 1.14 9.1477e-41
3.13 0.82 1.15 9.1477e-41
3.17 0.82 1.15 3.57e-43
3.22 0.82 1.15 3.57e-43
3.25 0.82 1.15 3.57e-43
3.29 0.82 1.15 3.57e-43
3.33 0.82 1.15 3.57e-43
3.37 0.82 1.15 3.57e-43
3.4 0.82 1.15 3.57e-43
3.46 0.82 1.15 3.57e-43
3.49 0.82 1.15 3.57e-43
3.54 0.82 1.15 3.57e-43
3.58 0.82 1.15 3.57e-43
3.62 0.82 1.15 3.57e-43
3.66 0.82 1.15 3.57e-43
3.7 0.82 1.15 3.57e-43
3.74 0.82 1.15 3.57e-43
3.78 0.82 1.15 3.57e-43
3.81 0.82 1.15 3.57e-43
3.86 0.82 1.15 3.57e-43
3.89 0.82 1.15 3.57e-43
3.93 0.82 1.15 3.57e-43
3.97 0.82 1.15 3.57e-43
4.01 0.82 1.15 3.57e-43
4.05 0.82 1.15 3.57e-43
4.09 0.82 1.15 3.57e-43
4.14 0.82 1.15 3.57e-43
4.18 0.82 1.15 3.57e-43
4.22 0.82 1.15 3.57e-43
4.26 0.82 1.15 3.57e-43
4.3 0.82 1.15 3.57e-43
4.34 0.82 1.04 9.1477e-41
4.38 0.82 1.04 9.1477e-41
4.42 0.82 1.09 9.1477e-41
4.46 0.82 1.1 9.1477e-41
4.5 0.82 1.07 9.1477e-41
4.55 0.82 0.93 9.1477e-41
2.92 0.84 1.14 9.1477e-41
2.97 0.84 1.15 9.1477e-41
3 0.84 1.13 9.1477e-41
3.05 0.84 1.14 9.1477e-41
3.09 0.84 1.14 3.57e-43
3.13 0.84 1.14 3.57e-43
3.17 0.84 1.14 3.57e-43
3.22 0.84 1.14 3.57e-43
3.25 0.84 1.14 3.57e-43
3.29 0.84 1.14 3.57e-43
3.33 0.84 1.14 3.57e-43
3.37 0.84 1.14 3.57e-43
3.4 0.84 1.14 3.57e-43
3.46 0.84 1.14 3.57e-43
3.49 0.84 1.14 3.57e-43
3.54 0.84 1.14 3.57e-43
3.58 0.84 1.14 3.57e-43
3.62 0.84 1.14 3.57e-43
3.66 0.84 1.14 3.57e-43
3.7 0.84 1.14 3.57e-43
3.74 0.84 1.14 3.57e-43
3.78 0.84 1.14 3.57e-43
3.81 0.84 1.14 3.57e-43
3.86 0.84 1.14 3.57e-43
3.89 0.84 1.14 3.57e-43
3.93 0.84 1.14 3.57e-43
3.97 0.84 1.14 3.57e-43
4.01 0.84 1.14 3.57e-43
4.05 0.84 1.14 3.57e-43
4.09 0.84 1.14 3.57e-43
4.14 0.84 1.14 3.57e-43
4.18 0.84 1.14 3.57e-43
4.22 0.84 1.14 3.57e-43
4.26 0.84 1.14 3.57e-43
4.3 0.84 1.14 3.57e-43
4.34 0.84 1.04 9.1477e-41
4.38 0.84 1.08 9.1477e-41
4.42 0.84 1.08 9.1477e-41
4.45 0.84 1.12 9.1477e-41
4.5 0.84 1.09 9.1477e-41
2.93 0.86 1.15 9.1477e-41
2.97 0.86 1.16 9.1477e-41
3.01 0.86 1.16 3.57e-43
3.05 0.86 1.16 3.57e-43
3.09 0.86 1.16 3.57e-43
3.13 0.86 1.16 3.57e-43
3.17 0.86 1.16 3.57e-43
3.22 0.86 1.16 3.57e-43
3.25 0.86 1.16 3.57e-43
3.29 0.86 1.16 3.57e-43
3.33 0.86 1.16 3.57e-43
3.37 0.86 1.16 3.57e-43
3.4 0.86 1.16 3.57e-43
3.46 0.86 1.16 3.57e-43
3.49 0.86 1.16 3.57e-43
3.54 0.86 1.16 3.57e-43
3.58 0.86 1.16 3.57e-43
3.62 0.86 1.16 3.57e-43
3.66 0.86 1.16 3.57e-43
3.7 0.86 1.16 3.57e-43
3.74 0.86 1.16 3.57e-43
3.78 0.86 1.16 3.57e-43
3.81 0.86 1.16 3.57e-43
3.86 0.86 1.16 3.57e-43
3.89 0.86 1.16 3.57e-43
3.93 0.86 1.16 3.57e-43
3.97 0.86 1.16 3.57e-43
4.01 0.86 1.16 3.57e-43
4.05 0.86 1.16 3.57e-43
4.09 0.86 1.16 3.57e-43
4.14 0.86 1.16 3.57e-43
4.18 0.86 1.16 3.57e-43
4.22 0.86 1.16 3.57e-43
4.26 0.86 1.16 3.57e-43
4.3 0.86 1.16 3.57e-43
4.34 0.86 1.04 9.1477e-41
4.38 0.86 1.1 9.1477e-41
4.42 0.86 1.09 9.1477e-41
4.45 0.86 1.13 9.1477e-41
4.5 0.86 1.09 9.1477e-41
2.94 0.88 1.19 9.1477e-41
2.97 0.88 1.19 3.57e-43
3.01 0.88 1.19 3.57e-43
3.05 0.88 1.19 3.57e-43
3.09 0.88 1.19 3.57e-43
3.13 0.88 1.19 3.57e-43
3.17 0.88 1.19 3.57e-43
3.22 0.88 1.19 3.57e-43
3.25 0.88 1.19 3.57e-43
3.29 0.88 1.19 3.57e-43
3.33 0.88 1.19 3.57e-43
3.37 0.88 1.19 3.57e-43
3.4 0.88 1.19 3.57e-43
3.46 0.88 1.19 3.57e-43
3.49 0.88 1.19 3.57e-43
3.54 0.88 1.19 3.57e-43
3.58 0.88 1.19 3.57e-43
3.62 0.88 1.19 3.57e-43
3.66 0.88 1.19 3.57e-43
3.7 0.88 1.19 3.57e-43
3.74 0.88 1.19 3.57e-43
3.78 0.88 1.19 3.57e-43
3.81 0.88 1.09 9.1477e-41
3.86 0.88 1.23 9.1477e-41
3.9 0.88 1.23 3.57e-43
3.93 0.88 1.23 3.57e-43
3.97 0.88 1.23 3.57e-43
4.01 0.88 1.23 3.57e-43
4.05 0.88 1.23 3.57e-43
4.09 0.88 1.23 3.57e-43
4.14 0.88 1.23 3.57e-43
4.18 0.88 1.23 3.57e-43
4.22 0.88 1.23 3.57e-43
4.26 0.88 1.23 3.57e-43
4.3 0.88 1.02 9.1477e-41
4.33 0.88 1.13 9.1477e-41
4.37 0.88 1.12 9.1477e-41
4.41 0.88 1.12 9.1477e-41
4.45 0.88 1.14 9.1477e-41
4.5 0.88 1.1 9.1477e-41
2.94 0.9 1.21 9.1477e-41
2.98 0.9 1.21 3.57e-43
3.01 0.9 1.21 3.57e-43
3.05 0.9 1.21 3.57e-43
3.09 0.9 1.21 3.57e-43
3.13 0.9 1.21 3.57e-43
3.17 0.9 1.21 3.57e-43
3.22 0.9 1.21 3.57e-43
3.25 0.9 1.21 3.57e-43
3.29 0.9 1.21 3.57e-43
3.33 0.9 1.21 3.57e-43
3.37 0.9 1.21 3.57e-43
3.4 0.9 1.21 3.57e-43
3.46 0.9 1.21 3.57e-43
3.49 0.9 1.21 3.57e-43
3.54 0.9 1.21 3.57e-43
3.58 0.9 1.21 3.57e-43
3.62 0.9 1.21 3.57e-43
3.66 0.9 1.21 3.57e-43
3.7 0.9 1.21 3.57e-43
3.74 0.9 1.21 3.57e-43
3.78 0.9 1.21 3.57e-43
3.81 0.9 1.09 9.1477e-41
3.86 0.9 1.23 9.1477e-41
3.9 0.9 1.23 3.57e-43
3.93 0.9 1.23 3.57e-43
3.97 0.9 1.23 3.57e-43
4.01 0.9 1.23 3.57e-43
4.05 0.9 1.23 3.57e-43
4.09 0.9 1.23 3.57e-43
4.14 0.9 1.23 3.57e-43
4.18 0.9 1.23 3.57e-43
4.22 0.9 1.23 3.57e-43
4.26 0.9 1.23 3.57e-43
4.3 0.9 1.02 9.1477e-41
4.33 0.9 1.13 9.1477e-41
4.37 0.9 1.14 9.1477e-41
4.41 0.9 1.14 9.1477e-41
4.45 0.9 1.16 9.1477e-41
4.5 0.9 1.11 9.1477e-41
4.57 0.9 0.8 9.1477e-41
2.94 0.92 1.21 9.1477e-41
2.99 0.92 1.23 9.1477e-41
3.03 0.92 1.23 3.57e-43
3.05 0.92 1.23 3.57e-43
3.09 0.92 1.23 3.57e-43
3.13 0.92 1.23 3.57e-43
3.17 0.92 1.23 3.57e-43
3.22 0.92 1.23 3.57e-43
3.25 0.92 1.23 3.57e-43
3.29 0.92 1.23 3.57e-43
3.33 0.92 1.23 3.57e-43
3.37 0.92 1.23 3.57e-43
3.4 0.92 1.23 3.57e-43
3.46 0.92 1.23 3.57e-43
3.49 0.92 1.23 3.57e-43
3.54 0.92 1.23 3.57e-43
3.58 0.92 1.23 3.57e-43
3.62 0.92 1.23 3.57e-43
3.66 0.92 1.23 3.57e-43
3.7 0.92 1.23 3.57e-43
3.74 0.92 1.23 3.57e-43
3.78 0.92 1.23 3.57e-43
3.81 0.92 1.23 3.57e-43
3.86 0.92 1.23 3.57e-43
3.9 0.92 1.23 3.57e-43
3.93 0.92 1.23 3.57e-43
3.97 0.92 1.23 3.57e-43
4.01 0.92 1.23 3.57e-43
4.05 0.92 1.23 3.57e-43
4.09 0.92 1.23 3.57e-43
4.14 0.92 1.23 3.57e-43
4.18 0.92 1.23 3.57e-43
4.22 0.92 1.23 3.57e-43
4.26 0.92 1.23 3.57e-43
4.3 0.92 1.02 9.1477e-41
4.33 0.92 1.16 9.1477e-41
4.37 0.92 1.17 9.1477e-41
4.41 0.92 1.17 9.1477e-41
4.45 0.92 1.17 9.1477e-41
4.49 0.92 1.15 9.1477e-41
4.57 0.92 0.8 9.1477e-41
2.95 0.94 1.26 9.1477e-41
2.99 0.94 1.26 3.57e-43
3.03 0.94 1.26 3.57e-43
3.05 0.94 1.26 3.57e-43
3.09 0.94 1.26 3.57e-43
3.13 0.94 1.26 3.57e-43
3.17 0.94 1.26 3.57e-43
3.22 0.94 1.26 3.57e-43
3.25 0.94 1.26 3.57e-43
3.29 0.94 1.26 3.57e-43
3.33 0.94 1.26 3.57e-43
3.37 0.94 1.26 3.57e-43
3.4 0.94 1.26 3.57e-43
3.46 0.94 1.26 3.57e-43
3.49 0.94 1.26 3.57e-43
3.54 0.94 1.26 3.57e-43
3.58 0.94 1.26 3.57e-43
3.62 0.94 1.26 3.57e-43
3.66 0.94 1.26 3.57e-43
3.7 0.94 1.26 3.57e-43
3.74 0.94 1.26 3.57e-43
3.78 0.94 1.26 3.57e-43
3.81 0.94 1.26 3.57e-43
3.86 0.94 1.26 3.57e-43
3.9 0.94 1.26 3.57e-43
3.93 0.94 1.26 3.57e-43
3.97 0.94 1.26 3.57e-43
4.01 0.94 1.26 3.57e-43
4.05 0.94 1.06 9.1477e-41
4.09 0.94 1.06 3.57e-43
4.14 0.94 1.06 3.57e-43
4.18 0.94 1.06 3.57e-43
4.22 0.94 1.06 3.57e-43
4.26 0.94 1.06 3.57e-43
4.3 0.94 1.02 9.1477e-41
4.33 0.94 1.18 9.1477e-41
4.37 0.94 1.19 9.1477e-41
4.41 0.94 1.19 9.1477e-41
4.45 0.94 1.2 9.1477e-41
4.49 0.94 1.15 9.1477e-41
4.56 0.94 0.85 9.1477e-41
2.96 0.96 1.3 9.1477e-41
3 0.96 1.3 3.57e-43
3.03 0.96 1.3 3.57e-43
3.05 0.96 1.3 3.57e-43
3.09 0.96 1.3 3.57e-43
3.13 0.96 1.3 3.57e-43
3.17 0.96 1.3 3.57e-43
3.22 0.96 1.3 3.57e-43
3.25 0.96 1.3 3.57e-43
3.29 0.96 1.3 3.57e-43
3.33 0.96 1.3 3.57e-43
3.37 0.96 1.3 3.57e-43
3.4 0.96 1.3 3.57e-43
3.46 0.96 1.3 3.57e-43
3.49 0.96 1.3 3.57e-43
3.54 0.96 1.3 3.57e-43
3.58 0.96 1.3 3.57e-43
3.62 0.96 1.3 3.57e-43
3.66 0.96 1.3 3.57e-43
3.7 0.96 1.3 3.57e-43
3.74 0.96 1.3 3.57e-43
3.78 0.96 1.3 3.57e-43
3.81 0.96 1.3 3.57e-43
3.86 0.96 1.3 3.57e-43
3.9 0.96 1.3 3.57e-43
3.93 0.96 1.3 3.57e-43
3.97 0.96 1.06 9.1477e-41
4.02 0.96 1.06 3.57e-43
4.05 0.96 1.06 3.57e-43
4.09 0.96 1.06 3.57e-43
4.14 0.96 1.06 3.57e-43
4.18 0.96 1.06 3.57e-43
4.22 0.96 1.06 3.57e-43
4.26 0.96 1.06 3.57e-43
4.3 0.96 1.06 3.57e-43
4.33 0.96 1.06 3.57e-43
4.37 0.96 1.19 9.1477e-41
4.41 0.96 1.21 9.1477e-41
4.45 0.96 1.22 9.1477e-41
4.49 0.96 1.18 9.1477e-41
4.56 0.96 0.85 9.1477e-41
2.97 0.98 1.31 9.1477e-41
3 0.98 1.31 3.57e-43
3.03 0.98 1.31 3.57e-43
3.05 0.98 1.31 3.57e-43
3.09 0.98 1.31 3.57e-43
3.13 0.98 1.31 3.57e-43
3.17 0.98 1.31 3.57e-43
3.22 0.98 1.31 3.57e-43
3.25 0.98 1.31 3.57e-43
3.29 0.98 1.31 3.57e-43
3.33 0.98 1.31 3.57e-43
3.37 0.98 1.31 3.57e-43
3.4 0.98 1.31 3.57e-43
3.46 0.98 1.31 3.57e-43
3.49 0.98 1.31 3.57e-43
3.54 0.98 1.31 3.57e-43
3.58 0.98 1.31 3.57e-43
3.62 0.98 1.31 3.57e-43
3.66 0.98 1.31 3.57e-43
3.7 0.98 1.31 3.57e-43
3.74 0.98 1.31 3.57e-43
3.78 0.98 1.31 3.57e-43
3.81 0.98 1.31 3.57e-43
3.86 0.98 1.31 3.57e-43
3.9 0.98 1.31 3.57e-43
3.93 0.98 1.31 3.57e-43
3.97 0.98 1.31 3.57e-43
4.02 0.98 1.31 3.57e-43
4.05 0.98 1.31 3.57e-43
4.09 0.98 1.31 3.57e-43
4.14 0.98 1.31 3.57e-43
4.18 0.98 1.31 3.57e-43
4.22 0.98 1.31 3.57e-43
4.26 0.98 1.31 3.57e-43
4.3 0.98 1.31 3.57e-43
4.33 0.98 1.18 9.1477e-41
4.37 0.98 1.24 9.1477e-41
4.41 0.98 1.24 9.1477e-41
4.44 0.98 1.24 9.1477e-41
4.49 0.98 1.18 9.1477e-41
4.56 0.98 0.85 9.1477e-41
2.97 1 1.33 9.1477e-41
3.01 1 1.32 9.1477e-41
3.06 1 1.35 9.1477e-41
3.09 1 1.35 3.57e-43
3.09 1 1.35 3.57e-43
3.13 1 1.35 3.57e-43
3.17 1 1.35 3.57e-43
3.22 1 1.35 3.57e-43
3.25 1 1.35 3.57e-43
3.29 1 1.35 3.57e-43
3.33 1 1.35 3.57e-43
3.37 1 1.35 3.57e-43
3.4 1 1.35 3.57e-43
3.46 1 1.35 3.57e-43
3.49 1 1.35 3.57e-43
3.54 1 1.35 3.57e-43
3.58 1 1.35 3.57e-43
3.62 1 1.11 9.1477e-41
3.67 1 1.23 9.1477e-41
3.7 1 1.21 9.1477e-41
3.74 1 1.21 3.57e-43
3.78 1 1.21 3.57e-43
3.81 1 1.21 3.57e-43
3.86 1 1.21 3.57e-43
3.9 1 1.23 9.1477e-41
3.94 1 1.23 3.57e-43
3.97 1 1.23 3.57e-43
4.02 1 1.23 3.57e-43
4.05 1 1.23 3.57e-43
4.09 1 1.23 3.57e-43
4.14 1 1.23 3.57e-43
4.18 1 1.23 3.57e-43
4.22 1 1.23 3.57e-43
4.26 1 1.23 3.57e-43
4.3 1 1.02 9.1477e-41
4.33 1 1.21 9.1477e-41
4.37 1 1.25 9.1477e-41
4.4 1 1.27 9.1477e-41
4.44 1 1.27 9.1477e-41
4.49 1 1.21 9.1477e-41
4.56 1 0.86 9.1477e-41
2.98 1.02 1.36 9.1477e-41
3.01 1.02 1.36 3.57e-43
3.06 1.02 1.35 9.1477e-41
3.09 1.02 1.35 3.57e-43
3.09 1.02 1.35 3.57e-43
3.13 1.02 1.35 3.57e-43
3.17 1.02 1.35 3.57e-43
3.22 1.02 1.35 3.57e-43
3.25 1.02 1.35 3.57e-43
3.29 1.02 1.35 3.57e-43
3.33 1.02 1.35 3.57e-43
3.37 1.02 1.35 3.57e-43
3.4 1.02 1.35 3.57e-43
3.46 1.02 1.35 3.57e-43
3.49 1.02 1.35 3.57e-43
3.54 1.02 1.35 3.57e-43
3.58 1.02 1.35 3.57e-43
3.62 1.02 1.35 3.57e-43
3.67 1.02 1.35 3.57e-43
3.7 1.02 1.35 3.57e-43
3.74 1.02 1.35 3.57e-43
3.78 1.02 1.35 3.57e-43
3.81 1.02 1.35 3.57e-43
3.86 1.02 1.35 3.57e-43
3.9 1.02 1.35 3.57e-43
3.94 1.02 1.35 3.57e-43
3.97 1.02 1.35 3.57e-43
4.02 1.02 1.35 3.57e-43
4.05 1.02 1.35 3.57e-43
4.09 1.02 1.35 3.57e-43
4.14 1.02 1.35 3.57e-43
4.18 1.02 1.35 3.57e-43
4.22 1.02 1.35 3.57e-43
4.26 1.02 1.35 3.57e-43
4.3 1.02 1.35 3.57e-43
4.33 1.02 1.35 3.57e-43
4.37 1.02 1.25 9.1477e-41
4.4 1.02 1.29 9.1477e-41
4.44 1.02 1.29 9.1477e-41
4.48 1.02 1.22 9.1477e-41
4.56 1.02 0.86 9.1477e-41
2.98 1.04 1.37 9.1477e-41
3.02 1.04 1.37 9.1477e-41
3.02 1.04 1.18 9.1477e-41
3.06 1.04 1.17 9.1477e-41
3.1 1.04 1.16 9.1477e-41
3.14 1.04 1.17 9.1477e-41
3.18 1.04 1.18 9.1477e-41
3.22 1.04 1.18 3.57e-43
3.25 1.04 1.18 3.57e-43
3.29 1.04 1.18 3.57e-43
3.33 1.04 1.18 3.57e-43
3.37 1.04 1.18 3.57e-43
3.4 1.04 1.18 3.57e-43
3.46 1.04 1.18 3.57e-43
3.49 1.04 1.18 3.57e-43
3.54 1.04 1.18 3.57e-43
3.58 1.04 1.18 3.57e-43
3.62 1.04 1.18 3.57e-43
3.67 1.04 1.18 3.57e-43
3.7 1.04 1.18 3.57e-43
3.74 1.04 1.18 3.57e-43
3.78 1.04 1.18 3.57e-43
3.81 1.04 1.18 3.57e-43
3.86 1.04 1.18 3.57e-43
3.9 1.04 1.18 3.57e-43
3.94 1.04 1.18 3.57e-43
3.97 1.04 1.18 3.57e-43
4.02 1.04 1.18 3.57e-43
4.05 1.04 1.18 3.57e-43
4.09 1.04 1.18 3.57e-43
4.14 1.04 1.18 3.57e-43
4.18 1.04 1.18 3.57e-43
4.22 1.04 1.18 3.57e-43
4.26 1.04 1.18 3.57e-43
4.3 1.04 1.18 3.57e-43
4.33 1.04 1.18 3.57e-43
4.37 1.04 1.25 9.1477e-41
4.4 1.04 1.31 9.1477e-41
4.44 1.04 1.32 9.1477e-41
4.48 1.04 1.23 9.1477e-41
4.56 1.04 0.88 9.1477e-41
2.82 1.06 1.09 9.1477e-41
2.95 1.06 1.39 9.1477e-41
2.99 1.06 1.39 9.1477e-41
3.02 1.06 1.37 9.1477e-41
3.02 1.06 1.18 9.1477e-41
3.06 1.06 1.17 9.1477e-41
3.1 1.06 1.16 9.1477e-41
3.14 1.06 1.18 9.1477e-41
3.18 1.06 1.16 9.1477e-41
3.22 1.06 1.16 9.1477e-41
3.26 1.06 1.16 9.1477e-41
3.3 1.06 1.16 9.1477e-41
3.34 1.06 1.17 9.1477e-41
3.38 1.06 1.16 9.1477e-41
3.42 1.06 1.16 9.1477e-41
3.46 1.06 1.17 9.1477e-41
3.5 1.06 1.17 3.57e-43
3.54 1.06 1.17 3.57e-43
3.58 1.06 1.11 9.1477e-41
3.62 1.06 1.2 9.1477e-41
3.66 1.06 1.2 9.1477e-41
3.7 1.06 1.19 9.1477e-41
3.74 1.06 1.18 9.1477e-41
3.78 1.06 1.18 3.57e-43
3.81 1.06 1.18 3.57e-43
3.86 1.06 1.23 9.1477e-41
3.9 1.06 1.16 9.1477e-41
3.94 1.06 1.16 9.1477e-41
3.98 1.06 1.18 9.1477e-41
4.02 1.06 1.19 9.1477e-41
4.06 1.06 1.19 9.1477e-41
4.09 1.06 1.18 9.1477e-41
4.17 1.06 1.17 9.1477e-41
4.21 1.06 1.15 9.1477e-41
4.25 1.06 1.15 9.1477e-41
4.29 1.06 1.13 9.1477e-41
4.33 1.06 1.12 9.1477e-41
4.37 1.06 1.2 9.1477e-41
4.4 1.06 1.34 9.1477e-41
4.44 1.06 1.34 9.1477e-41
4.48 1.06 1.25 9.1477e-41
4.56 1.06 0.88 9.1477e-41
2.84 1.08 1.14 9.1477e-41
2.95 1.08 1.4 9.1477e-41
3 1.08 1.42 9.1477e-41
3.03 1.08 1.42 3.57e-43
3.02 1.08 1.18 9.1477e-41
3.06 1.08 1.17 9.1477e-41
3.09 1.08 1.15 9.1477e-41
3.14 1.08 1.17 9.1477e-41
3.18 1.08 1.18 9.1477e-41
3.22 1.08 1.17 9.1477e-41
3.26 1.08 1.17 9.1477e-41
3.3 1.08 1.16 9.1477e-41
3.34 1.08 1.17 9.1477e-41
3.38 1.08 1.16 9.1477e-41
3.42 1.08 1.17 9.1477e-41
3.46 1.08 1.15 9.1477e-41
3.5 1.08 1.15 3.57e-43
3.54 1.08 1.15 3.57e-43
3.58 1.08 1.11 9.1477e-41
3.62 1.08 1.2 9.1477e-41
3.66 1.08 1.21 9.1477e-41
3.7 1.08 1.2 9.1477e-41
3.74 1.08 1.19 9.1477e-41
3.78 1.08 1.19 3.57e-43
3.81 1.08 1.19 3.57e-43
3.86 1.08 1.23 9.1477e-41
3.9 1.08 1.16 9.1477e-41
3.94 1.08 1.16 9.1477e-41
3.98 1.08 1.17 9.1477e-41
4.02 1.08 1.18 9.1477e-41
4.06 1.08 1.18 9.1477e-41
4.09 1.08 1.18 9.1477e-41
4.17 1.08 1.17 9.1477e-41
4.21 1.08 1.16 9.1477e-41
4.25 1.08 1.13 9.1477e-41
4.29 1.08 1.13 9.1477e-41
4.33 1.08 1.12 9.1477e-41
4.37 1.08 1.18 9.1477e-41
4.4 1.08 1.37 9.1477e-41
4.43 1.08 1.36 9.1477e-41
4.47 1.08 1.34 9.1477e-41
4.55 1.08 0.99 9.1477e-41
2.74 1.1 1.25 9.1477e-41
2.79 1.1 1.25 3.57e-43
2.96 1.1 1.42 9.1477e-41
3 1.1 1.43 9.1477e-41
3.03 1.1 1.43 3.57e-43
3.02 1.1 1.43 3.57e-43
3.06 1.1 1.17 9.1477e-41
3.09 1.1 1.17 3.57e-43
3.14 1.1 1.17 3.57e-43
3.18 1.1 1.17 3.57e-43
3.22 1.1 1.17 3.57e-43
3.26 1.1 1.17 9.1477e-41
3.3 1.1 1.17 9.1477e-41
3.34 1.1 1.17 9.1477e-41
3.38 1.1 1.15 9.1477e-41
3.42 1.1 1.16 9.1477e-41
3.46 1.1 1.16 9.1477e-41
3.5 1.1 1.16 3.57e-43
3.54 1.1 1.16 3.57e-43
3.58 1.1 1.11 9.1477e-41
3.62 1.1 1.2 9.1477e-41
3.66 1.1 1.19 9.1477e-41
3.7 1.1 1.18 9.1477e-41
3.74 1.1 1.2 9.1477e-41
3.78 1.1 1.2 9.1477e-41
3.82 1.1 1.2 3.57e-43
3.86 1.1 1.23 9.1477e-41
3.9 1.1 1.17 9.1477e-41
3.94 1.1 1.17 9.1477e-41
3.98 1.1 1.17 9.1477e-41
4.02 1.1 1.19 9.1477e-41
4.06 1.1 1.18 9.1477e-41
4.09 1.1 1.18 9.1477e-41
4.17 1.1 1.17 9.1477e-41
4.21 1.1 1.16 9.1477e-41
4.25 1.1 1.13 9.1477e-41
4.29 1.1 1.12 9.1477e-41
4.33 1.1 1.12 3.57e-43
4.37 1.1 1.18 9.1477e-41
4.39 1.1 1.4 9.1477e-41
4.43 1.1 1.38 9.1477e-41
4.47 1.1 1.34 9.1477e-41
4.54 1.1 1.11 9.1477e-41
4.58 1.1 1.1 9.1477e-41
2.74 1.12 1.26 9.1477e-41
2.78 1.12 1.25 9.1477e-41
2.78 1.12 1.08 9.1477e-41
2.94 1.12 1.35 9.1477e-41
3.01 1.12 1.46 9.1477e-41
3.04 1.12 1.46 3.57e-43
3.02 1.12 1.46 3.57e-43
3.06 1.12 1.46 3.57e-43
3.09 1.12 1.46 3.57e-43
3.14 1.12 1.46 3.57e-43
3.18 1.12 1.46 3.57e-43
3.22 1.12 1.46 3.57e-43
3.26 1.12 1.46 3.57e-43
3.3 1.12 1.46 3.57e-43
3.34 1.12 1.46 3.57e-43
3.38 1.12 1.46 3.57e-43
3.42 1.12 1.46 3.57e-43
3.46 1.12 1.46 3.57e-43
3.5 1.12 1.46 3.57e-43
3.54 1.12 1.46 3.57e-43
3.58 1.12 1.46 3.57e-43
3.62 1.12 1.46 3.57e-43
3.66 1.12 1.46 3.57e-43
3.7 1.12 1.46 3.57e-43
3.74 1.12 1.46 3.57e-43
3.78 1.12 1.46 3.57e-43
3.82 1.12 1.46 3.57e-43
3.86 1.12 1.46 3.57e-43
3.9 1.12 1.17 9.1477e-41
3.94 1.12 1.15 9.1477e-41
3.98 1.12 1.18 9.1477e-41
4.02 1.12 1.19 9.1477e-41
4.06 1.12 1.19 9.1477e-41
4.09 1.12 1.19 9.1477e-41
4.17 1.12 1.15 9.1477e-41
4.22 1.12 1.15 3.57e-43
4.25 1.12 1.13 9.1477e-41
4.29 1.12 1.11 9.1477e-41
4.33 1.12 1.11 3.57e-43
4.37 1.12 1.18 9.1477e-41
4.39 1.12 1.42 9.1477e-41
4.43 1.12 1.4 9.1477e-41
4.47 1.12 1.34 9.1477e-41
4.54 1.12 1.09 9.1477e-41
4.58 1.12 1.09 3.57e-43
4.75 1.12 1.09 3.57e-43
2.71 1.14 1.15 9.1477e-41
2.94 1.14 1.37 9.1477e-41
3.01 1.14 1.48 9.1477e-41
3.03 1.14 1.41 9.1477e-41
2.99 1.14 1.41 3.57e-43
3.06 1.14 1.41 3.57e-43
3.09 1.14 1.41 3.57e-43
3.14 1.14 1.41 3.57e-43
3.18 1.14 1.41 3.57e-43
3.22 1.14 1.41 3.57e-43
3.26 1.14 1.41 3.57e-43
3.3 1.14 1.41 3.57e-43
3.34 1.14 1.41 3.57e-43
3.38 1.14 1.41 3.57e-43
3.42 1.14 1.41 3.57e-43
3.46 1.14 1.41 3.57e-43
3.5 1.14 1.41 3.57e-43
3.54 1.14 1.41 3.57e-43
3.58 1.14 1.41 3.57e-43
3.62 1.14 1.41 3.57e-43
3.66 1.14 1.41 3.57e-43
3.7 1.14 1.41 3.57e-43
3.74 1.14 1.41 3.57e-43
3.78 1.14 1.41 3.57e-43
3.82 1.14 1.41 3.57e-43
3.86 1.14 1.23 9.1477e-41
3.89 1.14 1.23 3.57e-43
3.94 1.14 1.23 3.57e-43
3.98 1.14 1.23 3.57e-43
4.02 1.14 1.23 3.57e-43
4.06 1.14 1.23 3.57e-43
4.09 1.14 1.23 3.57e-43
4.13 1.14 1.23 3.57e-43
4.17 1.14 1.15 9.1477e-41
4.22 1.14 1.15 3.57e-43
4.25 1.14 1.15 3.57e-43
4.29 1.14 1.15 3.57e-43
4.33 1.14 1.15 3.57e-43
4.37 1.14 1.18 9.1477e-41
4.39 1.14 1.44 9.1477e-41
4.43 1.14 1.42 9.1477e-41
4.48 1.14 1.31 9.1477e-41
4.56 1.14 0.91 9.1477e-41
4.6 1.14 1.22 9.1477e-41
4.64 1.14 1.21 9.1477e-41
4.69 1.14 1.14 9.1477e-41
2.97 1.16 1.49 9.1477e-41
3.02 1.16 1.49 3.57e-43
3.03 1.16 1.41 9.1477e-41
2.99 1.16 1.41 3.57e-43
3.06 1.16 1.41 3.57e-43
3.09 1.16 1.41 3.57e-43
3.14 1.16 1.17 9.1477e-41
3.25 1.16 1.52 9.1477e-41
3.06 1.16 1.52 3.57e-43
3.26 1.16 1.52 3.57e-43
3.3 1.16 1.52 3.57e-43
3.34 1.16 1.52 3.57e-43
3.38 1.16 1.52 3.57e-43
3.42 1.16 1.52 3.57e-43
3.46 1.16 1.52 3.57e-43
3.5 1.16 1.52 3.57e-43
3.54 1.16 1.52 3.57e-43
3.58 1.16 1.52 3.57e-43
3.62 1.16 1.52 3.57e-43
3.66 1.16 1.52 3.57e-43
3.7 1.16 1.18 9.1477e-41
3.72 1.16 1.18 3.57e-43
3.78 1.16 1.18 3.57e-43
3.82 1.16 1.18 3.57e-43
3.86 1.16 1.18 3.57e-43
3.89 1.16 1.18 3.57e-43
3.94 1.16 1.18 3.57e-43
3.98 1.16 1.18 3.57e-43
4.02 1.16 1.18 3.57e-43
4.06 1.16 1.19 9.1477e-41
4.09 1.16 1.24 9.1477e-41
4.17 1.16 1.24 3.57e-43
4.22 1.16 1.24 3.57e-43
4.25 1.16 1.24 3.57e-43
4.29 1.16 1.24 3.57e-43
4.33 1.16 1.24 3.57e-43
4.37 1.16 1.18 9.1477e-41
4.39 1.16 1.47 9.1477e-41
4.43 1.16 1.44 9.1477e-41
4.47 1.16 1.33 9.1477e-41
4.55 1.16 0.92 9.1477e-41
4.61 1.16 1.12 9.1477e-41
4.64 1.16 1.22 9.1477e-41
4.68 1.16 1.23 9.1477e-41
2.95 1.18 1.42 9.1477e-41
3.02 1.18 1.42 3.57e-43
3.03 1.18 1.41 9.1477e-41
2.99 1.18 1.41 3.57e-43
3.06 1.18 1.41 3.57e-43
3.09 1.18 1.41 3.57e-43
3.14 1.18 1.41 3.57e-43
3.25 1.18 1.52 9.1477e-41
3.06 1.18 1.52 3.57e-43
3.26 1.18 1.52 3.57e-43
3.3 1.18 1.52 3.57e-43
3.34 1.18 1.17 9.1477e-41
3.44 1.18 1.56 9.1477e-41
3.48 1.18 1.56 3.57e-43
3.46 1.18 1.16 9.1477e-41
3.55 1.18 1.54 9.1477e-41
3.59 1.18 1.54 3.57e-43
3.58 1.18 1.54 3.57e-43
3.62 1.18 1.54 3.57e-43
3.66 1.18 1.54 3.57e-43
3.7 1.18 1.54 3.57e-43
3.72 1.18 1.54 3.57e-43
3.78 1.18 1.54 3.57e-43
3.82 1.18 1.54 3.57e-43
3.86 1.18 1.23 9.1477e-41
3.9 1.18 1.18 9.1477e-41
3.94 1.18 1.18 3.57e-43
3.98 1.18 1.18 3.57e-43
4.02 1.18 1.18 3.57e-43
4.06 1.18 1.19 9.1477e-41
4.09 1.18 1.23 9.1477e-41
4.17 1.18 1.23 3.57e-43
4.22 1.18 1.23 3.57e-43
4.25 1.18 1.13 9.1477e-41
4.33 1.18 1.13 3.57e-43
4.33 1.18 1.13 3.57e-43
4.37 1.18 1.17 9.1477e-41
4.39 1.18 1.49 9.1477e-41
4.43 1.18 1.46 9.1477e-41
4.47 1.18 1.35 9.1477e-41
4.56 1.18 0.91 9.1477e-41
4.7 1.18 1.1 9.1477e-41
2.98 1.2 1.52 9.1477e-41
3.03 1.2 1.52 3.57e-43
3.03 1.2 1.41 9.1477e-41
2.99 1.2 1.41 3.57e-43
3.06 1.2 1.41 3.57e-43
3.09 1.2 1.41 3.57e-43
3.14 1.2 1.41 3.57e-43
3.25 1.2 1.52 9.1477e-41
3.06 1.2 1.52 3.57e-43
3.26 1.2 1.52 3.57e-43
3.3 1.2 1.52 3.57e-43
3.34 1.2 1.17 9.1477e-41
3.44 1.2 1.55 9.1477e-41
3.48 1.2 1.55 3.57e-43
3.46 1.2 1.16 9.1477e-41
3.55 1.2 1.57 9.1477e-41
3.59 1.2 1.57 3.57e-43
3.58 1.2 1.57 3.57e-43
3.62 1.2 1.57 3.57e-43
3.66 1.2 1.57 3.57e-43
3.7 1.2 1.57 3.57e-43
3.72 1.2 1.57 3.57e-43
3.78 1.2 1.57 3.57e-43
3.82 1.2 1.57 3.57e-43
3.86 1.2 1.23 9.1477e-41
3.91 1.2 1.41 9.1477e-41
3.95 1.2 1.4 9.1477e-41
3.98 1.2 1.4 3.57e-43
4.02 1.2 1.4 3.57e-43
4.06 1.2 1.4 3.57e-43
4.09 1.2 1.23 9.1477e-41
4.17 1.2 1.23 3.57e-43
4.22 1.2 1.23 3.57e-43
4.25 1.2 1.23 3.57e-43
4.33 1.2 1.23 3.57e-43
4.33 1.2 1.23 3.57e-43
4.37 1.2 1.17 9.1477e-41
4.39 1.2 1.51 9.1477e-41
4.43 1.2 1.48 9.1477e-41
4.47 1.2 1.39 9.1477e-41
4.55 1.2 0.93 9.1477e-41
2.99 1.22 1.54 9.1477e-41
3.03 1.22 1.54 3.57e-43
3.03 1.22 1.54 3.57e-43
2.99 1.22 1.54 3.57e-43
3.06 1.22 1.54 3.57e-43
3.09 1.22 1.54 3.57e-43
3.14 1.22 1.54 3.57e-43
3.25 1.22 1.54 3.57e-43
3.06 1.22 1.54 3.57e-43
3.26 1.22 1.54 3.57e-43
3.3 1.22 1.54 3.57e-43
3.34 1.22 1.54 3.57e-43
3.44 1.22 1.54 3.57e-43
3.48 1.22 1.54 3.57e-43
3.46 1.22 1.54 3.57e-43
3.55 1.22 1.54 3.57e-43
3.59 1.22 1.54 3.57e-43
3.58 1.22 1.54 3.57e-43
3.62 1.22 1.54 3.57e-43
3.66 1.22 1.54 3.57e-43
3.7 1.22 1.54 3.57e-43
3.72 1.22 1.54 3.57e-43
3.78 1.22 1.54 3.57e-43
3.82 1.22 1.54 3.57e-43
3.86 1.22 1.23 9.1477e-41
3.91 1.22 1.48 9.1477e-41
3.95 1.22 1.48 9.1477e-41
3.98 1.22 1.47 9.1477e-41
4.02 1.22 1.48 9.1477e-41
4.06 1.22 1.47 9.1477e-41
4.09 1.22 1.45 9.1477e-41
4.17 1.22 1.52 9.1477e-41
4.2 1.22 1.54 9.1477e-41
4.24 1.22 1.54 9.1477e-41
4.28 1.22 1.53 9.1477e-41
4.31 1.22 1.53 3.57e-43
4.37 1.22 1.18 9.1477e-41
4.39 1.22 1.53 9.1477e-41
4.42 1.22 1.49 9.1477e-41
4.47 1.22 1.4 9.1477e-41
4.55 1.22 0.93 9.1477e-41
3 1.24 1.57 9.1477e-41
3.04 1.24 1.57 3.57e-43
3.03 1.24 1.57 3.57e-43
2.99 1.24 1.08 9.1477e-41
3.15 1.24 1.59 9.1477e-41
3.19 1.24 1.58 9.1477e-41
3.23 1.24 1.6 9.1477e-41
3.27 1.24 1.61 9.1477e-41
3.3 1.24 1.6 9.1477e-41
3.34 1.24 1.61 9.1477e-41
3.38 1.24 1.61 9.1477e-41
3.41 1.24 1.6 9.1477e-41
3.45 1.24 1.62 9.1477e-41
3.49 1.24 1.61 9.1477e-41
3.52 1.24 1.6 9.1477e-41
3.56 1.24 1.61 9.1477e-41
3.6 1.24 1.62 9.1477e-41
3.63 1.24 1.6 9.1477e-41
3.67 1.24 1.61 9.1477e-41
3.7 1.24 1.6 9.1477e-41
3.74 1.24 1.6 9.1477e-41
3.77 1.24 1.6 9.1477e-41
3.81 1.24 1.59 9.1477e-41
3.85 1.24 1.59 9.1477e-41
3.88 1.24 1.59 9.1477e-41
3.92 1.24 1.58 9.1477e-41
3.95 1.24 1.58 3.57e-43
3.98 1.24 1.58 3.57e-43
4.02 1.24 1.58 3.57e-43
4.06 1.24 1.58 3.57e-43
4.09 1.24 1.58 3.57e-43
4.17 1.24 1.53 9.1477e-41
4.2 1.24 1.56 9.1477e-41
4.24 1.24 1.55 9.1477e-41
4.28 1.24 1.53 9.1477e-41
4.31 1.24 1.53 3.57e-43
4.37 1.24 1.18 9.1477e-41
4.38 1.24 1.55 9.1477e-41
4.42 1.24 1.52 9.1477e-41
4.47 1.24 1.42 9.1477e-41
4.55 1.24 0.94 9.1477e-41
3 1.26 1.59 9.1477e-41
3.04 1.26 1.59 9.1477e-41
3.08 1.26 1.59 9.1477e-41
3.12 1.26 1.61 9.1477e-41
3.16 1.26 1.61 9.1477e-41
3.19 1.26 1.61 9.1477e-41
3.24 1.26 1.64 9.1477e-41
3.27 1.26 1.62 9.1477e-41
3.31 1.26 1.62 9.1477e-41
3.34 1.26 1.61 9.1477e-41
3.38 1.26 1.64 9.1477e-41
3.42 1.26 1.63 9.1477e-41
3.46 1.26 1.64 9.1477e-41
3.49 1.26 1.62 9.1477e-41
3.53 1.26 1.63 9.1477e-41
3.56 1.26 1.62 9.1477e-41
3.6 1.26 1.63 9.1477e-41
3.63 1.26 1.62 9.1477e-41
3.67 1.26 1.63 9.1477e-41
3.7 1.26 1.62 9.1477e-41
3.74 1.26 1.61 9.1477e-41
3.78 1.26 1.63 9.1477e-41
3.81 1.26 1.61 9.1477e-41
3.85 1.26 1.61 9.1477e-41
3.88 1.26 1.62 9.1477e-41
3.92 1.26 1.61 9.1477e-41
3.95 1.26 1.61 9.1477e-41
3.99 1.26 1.6 9.1477e-41
4.02 1.26 1.61 9.1477e-41
4.06 1.26 1.6 9.1477e-41
4.09 1.26 1.59 9.1477e-41
4.17 1.26 1.6 9.1477e-41
4.2 1.26 1.58 9.1477e-41
4.24 1.26 1.57 9.1477e-41
4.27 1.26 1.57 3.57e-43
4.31 1.26 1.57 3.57e-43
4.37 1.26 1.18 9.1477e-41
4.38 1.26 1.57 9.1477e-41
4.42 1.26 1.52 9.1477e-41
4.46 1.26 1.45 9.1477e-41
4.55 1.26 0.95 9.1477e-41
3 1.28 1.6 9.1477e-41
3.04 1.28 1.61 9.1477e-41
3.08 1.28 1.62 9.1477e-41
3.12 1.28 1.63 9.1477e-41
3.16 1.28 1.62 9.1477e-41
3.2 1.28 1.63 9.1477e-41
3.24 1.28 1.65 9.1477e-41
3.27 1.28 1.64 9.1477e-41
3.31 1.28 1.64 9.1477e-41
3.35 1.28 1.64 9.1477e-41
3.38 1.28 1.65 9.1477e-41
3.42 1.28 1.64 9.1477e-41
3.46 1.28 1.65 9.1477e-41
3.49 1.28 1.65 9.1477e-41
3.53 1.28 1.64 9.1477e-41
3.56 1.28 1.64 9.1477e-41
3.6 1.28 1.64 9.1477e-41
3.64 1.28 1.64 9.1477e-41
3.67 1.28 1.63 9.1477e-41
3.71 1.28 1.64 9.1477e-41
3.74 1.28 1.63 9.1477e-41
3.78 1.28 1.63 9.1477e-41
3.81 1.28 1.63 9.1477e-41
3.85 1.28 1.63 9.1477e-41
3.88 1.28 1.63 9.1477e-41
3.92 1.28 1.63 9.1477e-41
3.95 1.28 1.62 9.1477e-41
3.99 1.28 1.62 9.1477e-41
4.02 1.28 1.62 9.1477e-41
4.06 1.28 1.62 9.1477e-41
4.09 1.28 1.61 9.1477e-41
4.17 1.28 1.6 9.1477e-41
4.2 1.28 1.6 9.1477e-41
4.24 1.28 1.59 9.1477e-41
4.27 1.28 1.59 9.1477e-41
4.31 1.28 1.58 9.1477e-41
4.35 1.28 1.57 9.1477e-41
4.38 1.28 1.58 9.1477e-41
4.42 1.28 1.54 9.1477e-41
4.46 1.28 1.47 9.1477e-41
4.55 1.28 0.94 9.1477e-41
3.01 1.3 1.62 9.1477e-41
3.05 1.3 1.63 9.1477e-41
3.09 1.3 1.64 9.1477e-41
3.13 1.3 1.64 9.1477e-41
3.16 1.3 1.64 9.1477e-41
3.2 1.3 1.64 9.1477e-41
3.24 1.3 1.65 9.1477e-41
3.28 1.3 1.65 9.1477e-41
3.31 1.3 1.66 9.1477e-41
3.35 1.3 1.64 9.1477e-41
3.39 1.3 1.66 9.1477e-41
3.42 1.3 1.66 9.1477e-41
3.46 1.3 1.66 9.1477e-41
3.49 1.3 1.66 9.1477e-41
3.53 1.3 1.64 9.1477e-41
3.57 1.3 1.65 9.1477e-41
3.6 1.3 1.66 9.1477e-41
3.64 1.3 1.65 9.1477e-41
3.67 1.3 1.65 9.1477e-41
3.71 1.3 1.65 9.1477e-41
3.74 1.3 1.65 9.1477e-41
3.78 1.3 1.65 9.1477e-41
3.81 1.3 1.64 9.1477e-41
3.85 1.3 1.64 9.1477e-41
3.88 1.3 1.64 9.1477e-41
3.92 1.3 1.64 9.1477e-41
3.95 1.3 1.63 9.1477e-41
3.99 1.3 1.65 9.1477e-41
4.02 1.3 1.64 9.1477e-41
4.06 1.3 1.64 9.1477e-41
4.09 1.3 1.64 9.1477e-41
4.17 1.3 1.62 9.1477e-41
4.2 1.3 1.61 9.1477e-41
4.24 1.3 1.62 9.1477e-41
4.27 1.3 1.61 9.1477e-41
4.31 1.3 1.58 9.1477e-41
4.35 1.3 1.59 9.1477e-41
4.38 1.3 1.58 9.1477e-41
4.42 1.3 1.55 9.1477e-41
4.46 1.3 1.48 9.1477e-41
4.55 1.3 0.94 9.1477e-41
3.01 1.32 1.64 9.1477e-41
3.05 1.32 1.65 9.1477e-41
3.09 1.32 1.64 9.1477e-41
3.13 1.32 1.66 9.1477e-41
3.17 1.32 1.66 9.1477e-41
3.2 1.32 1.65 9.1477e-41
3.24 1.32 1.65 9.1477e-41
3.28 1.32 1.66 9.1477e-41
3.32 1.32 1.67 9.1477e-41
3.35 1.32 1.66 9.1477e-41
3.39 1.32 1.67 9.1477e-41
3.42 1.32 1.67 9.1477e-41
3.46 1.32 1.67 9.1477e-41
3.5 1.32 1.67 9.1477e-41
3.53 1.32 1.67 9.1477e-41
3.57 1.32 1.67 9.1477e-41
3.6 1.32 1.68 9.1477e-41
3.64 1.32 1.66 9.1477e-41
3.67 1.32 1.67 9.1477e-41
3.71 1.32 1.67 9.1477e-41
3.74 1.32 1.66 9.1477e-41
3.78 1.32 1.67 9.1477e-41
3.81 1.32 1.65 9.1477e-41
3.85 1.32 1.66 9.1477e-41
3.88 1.32 1.66 9.1477e-41
3.92 1.32 1.65 9.1477e-41
3.95 1.32 1.66 9.1477e-41
3.99 1.32 1.65 9.1477e-41
4.02 1.32 1.66 9.1477e-41
4.06 1.32 1.65 9.1477e-41
4.09 1.32 1.65 9.1477e-41
4.17 1.32 1.63 9.1477e-41
4.2 1.32 1.63 9.1477e-41
4.24 1.32 1.62 9.1477e-41
4.27 1.32 1.61 9.1477e-41
4.31 1.32 1.61 9.1477e-41
4.34 1.32 1.61 9.1477e-41
4.38 1.32 1.6 9.1477e-41
4.42 1.32 1.57 9.1477e-41
4.46 1.32 1.51 9.1477e-41
4.55 1.32 0.96 9.1477e-41
3.02 1.34 1.65 9.1477e-41
3.05 1.34 1.65 9.1477e-41
3.09 1.34 1.65 9.1477e-41
3.13 1.34 1.66 9.1477e-41
3.17 1.34 1.67 9.1477e-41
3.21 1.34 1.67 9.1477e-41
