# .PCD v.7 - Point Cloud Data file format
VERSION .7
FIELDS x y z rgb
SIZE 4 4 4 4
TYPE F F F F
WIDTH 1897
HEIGHT 1
POINTS 1897
DATA ascii
7.01 0.77 1.05 9.1477e-41
7.07 0.77 1.04 9.1477e-41
7.13 0.77 1.04 9.1477e-41
7.19 0.77 1.02 9.1477e-41
7.25 0.77 1.04 9.1477e-41
7.32 0.77 1.03 9.1477e-41
5.74 0.84 0.52 9.1477e-41
5.73 0.84 0.72 9.1477e-41
5.75 0.84 0.8 9.1477e-41
5.77 0.84 0.89 9.1477e-41
5.8 0.84 0.94 9.1477e-41
5.83 0.84 0.98 9.1477e-41
5.86 0.84 1.03 9.1477e-41
5.9 0.84 1.04 9.1477e-41
5.95 0.84 1.06 9.1477e-41
5.99 0.84 1.05 9.1477e-41
6.04 0.84 1.06 9.1477e-41
6.09 0.84 1.06 9.1477e-41
6.14 0.84 1.07 9.1477e-41
6.18 0.84 1.08 9.1477e-41
6.23 0.84 1.07 9.1477e-41
6.28 0.84 1.08 9.1477e-41
6.33 0.84 1.08 9.1477e-41
6.38 0.84 1.08 9.1477e-41
6.43 0.84 1.09 9.1477e-41
6.48 0.84 1.09 9.1477e-41
6.54 0.84 1.08 9.1477e-41
6.59 0.84 1.09 9.1477e-41
6.64 0.84 1.09 9.1477e-41
6.7 0.84 1.09 9.1477e-41
6.75 0.84 1.09 9.1477e-41
6.81 0.84 1.09 9.1477e-41
6.87 0.84 1.09 9.1477e-41
6.93 0.84 1.07 9.1477e-41
6.98 0.84 1.08 9.1477e-41
7.05 0.84 1.07 9.1477e-41
7.11 0.84 1.06 9.1477e-41
7.18 0.84 1.05 9.1477e-41
7.24 0.84 1.04 9.1477e-41
7.3 0.84 1.04 9.1477e-41
7.37 0.84 1.03 9.1477e-41
5.74 0.91 0.52 9.1477e-41
5.72 0.91 0.73 9.1477e-41
5.74 0.91 0.81 9.1477e-41
5.77 0.91 0.89 9.1477e-41
5.79 0.91 0.95 9.1477e-41
5.83 0.91 0.99 9.1477e-41
5.85 0.91 1.04 9.1477e-41
5.9 0.91 1.05 9.1477e-41
5.94 0.91 1.07 9.1477e-41
5.99 0.91 1.07 9.1477e-41
6.03 0.91 1.08 9.1477e-41
6.08 0.91 1.09 9.1477e-41
6.13 0.91 1.07 9.1477e-41
6.17 0.91 1.1 9.1477e-41
6.23 0.91 1.09 9.1477e-41
6.28 0.91 1.08 9.1477e-41
6.33 0.91 1.08 9.1477e-41
6.38 0.91 1.08 9.1477e-41
6.43 0.91 1.09 9.1477e-41
6.48 0.91 1.1 9.1477e-41
6.53 0.91 1.09 9.1477e-41
6.58 0.91 1.1 9.1477e-41
6.64 0.91 1.09 9.1477e-41
6.7 0.91 1.09 9.1477e-41
6.75 0.91 1.09 9.1477e-41
6.81 0.91 1.09 9.1477e-41
6.86 0.91 1.1 9.1477e-41
6.92 0.91 1.1 9.1477e-41
6.98 0.91 1.08 9.1477e-41
7.04 0.91 1.08 9.1477e-41
7.1 0.91 1.08 9.1477e-41
7.17 0.91 1.06 9.1477e-41
7.22 0.91 1.07 9.1477e-41
7.29 0.91 1.06 9.1477e-41
7.37 0.91 1.04 9.1477e-41
5.75 0.98 0.51 9.1477e-41
5.72 0.98 0.75 9.1477e-41
5.74 0.98 0.82 9.1477e-41
5.77 0.98 0.89 9.1477e-41
5.79 0.98 0.95 9.1477e-41
5.82 0.98 1.02 9.1477e-41
5.85 0.98 1.05 9.1477e-41
5.89 0.98 1.08 9.1477e-41
5.93 0.98 1.08 9.1477e-41
5.98 0.98 1.09 9.1477e-41
6.03 0.98 1.08 9.1477e-41
6.08 0.98 1.09 9.1477e-41
6.13 0.98 1.07 9.1477e-41
6.2 0.98 1.03 9.1477e-41
6.26 0.98 1.02 9.1477e-41
6.31 0.98 1.02 9.1477e-41
6.36 0.98 1.03 9.1477e-41
6.4 0.98 1.04 9.1477e-41
6.46 0.98 1.04 9.1477e-41
6.51 0.98 1.03 9.1477e-41
6.56 0.98 1.04 9.1477e-41
6.62 0.98 1.04 9.1477e-41
6.68 0.98 1.04 3.57e-43
6.7 0.98 1.04 3.57e-43
6.75 0.98 1.09 9.1477e-41
6.85 0.98 1.03 9.1477e-41
6.9 0.98 1.03 9.1477e-41
6.97 0.98 1.01 9.1477e-41
7.03 0.98 1.01 9.1477e-41
7.09 0.98 1 9.1477e-41
7.11 0.98 1.06 9.1477e-41
7.17 0.98 1.06 9.1477e-41
7.22 0.98 1.08 9.1477e-41
7.28 0.98 1.08 9.1477e-41
7.35 0.98 1.07 9.1477e-41
5.74 1.05 0.52 9.1477e-41
5.72 1.05 0.74 9.1477e-41
5.74 1.05 0.82 9.1477e-41
5.77 1.05 0.89 9.1477e-41
5.79 1.05 0.96 9.1477e-41
5.82 1.05 1.02 9.1477e-41
5.85 1.05 1.06 9.1477e-41
5.88 1.05 1.09 9.1477e-41
5.93 1.05 1.09 9.1477e-41
6 1.05 1.04 9.1477e-41
6.06 1.05 1.02 9.1477e-41
6.1 1.05 1.02 3.57e-43
6.13 1.05 1.02 3.57e-43
6.2 1.05 1.02 3.57e-43
6.26 1.05 1.02 3.57e-43
6.31 1.05 1.02 3.57e-43
6.36 1.05 1.02 3.57e-43
6.4 1.05 1.02 3.57e-43
6.46 1.05 1.02 3.57e-43
6.51 1.05 1.02 3.57e-43
6.56 1.05 1.04 9.1477e-41
6.58 1.05 1.1 9.1477e-41
6.63 1.05 1.1 3.57e-43
6.7 1.05 1.09 9.1477e-41
6.74 1.05 1.1 9.1477e-41
6.81 1.05 1.09 9.1477e-41
6.88 1.05 1.06 9.1477e-41
6.93 1.05 1.07 9.1477e-41
7.01 1.05 1.05 9.1477e-41
7.08 1.05 1.02 9.1477e-41
7.14 1.05 1.02 9.1477e-41
7.2 1.05 1.01 9.1477e-41
7.26 1.05 1.02 9.1477e-41
7.28 1.05 1.08 9.1477e-41
7.34 1.05 1.08 9.1477e-41
5.75 1.12 0.51 9.1477e-41
5.72 1.12 0.74 9.1477e-41
5.74 1.12 0.82 9.1477e-41
5.77 1.12 0.89 9.1477e-41
5.79 1.12 0.97 9.1477e-41
5.81 1.12 1.04 9.1477e-41
5.84 1.12 1.08 9.1477e-41
5.88 1.12 1.11 9.1477e-41
5.92 1.12 1.11 3.57e-43
6 1.12 1.11 3.57e-43
6.06 1.12 1.11 3.57e-43
6.1 1.12 1.11 3.57e-43
6.13 1.12 1.11 3.57e-43
6.2 1.12 1.11 3.57e-43
6.26 1.12 1.11 3.57e-43
6.31 1.12 1.11 3.57e-43
6.36 1.12 1.11 3.57e-43
6.4 1.12 1.11 3.57e-43
6.46 1.12 1.11 3.57e-43
6.51 1.12 1.11 3.57e-43
6.56 1.12 1.11 3.57e-43
6.58 1.12 1.11 3.57e-43
6.63 1.12 1.11 3.57e-43
6.7 1.12 1.11 3.57e-43
6.74 1.12 1.11 3.57e-43
6.81 1.12 1.11 3.57e-43
6.88 1.12 1.11 3.57e-43
6.93 1.12 1.11 3.57e-43
7.01 1.12 1.11 3.57e-43
7.08 1.12 1.11 3.57e-43
7.14 1.12 1.11 3.57e-43
7.2 1.12 1.11 3.57e-43
7.26 1.12 1.02 9.1477e-41
7.31 1.12 1.04 9.1477e-41
7.35 1.12 1.07 9.1477e-41
7.38 1.12 1.11 9.1477e-41
5.72 1.19 0.59 9.1477e-41
5.72 1.19 0.74 9.1477e-41
5.74 1.19 0.82 9.1477e-41
5.77 1.19 0.89 9.1477e-41
5.79 1.19 0.95 9.1477e-41
5.81 1.19 1.04 9.1477e-41
5.83 1.19 1.1 9.1477e-41
5.87 1.19 1.12 9.1477e-41
5.91 1.19 1.12 3.57e-43
6 1.19 1.04 9.1477e-41
6.01 1.19 1.04 3.57e-43
6.1 1.19 1.04 3.57e-43
6.13 1.19 1.04 3.57e-43
6.2 1.19 1.04 3.57e-43
6.26 1.19 1.04 3.57e-43
6.31 1.19 1.04 3.57e-43
6.36 1.19 1.04 3.57e-43
6.4 1.19 1.04 3.57e-43
6.46 1.19 1.04 3.57e-43
6.51 1.19 1.04 3.57e-43
6.56 1.19 1.04 3.57e-43
6.58 1.19 1.04 3.57e-43
6.63 1.19 1.04 3.57e-43
6.7 1.19 1.04 3.57e-43
6.74 1.19 1.04 3.57e-43
6.81 1.19 1.04 3.57e-43
6.88 1.19 1.04 3.57e-43
6.93 1.19 1.04 3.57e-43
7.01 1.19 1.04 3.57e-43
7.08 1.19 1.04 3.57e-43
7.14 1.19 1.04 3.57e-43
7.2 1.19 1.04 3.57e-43
7.26 1.19 1.02 9.1477e-41
7.28 1.19 1.08 9.1477e-41
7.34 1.19 1.08 9.1477e-41
7.38 1.19 1.12 9.1477e-41
5.72 1.26 0.59 9.1477e-41
5.72 1.26 0.73 9.1477e-41
5.75 1.26 0.8 9.1477e-41
5.77 1.26 0.89 9.1477e-41
5.79 1.26 0.96 9.1477e-41
5.81 1.26 1.04 9.1477e-41
5.83 1.26 1.12 9.1477e-41
5.85 1.26 1.16 9.1477e-41
5.9 1.26 1.16 3.57e-43
6 1.26 1.16 3.57e-43
6.01 1.26 1.16 3.57e-43
6.1 1.26 1.16 3.57e-43
6.13 1.26 1.16 3.57e-43
6.2 1.26 1.16 3.57e-43
6.26 1.26 1.16 3.57e-43
6.31 1.26 1.16 3.57e-43
6.36 1.26 1.16 3.57e-43
6.4 1.26 1.16 3.57e-43
6.46 1.26 1.16 3.57e-43
6.51 1.26 1.16 3.57e-43
6.56 1.26 1.16 3.57e-43
6.58 1.26 1.16 3.57e-43
6.63 1.26 1.16 3.57e-43
6.7 1.26 1.16 3.57e-43
6.74 1.26 1.16 3.57e-43
6.81 1.26 1.09 9.1477e-41
6.79 1.26 1.21 9.1477e-41
6.83 1.26 1.21 3.57e-43
7.01 1.26 1.21 3.57e-43
7.08 1.26 1.21 3.57e-43
7.14 1.26 1.21 3.57e-43
7.2 1.26 1.21 3.57e-43
7.26 1.26 1.21 3.57e-43
7.28 1.26 1.08 9.1477e-41
7.3 1.26 1.14 9.1477e-41
7.36 1.26 1.14 9.1477e-41
5.73 1.33 0.4 9.1477e-41
5.72 1.33 0.6 9.1477e-41
5.73 1.33 0.7 9.1477e-41
5.75 1.33 0.79 9.1477e-41
5.76 1.33 0.9 9.1477e-41
5.79 1.33 0.95 9.1477e-41
5.83 1.33 0.98 9.1477e-41
5.81 1.33 1.15 9.1477e-41
5.85 1.33 1.18 9.1477e-41
5.88 1.33 1.21 9.1477e-41
5.92 1.33 1.21 3.57e-43
6.01 1.33 1.21 3.57e-43
6.1 1.33 1.21 3.57e-43
6.13 1.33 1.21 3.57e-43
6.2 1.33 1.21 3.57e-43
6.26 1.33 1.21 3.57e-43
6.31 1.33 1.21 3.57e-43
6.36 1.33 1.21 3.57e-43
6.4 1.33 1.21 3.57e-43
6.46 1.33 1.21 3.57e-43
6.51 1.33 1.21 3.57e-43
6.56 1.33 1.21 3.57e-43
6.58 1.33 1.21 3.57e-43
6.63 1.33 1.21 3.57e-43
6.7 1.33 1.21 3.57e-43
6.74 1.33 1.21 3.57e-43
6.81 1.33 1.21 3.57e-43
6.79 1.33 1.21 3.57e-43
6.83 1.33 1.21 3.57e-43
7.01 1.33 1.21 3.57e-43
7.08 1.33 1.21 3.57e-43
7.14 1.33 1.21 3.57e-43
7.2 1.33 1.21 3.57e-43
7.26 1.33 1.21 3.57e-43
7.28 1.33 1.08 9.1477e-41
7.28 1.33 1.17 9.1477e-41
7.34 1.33 1.18 9.1477e-41
7.38 1.33 1.2 9.1477e-41
5.72 1.4 0.43 9.1477e-41
5.72 1.4 0.59 9.1477e-41
5.74 1.4 0.69 9.1477e-41
5.75 1.4 0.8 9.1477e-41
5.76 1.4 0.9 9.1477e-41
5.79 1.4 0.97 9.1477e-41
5.82 1.4 0.97 3.57e-43
5.81 1.4 1.15 9.1477e-41
5.83 1.4 1.23 9.1477e-41
5.87 1.4 1.24 9.1477e-41
5.9 1.4 1.24 3.57e-43
6.01 1.4 1.24 3.57e-43
6.1 1.4 1.24 3.57e-43
6.13 1.4 1.24 3.57e-43
6.2 1.4 1.24 3.57e-43
6.26 1.4 1.24 3.57e-43
6.31 1.4 1.24 3.57e-43
6.36 1.4 1.24 3.57e-43
6.4 1.4 1.24 3.57e-43
6.46 1.4 1.24 3.57e-43
6.51 1.4 1.24 3.57e-43
6.56 1.4 1.24 3.57e-43
6.58 1.4 1.24 3.57e-43
6.63 1.4 1.24 3.57e-43
6.7 1.4 1.24 3.57e-43
6.74 1.4 1.24 3.57e-43
6.81 1.4 1.24 3.57e-43
6.79 1.4 1.24 3.57e-43
6.83 1.4 1.24 3.57e-43
7.01 1.4 1.24 3.57e-43
7.08 1.4 1.24 3.57e-43
7.14 1.4 1.24 3.57e-43
7.2 1.4 1.24 3.57e-43
7.26 1.4 1.24 3.57e-43
7.28 1.4 1.08 9.1477e-41
7.3 1.4 1.14 9.1477e-41
7.3 1.4 1.23 9.1477e-41
7.35 1.4 1.25 9.1477e-41
5.72 1.47 0.42 9.1477e-41
5.72 1.47 0.6 9.1477e-41
5.74 1.47 0.69 9.1477e-41
5.74 1.47 0.81 9.1477e-41
5.76 1.47 0.91 9.1477e-41
5.78 1.47 0.98 9.1477e-41
5.82 1.47 0.98 3.57e-43
5.81 1.47 1.15 9.1477e-41
5.83 1.47 1.24 9.1477e-41
5.86 1.47 1.27 9.1477e-41
5.89 1.47 1.31 9.1477e-41
5.92 1.47 1.31 3.57e-43
6.1 1.47 1.03 9.1477e-41
6.02 1.47 1.03 3.57e-43
6.2 1.47 1.03 3.57e-43
6.26 1.47 1.03 3.57e-43
6.31 1.47 1.03 3.57e-43
6.36 1.47 1.03 3.57e-43
6.4 1.47 1.03 3.57e-43
6.46 1.47 1.03 3.57e-43
6.51 1.47 1.03 3.57e-43
6.56 1.47 1.03 3.57e-43
6.58 1.47 1.03 3.57e-43
6.63 1.47 1.03 3.57e-43
6.7 1.47 1.03 3.57e-43
6.74 1.47 1.03 3.57e-43
6.81 1.47 1.03 3.57e-43
6.79 1.47 1.03 3.57e-43
6.83 1.47 1.03 3.57e-43
7.01 1.47 1.03 3.57e-43
7.08 1.47 1.03 3.57e-43
7.14 1.47 1.03 3.57e-43
7.2 1.47 1.03 3.57e-43
7.26 1.47 1.03 3.57e-43
7.28 1.47 1.03 3.57e-43
7.3 1.47 1.03 3.57e-43
7.3 1.47 1.23 9.1477e-41
7.32 1.47 1.28 9.1477e-41
7.36 1.47 1.31 9.1477e-41
5.72 1.54 0.42 9.1477e-41
5.71 1.54 0.61 9.1477e-41
5.73 1.54 0.7 9.1477e-41
5.74 1.54 0.81 9.1477e-41
5.76 1.54 0.91 9.1477e-41
5.78 1.54 0.98 9.1477e-41
5.81 1.54 1.04 9.1477e-41
5.83 1.54 1.04 3.57e-43
5.83 1.54 1.24 9.1477e-41
5.85 1.54 1.29 9.1477e-41
5.88 1.54 1.32 9.1477e-41
5.91 1.54 1.39 9.1477e-41
5.95 1.54 1.37 9.1477e-41
6.09 1.54 1.16 9.1477e-41
6.14 1.54 1.16 9.1477e-41
6.19 1.54 1.16 9.1477e-41
6.25 1.54 1.15 9.1477e-41
6.29 1.54 1.16 9.1477e-41
6.34 1.54 1.15 9.1477e-41
6.39 1.54 1.15 3.57e-43
6.51 1.54 1.15 3.57e-43
6.56 1.54 1.15 3.57e-43
6.58 1.54 1.15 3.57e-43
6.63 1.54 1.15 3.57e-43
6.7 1.54 1.15 3.57e-43
6.74 1.54 1.15 3.57e-43
6.81 1.54 1.09 9.1477e-41
6.82 1.54 1.17 9.1477e-41
6.87 1.54 1.17 9.1477e-41
6.92 1.54 1.18 9.1477e-41
6.98 1.54 1.18 3.57e-43
7.14 1.54 1.18 3.57e-43
7.2 1.54 1.18 3.57e-43
7.26 1.54 1.18 3.57e-43
7.28 1.54 1.18 3.57e-43
7.3 1.54 1.18 3.57e-43
7.3 1.54 1.18 3.57e-43
7.32 1.54 1.28 9.1477e-41
7.33 1.54 1.35 9.1477e-41
5.72 1.61 0.43 9.1477e-41
5.71 1.61 0.62 9.1477e-41
5.74 1.61 0.62 3.57e-43
5.74 1.61 0.62 3.57e-43
5.76 1.61 0.91 9.1477e-41
5.69 1.61 1.22 9.1477e-41
5.78 1.61 1.09 9.1477e-41
5.83 1.61 1.09 3.57e-43
5.83 1.61 1.09 3.57e-43
5.85 1.61 1.29 9.1477e-41
5.87 1.61 1.35 9.1477e-41
5.9 1.61 1.39 9.1477e-41
5.94 1.61 1.39 3.57e-43
6.09 1.61 1.39 3.57e-43
6.14 1.61 1.39 3.57e-43
6.19 1.61 1.16 9.1477e-41
6.25 1.61 1.15 9.1477e-41
6.29 1.61 1.15 9.1477e-41
6.35 1.61 1.15 9.1477e-41
6.39 1.61 1.15 3.57e-43
6.51 1.61 1.15 3.57e-43
6.56 1.61 1.15 3.57e-43
6.58 1.61 1.15 3.57e-43
6.63 1.61 1.15 3.57e-43
6.7 1.61 1.15 3.57e-43
6.74 1.61 1.15 3.57e-43
6.81 1.61 1.09 9.1477e-41
6.83 1.61 1.16 9.1477e-41
6.88 1.61 1.16 9.1477e-41
6.92 1.61 1.18 9.1477e-41
6.97 1.61 1.19 9.1477e-41
7.04 1.61 1.19 3.57e-43
7.2 1.61 1.01 9.1477e-41
7.2 1.61 1.11 9.1477e-41
7.24 1.61 1.11 3.57e-43
7.3 1.61 1.11 3.57e-43
7.3 1.61 1.11 3.57e-43
7.32 1.61 1.28 9.1477e-41
7.3 1.61 1.39 9.1477e-41
7.35 1.61 1.41 9.1477e-41
5.72 1.68 0.43 9.1477e-41
5.71 1.68 0.62 9.1477e-41
5.65 1.68 0.96 9.1477e-41
5.66 1.68 1.06 9.1477e-41
5.73 1.68 1 9.1477e-41
5.78 1.68 0.99 9.1477e-41
5.81 1.68 0.99 3.57e-43
5.83 1.68 0.99 3.57e-43
5.83 1.68 0.99 3.57e-43
5.85 1.68 1.29 9.1477e-41
5.86 1.68 1.39 9.1477e-41
5.89 1.68 1.41 9.1477e-41
5.92 1.68 1.45 9.1477e-41
5.96 1.68 1.45 3.57e-43
6.14 1.68 1.45 3.57e-43
6.19 1.68 1.45 3.57e-43
6.25 1.68 1.45 3.57e-43
6.29 1.68 1.15 9.1477e-41
6.18 1.68 1.15 3.57e-43
6.39 1.68 1.15 3.57e-43
6.51 1.68 1.15 3.57e-43
6.56 1.68 1.15 3.57e-43
6.58 1.68 1.1 9.1477e-41
6.78 1.68 0.85 9.1477e-41
6.83 1.68 0.85 3.57e-43
6.74 1.68 0.85 3.57e-43
6.81 1.68 0.85 3.57e-43
6.83 1.68 0.85 3.57e-43
6.88 1.68 0.85 3.57e-43
6.92 1.68 0.85 3.57e-43
6.97 1.68 0.85 3.57e-43
7.04 1.68 0.85 3.57e-43
7.2 1.68 0.85 3.57e-43
7.2 1.68 1.11 9.1477e-41
7.33 1.68 1.11 3.57e-43
7.3 1.68 1.11 3.57e-43
7.3 1.68 1.11 3.57e-43
7.32 1.68 1.28 9.1477e-41
7.29 1.68 1.4 9.1477e-41
7.33 1.68 1.43 9.1477e-41
7.4 1.68 1.42 9.1477e-41
5.72 1.75 0.43 9.1477e-41
5.71 1.75 0.63 9.1477e-41
5.73 1.75 0.71 9.1477e-41
5.74 1.75 0.84 9.1477e-41
5.75 1.75 0.93 9.1477e-41
5.77 1.75 1 9.1477e-41
5.81 1.75 1 3.57e-43
5.83 1.75 1 3.57e-43
5.83 1.75 1 3.57e-43
5.85 1.75 1 3.57e-43
5.86 1.75 1.39 9.1477e-41
5.88 1.75 1.44 9.1477e-41
5.91 1.75 1.46 9.1477e-41
5.95 1.75 1.5 9.1477e-41
5.98 1.75 1.5 3.57e-43
6.19 1.75 1.5 3.57e-43
6.25 1.75 1.5 3.57e-43
6.29 1.75 1.5 3.57e-43
6.18 1.75 1.5 3.57e-43
6.39 1.75 1.5 3.57e-43
6.51 1.75 1.5 3.57e-43
6.56 1.75 1.04 9.1477e-41
6.63 1.75 1.02 9.1477e-41
6.41 1.75 1.51 9.1477e-41
6.47 1.75 1.51 3.57e-43
6.74 1.75 1.51 3.57e-43
6.81 1.75 1.51 3.57e-43
6.83 1.75 1.51 3.57e-43
6.88 1.75 1.51 3.57e-43
6.92 1.75 1.51 3.57e-43
6.97 1.75 1.51 3.57e-43
7.04 1.75 1.51 3.57e-43
7.2 1.75 1.01 9.1477e-41
7.13 1.75 1.21 9.1477e-41
7.32 1.75 1.21 3.57e-43
7.3 1.75 1.21 3.57e-43
7.3 1.75 1.23 9.1477e-41
5.71 1.82 0.45 9.1477e-41
5.71 1.82 0.63 9.1477e-41
5.73 1.82 0.71 9.1477e-41
5.74 1.82 0.82 9.1477e-41
5.75 1.82 0.93 9.1477e-41
5.77 1.82 1 9.1477e-41
5.81 1.82 1 3.57e-43
5.83 1.82 1 3.57e-43
5.83 1.82 1 3.57e-43
5.85 1.82 1 3.57e-43
5.86 1.82 1 3.57e-43
5.88 1.82 1.44 9.1477e-41
5.9 1.82 1.48 9.1477e-41
5.93 1.82 1.53 9.1477e-41
5.97 1.82 1.53 3.57e-43
6.19 1.82 1.53 3.57e-43
6.25 1.82 1.53 3.57e-43
6.29 1.82 1.53 3.57e-43
6.18 1.82 1.53 3.57e-43
6.39 1.82 1.53 3.57e-43
6.51 1.82 1.03 9.1477e-41
6.28 1.82 1.57 9.1477e-41
6.32 1.82 1.58 9.1477e-41
6.37 1.82 1.58 9.1477e-41
6.42 1.82 1.59 9.1477e-41
6.46 1.82 1.59 9.1477e-41
6.52 1.82 1.58 9.1477e-41
6.56 1.82 1.6 9.1477e-41
6.61 1.82 1.58 9.1477e-41
6.67 1.82 1.58 9.1477e-41
6.72 1.82 1.59 9.1477e-41
6.77 1.82 1.58 9.1477e-41
6.82 1.82 1.6 9.1477e-41
6.88 1.82 1.58 9.1477e-41
6.96 1.82 1.58 3.57e-43
7.3 1.82 1.58 3.57e-43
7.3 1.82 1.23 9.1477e-41
7.14 1.82 1.53 9.1477e-41
7.18 1.82 1.55 9.1477e-41
7.25 1.82 1.54 9.1477e-41
7.32 1.82 1.52 9.1477e-41
5.72 1.89 0.44 9.1477e-41
5.7 1.89 0.64 9.1477e-41
5.73 1.89 0.71 9.1477e-41
5.74 1.89 0.83 9.1477e-41
5.75 1.89 0.93 9.1477e-41
5.77 1.89 1.01 9.1477e-41
5.81 1.89 1.01 3.57e-43
5.83 1.89 1.01 3.57e-43
5.83 1.89 1.01 3.57e-43
5.85 1.89 1.01 3.57e-43
5.86 1.89 1.01 3.57e-43
5.88 1.89 1.44 9.1477e-41
5.89 1.89 1.51 9.1477e-41
5.93 1.89 1.55 9.1477e-41
5.95 1.89 1.58 9.1477e-41
6 1.89 1.57 9.1477e-41
6.04 1.89 1.59 9.1477e-41
6.08 1.89 1.59 9.1477e-41
6.12 1.89 1.59 9.1477e-41
6.17 1.89 1.61 9.1477e-41
6.21 1.89 1.61 9.1477e-41
6.26 1.89 1.61 9.1477e-41
6.31 1.89 1.61 9.1477e-41
6.35 1.89 1.62 9.1477e-41
6.4 1.89 1.61 9.1477e-41
6.44 1.89 1.62 9.1477e-41
6.49 1.89 1.63 9.1477e-41
6.54 1.89 1.62 9.1477e-41
6.59 1.89 1.62 9.1477e-41
6.64 1.89 1.62 9.1477e-41
6.69 1.89 1.63 9.1477e-41
6.75 1.89 1.62 9.1477e-41
6.8 1.89 1.64 9.1477e-41
6.85 1.89 1.63 9.1477e-41
6.91 1.89 1.62 9.1477e-41
6.97 1.89 1.61 9.1477e-41
7.02 1.89 1.62 9.1477e-41
7.09 1.89 1.59 9.1477e-41
7.15 1.89 1.6 9.1477e-41
7.22 1.89 1.57 9.1477e-41
7.29 1.89 1.56 9.1477e-41
5.71 1.96 0.45 9.1477e-41
5.7 1.96 0.65 9.1477e-41
5.73 1.96 0.71 9.1477e-41
5.73 1.96 0.85 9.1477e-41
5.75 1.96 0.94 9.1477e-41
5.77 1.96 1.02 9.1477e-41
5.8 1.96 1.02 3.57e-43
5.83 1.96 1.02 3.57e-43
5.83 1.96 1.02 3.57e-43
5.85 1.96 1.02 3.57e-43
5.86 1.96 1.02 3.57e-43
5.88 1.96 1.44 9.1477e-41
5.89 1.96 1.52 9.1477e-41
5.92 1.96 1.56 9.1477e-41
5.95 1.96 1.6 9.1477e-41
5.98 1.96 1.61 9.1477e-41
6.03 1.96 1.6 9.1477e-41
6.07 1.96 1.62 9.1477e-41
6.11 1.96 1.63 9.1477e-41
6.15 1.96 1.65 9.1477e-41
6.2 1.96 1.63 9.1477e-41
6.24 1.96 1.64 9.1477e-41
6.29 1.96 1.63 9.1477e-41
6.33 1.96 1.64 9.1477e-41
6.37 1.96 1.66 9.1477e-41
6.43 1.96 1.65 9.1477e-41
6.48 1.96 1.65 9.1477e-41
6.53 1.96 1.65 9.1477e-41
6.58 1.96 1.64 9.1477e-41
6.63 1.96 1.65 9.1477e-41
6.67 1.96 1.66 9.1477e-41
6.73 1.96 1.65 9.1477e-41
6.78 1.96 1.65 9.1477e-41
6.83 1.96 1.66 9.1477e-41
6.89 1.96 1.65 9.1477e-41
6.95 1.96 1.64 9.1477e-41
7.01 1.96 1.63 9.1477e-41
7.06 1.96 1.63 9.1477e-41
7.13 1.96 1.62 9.1477e-41
7.19 1.96 1.61 9.1477e-41
7.25 1.96 1.61 9.1477e-41
7.33 1.96 1.59 9.1477e-41
5.71 2.03 0.45 9.1477e-41
5.7 2.03 0.64 9.1477e-41
5.73 2.03 0.72 9.1477e-41
5.73 2.03 0.85 9.1477e-41
5.75 2.03 0.95 9.1477e-41
5.76 2.03 1.03 9.1477e-41
5.8 2.03 1.03 3.57e-43
5.83 2.03 1.03 3.57e-43
5.83 2.03 1.03 3.57e-43
5.85 2.03 1.03 3.57e-43
5.86 2.03 1.03 3.57e-43
5.88 2.03 1.03 3.57e-43
5.89 2.03 1.52 9.1477e-41
5.91 2.03 1.56 9.1477e-41
5.94 2.03 1.61 9.1477e-41
5.97 2.03 1.63 9.1477e-41
6.02 2.03 1.62 9.1477e-41
6.06 2.03 1.64 9.1477e-41
6.1 2.03 1.65 9.1477e-41
6.14 2.03 1.66 9.1477e-41
6.18 2.03 1.67 9.1477e-41
6.23 2.03 1.67 9.1477e-41
6.28 2.03 1.66 9.1477e-41
6.32 2.03 1.67 9.1477e-41
6.36 2.03 1.67 9.1477e-41
6.41 2.03 1.67 9.1477e-41
6.47 2.03 1.67 9.1477e-41
6.51 2.03 1.67 9.1477e-41
6.56 2.03 1.68 9.1477e-41
6.61 2.03 1.67 9.1477e-41
6.65 2.03 1.68 9.1477e-41
6.71 2.03 1.69 9.1477e-41
6.77 2.03 1.67 9.1477e-41
6.82 2.03 1.68 9.1477e-41
6.87 2.03 1.67 9.1477e-41
6.92 2.03 1.68 9.1477e-41
6.99 2.03 1.67 9.1477e-41
7.04 2.03 1.66 9.1477e-41
7.1 2.03 1.66 9.1477e-41
7.17 2.03 1.64 9.1477e-41
7.23 2.03 1.63 9.1477e-41
7.31 2.03 1.62 9.1477e-41
5.71 2.1 0.45 9.1477e-41
5.7 2.1 0.65 9.1477e-41
5.73 2.1 0.72 9.1477e-41
5.74 2.1 0.84 9.1477e-41
5.75 2.1 0.95 9.1477e-41
5.76 2.1 1.04 9.1477e-41
5.8 2.1 1.04 3.57e-43
5.83 2.1 1.04 3.57e-43
5.83 2.1 1.04 3.57e-43
5.85 2.1 1.04 3.57e-43
5.86 2.1 1.04 3.57e-43
5.88 2.1 1.04 3.57e-43
5.89 2.1 1.52 9.1477e-41
5.91 2.1 1.57 9.1477e-41
5.94 2.1 1.62 9.1477e-41
5.96 2.1 1.66 9.1477e-41
6.01 2.1 1.64 9.1477e-41
6.05 2.1 1.66 9.1477e-41
6.09 2.1 1.67 9.1477e-41
6.13 2.1 1.67 9.1477e-41
6.17 2.1 1.67 9.1477e-41
6.22 2.1 1.68 9.1477e-41
6.26 2.1 1.69 9.1477e-41
6.31 2.1 1.69 9.1477e-41
6.35 2.1 1.69 9.1477e-41
6.4 2.1 1.69 9.1477e-41
6.45 2.1 1.7 9.1477e-41
6.5 2.1 1.69 9.1477e-41
6.55 2.1 1.69 9.1477e-41
6.59 2.1 1.7 9.1477e-41
6.65 2.1 1.7 9.1477e-41
6.7 2.1 1.69 9.1477e-41
6.75 2.1 1.7 9.1477e-41
6.8 2.1 1.71 9.1477e-41
6.86 2.1 1.7 9.1477e-41
6.91 2.1 1.7 9.1477e-41
6.97 2.1 1.69 9.1477e-41
7.03 2.1 1.68 9.1477e-41
7.09 2.1 1.68 9.1477e-41
7.15 2.1 1.67 9.1477e-41
7.21 2.1 1.66 9.1477e-41
7.28 2.1 1.65 9.1477e-41
5.71 2.17 0.46 9.1477e-41
5.7 2.17 0.65 9.1477e-41
5.72 2.17 0.73 9.1477e-41
5.74 2.17 0.84 9.1477e-41
5.74 2.17 0.96 9.1477e-41
5.76 2.17 1.05 9.1477e-41
5.79 2.17 1.08 9.1477e-41
5.83 2.17 1.08 3.57e-43
5.83 2.17 1.24 9.1477e-41
6.06 2.17 1.24 3.57e-43
5.86 2.17 1.24 3.57e-43
5.88 2.17 1.24 3.57e-43
5.89 2.17 1.52 9.1477e-41
5.91 2.17 1.58 9.1477e-41
5.93 2.17 1.63 9.1477e-41
5.97 2.17 1.65 9.1477e-41
6 2.17 1.67 9.1477e-41
6.05 2.17 1.67 9.1477e-41
6.08 2.17 1.68 9.1477e-41
6.12 2.17 1.69 9.1477e-41
6.17 2.17 1.7 9.1477e-41
6.21 2.17 1.7 9.1477e-41
6.25 2.17 1.7 9.1477e-41
6.29 2.17 1.71 9.1477e-41
6.34 2.17 1.71 9.1477e-41
6.39 2.17 1.71 9.1477e-41
6.44 2.17 1.72 9.1477e-41
6.49 2.17 1.72 9.1477e-41
6.54 2.17 1.71 9.1477e-41
6.58 2.17 1.72 9.1477e-41
6.63 2.17 1.72 9.1477e-41
6.69 2.17 1.71 9.1477e-41
6.74 2.17 1.72 9.1477e-41
6.79 2.17 1.71 9.1477e-41
6.85 2.17 1.72 9.1477e-41
6.9 2.17 1.72 9.1477e-41
6.96 2.17 1.71 9.1477e-41
7.02 2.17 1.7 9.1477e-41
7.08 2.17 1.69 9.1477e-41
7.14 2.17 1.68 9.1477e-41
7.19 2.17 1.68 9.1477e-41
7.27 2.17 1.66 9.1477e-41
5.71 2.24 0.46 9.1477e-41
5.7 2.24 0.66 9.1477e-41
5.73 2.24 0.72 9.1477e-41
5.74 2.24 0.83 9.1477e-41
5.75 2.24 0.93 9.1477e-41
5.76 2.24 1.04 9.1477e-41
5.78 2.24 1.11 9.1477e-41
5.82 2.24 1.11 3.57e-43
5.83 2.24 1.11 3.57e-43
6.06 2.24 1.11 3.57e-43
5.86 2.24 1.11 3.57e-43
5.88 2.24 1.44 9.1477e-41
6.14 2.24 0.93 9.1477e-41
5.91 2.24 1.59 9.1477e-41
5.93 2.24 1.62 9.1477e-41
5.96 2.24 1.66 9.1477e-41
5.99 2.24 1.69 9.1477e-41
6.04 2.24 1.68 9.1477e-41
6.08 2.24 1.69 9.1477e-41
6.12 2.24 1.69 9.1477e-41
6.16 2.24 1.72 9.1477e-41
6.21 2.24 1.71 9.1477e-41
6.25 2.24 1.72 9.1477e-41
6.29 2.24 1.71 9.1477e-41
6.34 2.24 1.72 9.1477e-41
6.38 2.24 1.74 9.1477e-41
6.44 2.24 1.72 9.1477e-41
6.48 2.24 1.73 9.1477e-41
6.53 2.24 1.72 9.1477e-41
6.58 2.24 1.72 9.1477e-41
6.62 2.24 1.74 9.1477e-41
6.68 2.24 1.73 9.1477e-41
6.73 2.24 1.73 9.1477e-41
6.78 2.24 1.73 9.1477e-41
6.84 2.24 1.73 9.1477e-41
6.89 2.24 1.72 9.1477e-41
6.95 2.24 1.72 9.1477e-41
7 2.24 1.72 9.1477e-41
7.06 2.24 1.71 9.1477e-41
7.13 2.24 1.7 9.1477e-41
7.18 2.24 1.7 9.1477e-41
7.26 2.24 1.67 9.1477e-41
5.71 2.31 0.46 9.1477e-41
5.7 2.31 0.65 9.1477e-41
5.73 2.31 0.72 9.1477e-41
5.74 2.31 0.84 9.1477e-41
5.74 2.31 0.97 9.1477e-41
5.76 2.31 1.05 9.1477e-41
5.78 2.31 1.12 9.1477e-41
5.8 2.31 1.17 9.1477e-41
5.84 2.31 1.17 3.57e-43
6.06 2.31 1.17 3.57e-43
5.86 2.31 1.17 3.57e-43
5.88 2.31 1.17 3.57e-43
6.14 2.31 0.93 9.1477e-41
5.91 2.31 1.59 9.1477e-41
5.93 2.31 1.62 9.1477e-41
5.96 2.31 1.67 9.1477e-41
5.98 2.31 1.7 9.1477e-41
6.03 2.31 1.69 9.1477e-41
6.07 2.31 1.71 9.1477e-41
6.11 2.31 1.72 9.1477e-41
6.16 2.31 1.72 9.1477e-41
6.2 2.31 1.73 9.1477e-41
6.24 2.31 1.73 9.1477e-41
6.28 2.31 1.74 9.1477e-41
6.33 2.31 1.73 9.1477e-41
6.37 2.31 1.75 9.1477e-41
6.43 2.31 1.74 9.1477e-41
6.47 2.31 1.74 9.1477e-41
6.52 2.31 1.74 9.1477e-41
6.57 2.31 1.74 9.1477e-41
6.62 2.31 1.74 9.1477e-41
6.67 2.31 1.75 9.1477e-41
6.72 2.31 1.74 9.1477e-41
6.78 2.31 1.73 9.1477e-41
6.82 2.31 1.75 9.1477e-41
6.88 2.31 1.74 9.1477e-41
6.94 2.31 1.73 9.1477e-41
7 2.31 1.72 9.1477e-41
7.05 2.31 1.73 9.1477e-41
7.12 2.31 1.71 9.1477e-41
7.17 2.31 1.71 9.1477e-41
7.24 2.31 1.69 9.1477e-41
7.31 2.31 1.69 9.1477e-41
5.71 2.38 0.46 9.1477e-41
5.7 2.38 0.65 9.1477e-41
5.73 2.38 0.72 9.1477e-41
5.73 2.38 0.86 9.1477e-41
5.74 2.38 0.96 9.1477e-41
5.76 2.38 1.05 9.1477e-41
5.78 2.38 1.12 9.1477e-41
5.79 2.38 1.21 9.1477e-41
5.82 2.38 1.26 9.1477e-41
5.84 2.38 1.33 9.1477e-41
5.86 2.38 1.33 3.57e-43
5.88 2.38 1.33 3.57e-43
6.14 2.38 0.93 9.1477e-41
5.9 2.38 1.61 9.1477e-41
5.93 2.38 1.62 9.1477e-41
5.96 2.38 1.67 9.1477e-41
5.98 2.38 1.7 9.1477e-41
6.02 2.38 1.71 9.1477e-41
6.06 2.38 1.72 9.1477e-41
6.11 2.38 1.72 9.1477e-41
6.15 2.38 1.74 9.1477e-41
6.19 2.38 1.74 9.1477e-41
6.23 2.38 1.75 9.1477e-41
6.28 2.38 1.74 9.1477e-41
6.33 2.38 1.73 9.1477e-41
6.37 2.38 1.75 9.1477e-41
6.42 2.38 1.75 9.1477e-41
6.47 2.38 1.75 9.1477e-41
6.52 2.38 1.75 9.1477e-41
6.56 2.38 1.75 9.1477e-41
6.61 2.38 1.75 9.1477e-41
6.67 2.38 1.74 9.1477e-41
6.71 2.38 1.75 9.1477e-41
6.77 2.38 1.75 9.1477e-41
6.82 2.38 1.76 9.1477e-41
6.88 2.38 1.75 9.1477e-41
6.93 2.38 1.75 9.1477e-41
6.98 2.38 1.75 9.1477e-41
7.05 2.38 1.73 9.1477e-41
7.1 2.38 1.73 9.1477e-41
7.17 2.38 1.71 9.1477e-41
7.24 2.38 1.7 9.1477e-41
7.3 2.38 1.71 9.1477e-41
5.72 2.45 0.44 9.1477e-41
5.7 2.45 0.66 9.1477e-41
5.73 2.45 0.72 9.1477e-41
5.73 2.45 0.85 9.1477e-41
5.74 2.45 0.96 9.1477e-41
5.76 2.45 1.05 9.1477e-41
5.77 2.45 1.13 9.1477e-41
5.79 2.45 1.21 9.1477e-41
5.81 2.45 1.27 9.1477e-41
5.82 2.45 1.35 9.1477e-41
5.85 2.45 1.41 9.1477e-41
5.87 2.45 1.47 9.1477e-41
5.88 2.45 1.53 9.1477e-41
5.91 2.45 1.57 9.1477e-41
5.93 2.45 1.64 9.1477e-41
5.95 2.45 1.68 9.1477e-41
5.98 2.45 1.71 9.1477e-41
6.02 2.45 1.72 9.1477e-41
6.07 2.45 1.71 9.1477e-41
6.1 2.45 1.74 9.1477e-41
6.15 2.45 1.74 9.1477e-41
6.18 2.45 1.76 9.1477e-41
6.23 2.45 1.75 9.1477e-41
6.28 2.45 1.75 9.1477e-41
6.32 2.45 1.75 9.1477e-41
6.37 2.45 1.75 9.1477e-41
6.42 2.45 1.76 9.1477e-41
6.47 2.45 1.75 9.1477e-41
6.51 2.45 1.76 9.1477e-41
6.56 2.45 1.75 9.1477e-41
6.61 2.45 1.76 9.1477e-41
6.66 2.45 1.75 9.1477e-41
6.7 2.45 1.77 9.1477e-41
6.76 2.45 1.76 9.1477e-41
6.81 2.45 1.77 9.1477e-41
6.87 2.45 1.76 9.1477e-41
6.92 2.45 1.76 9.1477e-41
6.98 2.45 1.76 9.1477e-41
7.04 2.45 1.74 9.1477e-41
7.1 2.45 1.74 9.1477e-41
7.16 2.45 1.73 9.1477e-41
7.23 2.45 1.71 9.1477e-41
7.29 2.45 1.72 9.1477e-41
5.71 2.52 0.45 9.1477e-41
5.7 2.52 0.65 9.1477e-41
5.73 2.52 0.72 9.1477e-41
5.73 2.52 0.85 9.1477e-41
5.74 2.52 0.96 9.1477e-41
5.76 2.52 1.04 9.1477e-41
5.77 2.52 1.13 9.1477e-41
5.79 2.52 1.21 9.1477e-41
5.81 2.52 1.28 9.1477e-41
5.83 2.52 1.33 9.1477e-41
5.84 2.52 1.42 9.1477e-41
5.86 2.52 1.48 9.1477e-41
5.89 2.52 1.52 9.1477e-41
5.91 2.52 1.59 9.1477e-41
5.93 2.52 1.64 9.1477e-41
5.95 2.52 1.68 9.1477e-41
5.98 2.52 1.72 9.1477e-41
6.02 2.52 1.72 9.1477e-41
6.05 2.52 1.74 9.1477e-41
6.09 2.52 1.75 9.1477e-41
6.14 2.52 1.75 9.1477e-41
6.18 2.52 1.76 9.1477e-41
6.23 2.52 1.76 9.1477e-41
6.27 2.52 1.76 9.1477e-41
6.32 2.52 1.76 9.1477e-41
6.37 2.52 1.76 9.1477e-41
6.41 2.52 1.77 9.1477e-41
6.46 2.52 1.77 9.1477e-41
6.5 2.52 1.77 9.1477e-41
6.55 2.52 1.77 9.1477e-41
6.6 2.52 1.76 9.1477e-41
6.65 2.52 1.78 9.1477e-41
6.7 2.52 1.77 9.1477e-41
6.76 2.52 1.77 9.1477e-41
6.81 2.52 1.77 9.1477e-41
6.86 2.52 1.77 9.1477e-41
6.92 2.52 1.76 9.1477e-41
6.97 2.52 1.77 9.1477e-41
7.03 2.52 1.75 9.1477e-41
7.09 2.52 1.74 9.1477e-41
7.15 2.52 1.75 9.1477e-41
7.22 2.52 1.73 9.1477e-41
7.28 2.52 1.72 9.1477e-41
5.71 2.59 0.45 9.1477e-41
5.7 2.59 0.64 9.1477e-41
5.73 2.59 0.72 9.1477e-41
5.74 2.59 0.84 9.1477e-41
5.74 2.59 0.97 9.1477e-41
5.76 2.59 1.05 9.1477e-41
5.77 2.59 1.13 9.1477e-41
5.81 2.59 1.13 3.57e-43
5.81 2.59 1.13 3.57e-43
5.83 2.59 1.33 9.1477e-41
5.85 2.59 1.4 9.1477e-41
5.87 2.59 1.45 9.1477e-41
5.89 2.59 1.52 9.1477e-41
5.91 2.59 1.58 9.1477e-41
5.93 2.59 1.64 9.1477e-41
5.95 2.59 1.69 9.1477e-41
5.98 2.59 1.71 9.1477e-41
6.01 2.59 1.74 9.1477e-41
6.06 2.59 1.73 9.1477e-41
6.1 2.59 1.74 9.1477e-41
6.14 2.59 1.76 9.1477e-41
6.18 2.59 1.76 9.1477e-41
6.22 2.59 1.77 9.1477e-41
6.27 2.59 1.76 9.1477e-41
6.31 2.59 1.77 9.1477e-41
6.36 2.59 1.76 9.1477e-41
6.41 2.59 1.77 9.1477e-41
6.46 2.59 1.77 9.1477e-41
6.5 2.59 1.77 9.1477e-41
6.55 2.59 1.78 9.1477e-41
6.6 2.59 1.77 9.1477e-41
6.65 2.59 1.78 9.1477e-41
6.7 2.59 1.78 9.1477e-41
6.75 2.59 1.77 9.1477e-41
6.8 2.59 1.78 9.1477e-41
6.85 2.59 1.78 9.1477e-41
6.92 2.59 1.76 9.1477e-41
6.97 2.59 1.77 9.1477e-41
7.03 2.59 1.76 9.1477e-41
7.08 2.59 1.76 9.1477e-41
7.15 2.59 1.75 9.1477e-41
7.21 2.59 1.73 9.1477e-41
7.28 2.59 1.73 9.1477e-41
5.71 2.66 0.45 9.1477e-41
5.7 2.66 0.64 9.1477e-41
5.72 2.66 0.73 9.1477e-41
5.73 2.66 0.85 9.1477e-41
5.75 2.66 0.94 9.1477e-41
5.76 2.66 1.05 9.1477e-41
5.78 2.66 1.05 3.57e-43
5.81 2.66 1.05 3.57e-43
5.81 2.66 1.05 3.57e-43
5.83 2.66 1.05 3.57e-43
5.85 2.66 1.05 3.57e-43
5.87 2.66 1.05 3.57e-43
5.89 2.66 1.05 3.57e-43
5.91 2.66 1.58 9.1477e-41
5.92 2.66 1.65 9.1477e-41
5.95 2.66 1.68 9.1477e-41
5.98 2.66 1.71 9.1477e-41
6.01 2.66 1.75 9.1477e-41
6.05 2.66 1.74 9.1477e-41
6.09 2.66 1.75 9.1477e-41
6.13 2.66 1.75 9.1477e-41
6.17 2.66 1.76 9.1477e-41
6.22 2.66 1.77 9.1477e-41
6.27 2.66 1.77 9.1477e-41
6.31 2.66 1.78 9.1477e-41
6.36 2.66 1.77 9.1477e-41
6.41 2.66 1.77 9.1477e-41
6.44 2.66 1.79 9.1477e-41
6.5 2.66 1.78 9.1477e-41
6.55 2.66 1.78 9.1477e-41
6.59 2.66 1.78 9.1477e-41
6.64 2.66 1.79 9.1477e-41
6.7 2.66 1.78 9.1477e-41
6.74 2.66 1.78 9.1477e-41
6.8 2.66 1.78 9.1477e-41
6.85 2.66 1.78 9.1477e-41
6.91 2.66 1.78 9.1477e-41
6.97 2.66 1.77 9.1477e-41
7.02 2.66 1.77 9.1477e-41
7.08 2.66 1.76 9.1477e-41
7.14 2.66 1.75 9.1477e-41
7.21 2.66 1.74 9.1477e-41
7.27 2.66 1.74 9.1477e-41
5.71 2.73 0.45 9.1477e-41
5.7 2.73 0.64 9.1477e-41
5.72 2.73 0.73 9.1477e-41
5.74 2.73 0.84 9.1477e-41
5.74 2.73 0.97 9.1477e-41
5.75 2.73 1.06 9.1477e-41
5.78 2.73 1.06 3.57e-43
5.81 2.73 1.06 3.57e-43
5.81 2.73 1.06 3.57e-43
5.83 2.73 1.06 3.57e-43
5.85 2.73 1.4 9.1477e-41
6.18 2.73 0.73 9.1477e-41
6.23 2.73 0.73 3.57e-43
5.91 2.73 1.59 9.1477e-41
5.92 2.73 1.64 9.1477e-41
5.95 2.73 1.69 9.1477e-41
5.98 2.73 1.72 9.1477e-41
6.01 2.73 1.75 9.1477e-41
6.05 2.73 1.74 9.1477e-41
6.09 2.73 1.75 9.1477e-41
6.13 2.73 1.75 9.1477e-41
6.17 2.73 1.76 9.1477e-41
6.22 2.73 1.77 9.1477e-41
6.26 2.73 1.78 9.1477e-41
6.31 2.73 1.78 9.1477e-41
6.36 2.73 1.77 9.1477e-41
6.4 2.73 1.77 9.1477e-41
6.44 2.73 1.79 9.1477e-41
6.5 2.73 1.78 9.1477e-41
6.54 2.73 1.78 9.1477e-41
6.59 2.73 1.78 9.1477e-41
6.64 2.73 1.79 9.1477e-41
6.69 2.73 1.78 9.1477e-41
6.74 2.73 1.79 9.1477e-41
6.8 2.73 1.78 9.1477e-41
6.85 2.73 1.79 9.1477e-41
6.91 2.73 1.78 9.1477e-41
6.96 2.73 1.78 9.1477e-41
7.02 2.73 1.77 9.1477e-41
7.08 2.73 1.77 9.1477e-41
7.13 2.73 1.76 9.1477e-41
7.2 2.73 1.75 9.1477e-41
7.27 2.73 1.75 9.1477e-41
5.72 2.8 0.44 9.1477e-41
5.7 2.8 0.64 9.1477e-41
5.72 2.8 0.73 9.1477e-41
5.73 2.8 0.85 9.1477e-41
5.75 2.8 0.95 9.1477e-41
5.76 2.8 1.05 9.1477e-41
5.79 2.8 1.05 3.57e-43
5.81 2.8 1.05 3.57e-43
5.81 2.8 1.05 3.57e-43
5.83 2.8 1.05 3.57e-43
5.85 2.8 1.05 3.57e-43
6.18 2.8 1.05 3.57e-43
6.23 2.8 1.05 3.57e-43
5.91 2.8 1.59 9.1477e-41
5.92 2.8 1.64 9.1477e-41
5.95 2.8 1.69 9.1477e-41
5.98 2.8 1.72 9.1477e-41
6 2.8 1.76 9.1477e-41
6.05 2.8 1.75 9.1477e-41
6.09 2.8 1.75 9.1477e-41
6.13 2.8 1.76 9.1477e-41
6.17 2.8 1.76 9.1477e-41
6.22 2.8 1.77 9.1477e-41
6.26 2.8 1.78 9.1477e-41
6.31 2.8 1.78 9.1477e-41
6.35 2.8 1.78 9.1477e-41
6.4 2.8 1.78 9.1477e-41
6.44 2.8 1.79 9.1477e-41
6.48 2.8 1.8 9.1477e-41
6.54 2.8 1.78 9.1477e-41
6.59 2.8 1.79 9.1477e-41
6.64 2.8 1.8 9.1477e-41
6.69 2.8 1.78 9.1477e-41
6.74 2.8 1.79 9.1477e-41
6.79 2.8 1.79 9.1477e-41
6.84 2.8 1.8 9.1477e-41
6.9 2.8 1.79 9.1477e-41
6.95 2.8 1.79 9.1477e-41
7.02 2.8 1.77 9.1477e-41
7.07 2.8 1.78 9.1477e-41
7.13 2.8 1.77 9.1477e-41
7.19 2.8 1.76 9.1477e-41
7.27 2.8 1.75 9.1477e-41
5.72 2.87 0.44 9.1477e-41
5.71 2.87 0.62 9.1477e-41
5.72 2.87 0.73 9.1477e-41
5.74 2.87 0.84 9.1477e-41
5.74 2.87 0.96 9.1477e-41
5.76 2.87 1.05 9.1477e-41
5.79 2.87 1.05 3.57e-43
5.81 2.87 1.05 3.57e-43
5.81 2.87 1.05 3.57e-43
5.83 2.87 1.05 3.57e-43
5.85 2.87 1.05 3.57e-43
6.18 2.87 1.05 3.57e-43
6.23 2.87 1.05 3.57e-43
5.91 2.87 1.59 9.1477e-41
5.92 2.87 1.65 9.1477e-41
5.95 2.87 1.69 9.1477e-41
5.97 2.87 1.73 9.1477e-41
6.01 2.87 1.75 9.1477e-41
6.05 2.87 1.76 9.1477e-41
6.09 2.87 1.75 9.1477e-41
6.12 2.87 1.77 9.1477e-41
6.17 2.87 1.77 9.1477e-41
6.21 2.87 1.78 9.1477e-41
6.26 2.87 1.78 9.1477e-41
6.3 2.87 1.79 9.1477e-41
6.35 2.87 1.79 9.1477e-41
6.4 2.87 1.79 9.1477e-41
6.44 2.87 1.79 9.1477e-41
6.49 2.87 1.79 9.1477e-41
6.54 2.87 1.79 9.1477e-41
6.58 2.87 1.8 9.1477e-41
6.63 2.87 1.8 9.1477e-41
6.68 2.87 1.8 9.1477e-41
6.74 2.87 1.79 9.1477e-41
6.78 2.87 1.8 9.1477e-41
6.84 2.87 1.8 9.1477e-41
6.89 2.87 1.8 9.1477e-41
6.95 2.87 1.8 9.1477e-41
7.01 2.87 1.78 9.1477e-41
7.06 2.87 1.78 9.1477e-41
7.13 2.87 1.77 9.1477e-41
7.19 2.87 1.76 9.1477e-41
7.26 2.87 1.75 9.1477e-41
5.72 2.94 0.44 9.1477e-41
5.71 2.94 0.63 9.1477e-41
5.73 2.94 0.72 9.1477e-41
5.74 2.94 0.84 9.1477e-41
5.75 2.94 0.95 9.1477e-41
5.76 2.94 1.05 9.1477e-41
5.78 2.94 1.05 3.57e-43
5.81 2.94 1.05 3.57e-43
5.81 2.94 1.05 3.57e-43
5.83 2.94 1.05 3.57e-43
5.85 2.94 1.05 3.57e-43
6.18 2.94 1.05 3.57e-43
6.23 2.94 1.05 3.57e-43
5.91 2.94 1.59 9.1477e-41
5.92 2.94 1.65 9.1477e-41
5.94 2.94 1.7 9.1477e-41
5.98 2.94 1.72 9.1477e-41
6 2.94 1.77 9.1477e-41
6.04 2.94 1.76 9.1477e-41
6.09 2.94 1.75 9.1477e-41
6.12 2.94 1.77 9.1477e-41
6.16 2.94 1.78 9.1477e-41
6.21 2.94 1.78 9.1477e-41
6.26 2.94 1.78 9.1477e-41
6.3 2.94 1.79 9.1477e-41
6.35 2.94 1.79 9.1477e-41
6.39 2.94 1.8 9.1477e-41
6.43 2.94 1.8 9.1477e-41
6.48 2.94 1.81 9.1477e-41
6.53 2.94 1.8 9.1477e-41
6.59 2.94 1.79 9.1477e-41
6.63 2.94 1.8 9.1477e-41
6.69 2.94 1.79 9.1477e-41
6.73 2.94 1.8 9.1477e-41
6.78 2.94 1.81 9.1477e-41
6.84 2.94 1.8 9.1477e-41
6.89 2.94 1.8 9.1477e-41
6.94 2.94 1.81 9.1477e-41
7 2.94 1.79 9.1477e-41
7.07 2.94 1.78 9.1477e-41
7.12 2.94 1.78 9.1477e-41
7.19 2.94 1.76 9.1477e-41
7.26 2.94 1.75 9.1477e-41
5.72 3.01 0.43 9.1477e-41
5.72 3.01 0.6 9.1477e-41
5.73 3.01 0.72 9.1477e-41
5.74 3.01 0.84 9.1477e-41
5.75 3.01 0.95 9.1477e-41
5.76 3.01 1.05 9.1477e-41
5.78 3.01 1.05 3.57e-43
5.81 3.01 1.05 3.57e-43
5.81 3.01 1.05 3.57e-43
5.83 3.01 1.05 3.57e-43
5.85 3.01 1.05 3.57e-43
6.18 3.01 1.05 3.57e-43
6.23 3.01 1.05 3.57e-43
5.91 3.01 1.59 9.1477e-41
5.92 3.01 1.65 9.1477e-41
5.94 3.01 1.7 9.1477e-41
5.98 3.01 1.72 9.1477e-41
6 3.01 1.76 9.1477e-41
6.04 3.01 1.76 9.1477e-41
6.09 3.01 1.76 9.1477e-41
6.12 3.01 1.78 9.1477e-41
6.16 3.01 1.78 9.1477e-41
6.21 3.01 1.79 9.1477e-41
6.25 3.01 1.79 9.1477e-41
6.3 3.01 1.79 9.1477e-41
6.34 3.01 1.8 9.1477e-41
6.39 3.01 1.8 9.1477e-41
6.43 3.01 1.8 9.1477e-41
6.48 3.01 1.81 9.1477e-41
6.53 3.01 1.8 9.1477e-41
6.58 3.01 1.8 9.1477e-41
6.63 3.01 1.81 9.1477e-41
6.68 3.01 1.81 9.1477e-41
6.73 3.01 1.81 9.1477e-41
6.78 3.01 1.81 9.1477e-41
6.84 3.01 1.81 9.1477e-41
6.89 3.01 1.8 9.1477e-41
6.95 3.01 1.79 9.1477e-41
7.01 3.01 1.78 9.1477e-41
7.06 3.01 1.79 9.1477e-41
7.12 3.01 1.78 9.1477e-41
7.18 3.01 1.77 9.1477e-41
7.26 3.01 1.74 9.1477e-41
5.72 3.08 0.42 9.1477e-41
5.72 3.08 0.59 9.1477e-41
5.72 3.08 0.73 9.1477e-41
5.74 3.08 0.84 9.1477e-41
5.75 3.08 0.95 9.1477e-41
5.76 3.08 1.05 9.1477e-41
5.78 3.08 1.05 3.57e-43
5.81 3.08 1.05 3.57e-43
5.81 3.08 1.05 3.57e-43
5.83 3.08 1.05 3.57e-43
5.85 3.08 1.05 3.57e-43
6.18 3.08 1.05 3.57e-43
6.23 3.08 1.05 3.57e-43
5.91 3.08 1.59 9.1477e-41
5.92 3.08 1.65 9.1477e-41
5.94 3.08 1.7 9.1477e-41
5.98 3.08 1.72 9.1477e-41
6 3.08 1.76 9.1477e-41
6.04 3.08 1.76 9.1477e-41
6.09 3.08 1.75 9.1477e-41
6.12 3.08 1.78 9.1477e-41
6.16 3.08 1.78 9.1477e-41
6.21 3.08 1.79 9.1477e-41
6.25 3.08 1.79 9.1477e-41
6.29 3.08 1.8 9.1477e-41
6.34 3.08 1.8 9.1477e-41
6.39 3.08 1.81 9.1477e-41
6.44 3.08 1.79 9.1477e-41
6.48 3.08 1.8 9.1477e-41
6.52 3.08 1.81 9.1477e-41
6.58 3.08 1.81 9.1477e-41
6.63 3.08 1.81 9.1477e-41
6.68 3.08 1.81 9.1477e-41
6.73 3.08 1.81 9.1477e-41
6.78 3.08 1.81 9.1477e-41
6.84 3.08 1.81 9.1477e-41
6.89 3.08 1.81 9.1477e-41
6.95 3.08 1.8 9.1477e-41
7 3.08 1.8 9.1477e-41
7.06 3.08 1.79 9.1477e-41
7.12 3.08 1.79 9.1477e-41
7.18 3.08 1.78 9.1477e-41
7.25 3.08 1.75 9.1477e-41
5.72 3.15 0.43 9.1477e-41
5.72 3.15 0.58 9.1477e-41
5.72 3.15 0.73 9.1477e-41
5.74 3.15 0.84 9.1477e-41
5.75 3.15 0.94 9.1477e-41
5.76 3.15 1.05 9.1477e-41
5.78 3.15 1.05 3.57e-43
5.81 3.15 1.05 3.57e-43
5.81 3.15 1.05 3.57e-43
5.83 3.15 1.05 3.57e-43
5.85 3.15 1.4 9.1477e-41
5.96 3.15 1.25 9.1477e-41
6 3.15 1.25 3.57e-43
5.91 3.15 1.58 9.1477e-41
5.91 3.15 1.66 9.1477e-41
5.94 3.15 1.7 9.1477e-41
5.97 3.15 1.73 9.1477e-41
6 3.15 1.76 9.1477e-41
6.04 3.15 1.77 9.1477e-41
6.08 3.15 1.77 9.1477e-41
6.12 3.15 1.78 9.1477e-41
6.16 3.15 1.79 9.1477e-41
6.21 3.15 1.79 9.1477e-41
6.25 3.15 1.8 9.1477e-41
6.3 3.15 1.79 9.1477e-41
6.34 3.15 1.8 9.1477e-41
6.39 3.15 1.81 9.1477e-41
6.43 3.15 1.81 9.1477e-41
6.48 3.15 1.81 9.1477e-41
6.52 3.15 1.81 9.1477e-41
6.57 3.15 1.81 9.1477e-41
6.63 3.15 1.81 9.1477e-41
6.68 3.15 1.81 9.1477e-41
6.73 3.15 1.8 9.1477e-41
6.78 3.15 1.81 9.1477e-41
6.83 3.15 1.81 9.1477e-41
6.88 3.15 1.81 9.1477e-41
6.94 3.15 1.81 9.1477e-41
7 3.15 1.8 9.1477e-41
7.05 3.15 1.8 9.1477e-41
7.12 3.15 1.79 9.1477e-41
7.18 3.15 1.77 9.1477e-41
7.25 3.15 1.76 9.1477e-41
5.72 3.22 0.43 9.1477e-41
5.71 3.22 0.63 9.1477e-41
5.72 3.22 0.73 9.1477e-41
5.74 3.22 0.83 9.1477e-41
5.75 3.22 0.94 9.1477e-41
5.76 3.22 1.04 9.1477e-41
5.78 3.22 1.04 3.57e-43
5.81 3.22 1.04 3.57e-43
5.81 3.22 1.04 3.57e-43
5.83 3.22 1.04 3.57e-43
5.85 3.22 1.04 3.57e-43
5.96 3.22 1.04 3.57e-43
6 3.22 1.04 3.57e-43
5.91 3.22 1.58 9.1477e-41
5.92 3.22 1.64 9.1477e-41
5.94 3.22 1.7 9.1477e-41
5.97 3.22 1.73 9.1477e-41
6 3.22 1.76 9.1477e-41
6.04 3.22 1.77 9.1477e-41
6.08 3.22 1.78 9.1477e-41
6.12 3.22 1.77 9.1477e-41
6.16 3.22 1.79 9.1477e-41
6.2 3.22 1.8 9.1477e-41
6.25 3.22 1.79 9.1477e-41
6.29 3.22 1.8 9.1477e-41
6.34 3.22 1.8 9.1477e-41
6.38 3.22 1.82 9.1477e-41
6.43 3.22 1.8 9.1477e-41
6.48 3.22 1.81 9.1477e-41
6.52 3.22 1.82 9.1477e-41
6.58 3.22 1.81 9.1477e-41
6.62 3.22 1.82 9.1477e-41
6.68 3.22 1.81 9.1477e-41
6.72 3.22 1.82 9.1477e-41
6.78 3.22 1.81 9.1477e-41
6.83 3.22 1.82 9.1477e-41
6.89 3.22 1.81 9.1477e-41
6.94 3.22 1.81 9.1477e-41
6.99 3.22 1.81 9.1477e-41
7.06 3.22 1.79 9.1477e-41
7.12 3.22 1.78 9.1477e-41
7.18 3.22 1.78 9.1477e-41
7.25 3.22 1.76 9.1477e-41
5.71 3.29 0.63 9.1477e-41
5.72 3.29 0.73 9.1477e-41
5.74 3.29 0.82 9.1477e-41
5.75 3.29 0.94 9.1477e-41
5.76 3.29 1.03 9.1477e-41
5.78 3.29 1.03 3.57e-43
5.81 3.29 1.03 3.57e-43
5.81 3.29 1.03 3.57e-43
5.83 3.29 1.03 3.57e-43
5.85 3.29 1.03 3.57e-43
5.96 3.29 1.03 3.57e-43
6 3.29 1.03 3.57e-43
5.91 3.29 1.58 9.1477e-41
5.92 3.29 1.65 9.1477e-41
5.95 3.29 1.69 9.1477e-41
5.98 3.29 1.72 9.1477e-41
6 3.29 1.77 9.1477e-41
6.03 3.29 1.78 9.1477e-41
6.08 3.29 1.77 9.1477e-41
6.12 3.29 1.78 9.1477e-41
6.16 3.29 1.8 9.1477e-41
6.21 3.29 1.79 9.1477e-41
6.25 3.29 1.8 9.1477e-41
6.29 3.29 1.8 9.1477e-41
6.34 3.29 1.8 9.1477e-41
6.39 3.29 1.81 9.1477e-41
6.43 3.29 1.8 9.1477e-41
6.47 3.29 1.82 9.1477e-41
6.52 3.29 1.81 9.1477e-41
6.58 3.29 1.81 9.1477e-41
6.63 3.29 1.81 9.1477e-41
6.68 3.29 1.81 9.1477e-41
6.72 3.29 1.82 9.1477e-41
6.77 3.29 1.82 9.1477e-41
6.83 3.29 1.82 9.1477e-41
6.88 3.29 1.81 9.1477e-41
6.94 3.29 1.81 9.1477e-41
7 3.29 1.8 9.1477e-41
7.05 3.29 1.8 9.1477e-41
7.11 3.29 1.79 9.1477e-41
7.18 3.29 1.78 9.1477e-41
7.25 3.29 1.77 9.1477e-41
5.7 3.36 0.64 9.1477e-41
5.72 3.36 0.75 9.1477e-41
5.74 3.36 0.84 9.1477e-41
5.75 3.36 0.94 9.1477e-41
5.76 3.36 1.03 9.1477e-41
5.78 3.36 1.1 9.1477e-41
5.82 3.36 1.1 3.57e-43
5.81 3.36 1.1 3.57e-43
5.83 3.36 1.1 3.57e-43
5.85 3.36 1.1 3.57e-43
5.96 3.36 1.1 3.57e-43
6 3.36 1.1 3.57e-43
5.91 3.36 1.58 9.1477e-41
5.91 3.36 1.66 9.1477e-41
5.95 3.36 1.69 9.1477e-41
5.97 3.36 1.73 9.1477e-41
6 3.36 1.76 9.1477e-41
6.03 3.36 1.78 9.1477e-41
6.08 3.36 1.77 9.1477e-41
6.12 3.36 1.78 9.1477e-41
6.16 3.36 1.8 9.1477e-41
6.21 3.36 1.79 9.1477e-41
6.24 3.36 1.81 9.1477e-41
6.29 3.36 1.8 9.1477e-41
6.34 3.36 1.8 9.1477e-41
6.38 3.36 1.82 9.1477e-41
6.42 3.36 1.82 9.1477e-41
6.47 3.36 1.81 9.1477e-41
6.52 3.36 1.82 9.1477e-41
6.57 3.36 1.81 9.1477e-41
6.62 3.36 1.82 9.1477e-41
6.67 3.36 1.83 9.1477e-41
6.72 3.36 1.82 9.1477e-41
6.78 3.36 1.81 9.1477e-41
6.83 3.36 1.82 9.1477e-41
6.88 3.36 1.81 9.1477e-41
6.93 3.36 1.82 9.1477e-41
6.99 3.36 1.81 9.1477e-41
7.05 3.36 1.8 9.1477e-41
7.12 3.36 1.79 9.1477e-41
7.18 3.36 1.78 9.1477e-41
7.25 3.36 1.76 9.1477e-41
5.72 3.43 0.43 9.1477e-41
5.71 3.43 0.63 9.1477e-41
5.72 3.43 0.75 9.1477e-41
5.73 3.43 0.85 9.1477e-41
5.75 3.43 0.93 9.1477e-41
5.76 3.43 1.04 9.1477e-41
5.78 3.43 1.1 9.1477e-41
5.8 3.43 1.1 3.57e-43
5.81 3.43 1.1 3.57e-43
5.83 3.43 1.1 3.57e-43
5.85 3.43 1.1 3.57e-43
5.96 3.43 1.1 3.57e-43
6 3.43 1.1 3.57e-43
5.91 3.43 1.58 9.1477e-41
5.91 3.43 1.66 9.1477e-41
5.94 3.43 1.71 9.1477e-41
5.97 3.43 1.73 9.1477e-41
6 3.43 1.76 9.1477e-41
6.04 3.43 1.77 9.1477e-41
6.08 3.43 1.77 9.1477e-41
6.12 3.43 1.78 9.1477e-41
6.16 3.43 1.8 9.1477e-41
6.2 3.43 1.8 9.1477e-41
6.24 3.43 1.81 9.1477e-41
6.29 3.43 1.8 9.1477e-41
6.34 3.43 1.8 9.1477e-41
6.39 3.43 1.81 9.1477e-41
6.42 3.43 1.82 9.1477e-41
6.47 3.43 1.81 9.1477e-41
6.52 3.43 1.81 9.1477e-41
6.58 3.43 1.81 9.1477e-41
6.62 3.43 1.82 9.1477e-41
6.67 3.43 1.82 9.1477e-41
6.73 3.43 1.81 9.1477e-41
6.77 3.43 1.81 9.1477e-41
6.83 3.43 1.81 9.1477e-41
6.88 3.43 1.81 9.1477e-41
6.94 3.43 1.81 9.1477e-41
6.99 3.43 1.81 9.1477e-41
7.05 3.43 1.8 9.1477e-41
7.11 3.43 1.79 9.1477e-41
7.16 3.43 1.8 9.1477e-41
7.25 3.43 1.76 9.1477e-41
5.73 3.5 0.55 9.1477e-41
5.71 3.5 0.77 9.1477e-41
5.73 3.5 0.86 9.1477e-41
5.75 3.5 0.93 9.1477e-41
5.76 3.5 1.04 9.1477e-41
5.77 3.5 1.15 9.1477e-41
5.79 3.5 1.15 3.57e-43
5.81 3.5 1.15 3.57e-43
5.83 3.5 1.15 3.57e-43
5.85 3.5 1.15 3.57e-43
5.96 3.5 1.15 3.57e-43
6 3.5 1.15 3.57e-43
5.91 3.5 1.58 9.1477e-41
5.91 3.5 1.66 9.1477e-41
5.94 3.5 1.7 9.1477e-41
5.98 3.5 1.72 9.1477e-41
6 3.5 1.76 9.1477e-41
6.04 3.5 1.77 9.1477e-41
6.08 3.5 1.77 9.1477e-41
6.12 3.5 1.78 9.1477e-41
6.16 3.5 1.8 9.1477e-41
6.2 3.5 1.8 9.1477e-41
6.25 3.5 1.8 9.1477e-41
6.3 3.5 1.79 9.1477e-41
6.34 3.5 1.8 9.1477e-41
6.38 3.5 1.82 9.1477e-41
6.43 3.5 1.81 9.1477e-41
6.48 3.5 1.81 9.1477e-41
6.52 3.5 1.82 9.1477e-41
6.58 3.5 1.81 9.1477e-41
6.62 3.5 1.82 9.1477e-41
6.67 3.5 1.82 9.1477e-41
6.72 3.5 1.82 9.1477e-41
6.77 3.5 1.82 9.1477e-41
6.83 3.5 1.82 9.1477e-41
6.88 3.5 1.82 9.1477e-41
6.94 3.5 1.81 9.1477e-41
6.99 3.5 1.81 9.1477e-41
7.05 3.5 1.8 9.1477e-41
7.1 3.5 1.8 9.1477e-41
7.18 3.5 1.78 9.1477e-41
7.24 3.5 1.77 9.1477e-41
5.73 3.57 0.55 9.1477e-41
5.71 3.57 0.77 9.1477e-41
5.73 3.57 0.86 9.1477e-41
5.75 3.57 0.94 9.1477e-41
5.76 3.57 1.04 9.1477e-41
5.78 3.57 1.12 9.1477e-41
5.79 3.57 1.12 3.57e-43
5.81 3.57 1.12 3.57e-43
5.83 3.57 1.12 3.57e-43
5.85 3.57 1.12 3.57e-43
5.96 3.57 1.12 3.57e-43
6 3.57 1.12 3.57e-43
5.91 3.57 1.58 9.1477e-41
5.92 3.57 1.65 9.1477e-41
5.95 3.57 1.69 9.1477e-41
5.98 3.57 1.72 9.1477e-41
6 3.57 1.76 9.1477e-41
6.03 3.57 1.78 9.1477e-41
6.08 3.57 1.77 9.1477e-41
6.12 3.57 1.79 9.1477e-41
6.16 3.57 1.8 9.1477e-41
6.2 3.57 1.8 9.1477e-41
6.25 3.57 1.8 9.1477e-41
6.29 3.57 1.81 9.1477e-41
6.34 3.57 1.8 9.1477e-41
6.38 3.57 1.83 9.1477e-41
6.42 3.57 1.82 9.1477e-41
6.48 3.57 1.81 9.1477e-41
6.52 3.57 1.82 9.1477e-41
6.57 3.57 1.81 9.1477e-41
6.62 3.57 1.82 9.1477e-41
6.68 3.57 1.81 9.1477e-41
6.72 3.57 1.82 9.1477e-41
6.77 3.57 1.81 9.1477e-41
6.83 3.57 1.82 9.1477e-41
6.88 3.57 1.81 9.1477e-41
6.93 3.57 1.81 9.1477e-41
6.99 3.57 1.81 9.1477e-41
7.05 3.57 1.8 9.1477e-41
7.1 3.57 1.8 9.1477e-41
7.18 3.57 1.77 9.1477e-41
7.24 3.57 1.77 9.1477e-41
5.74 3.64 0.53 9.1477e-41
5.71 3.64 0.78 9.1477e-41
5.73 3.64 0.86 9.1477e-41
5.75 3.64 0.94 9.1477e-41
5.76 3.64 1.03 9.1477e-41
5.78 3.64 1.11 9.1477e-41
5.79 3.64 1.21 9.1477e-41
5.83 3.64 1.21 3.57e-43
5.83 3.64 1.21 3.57e-43
5.85 3.64 1.21 3.57e-43
5.96 3.64 1.21 3.57e-43
6 3.64 1.21 3.57e-43
5.91 3.64 1.58 9.1477e-41
5.91 3.64 1.66 9.1477e-41
5.95 3.64 1.68 9.1477e-41
5.98 3.64 1.72 9.1477e-41
6 3.64 1.76 9.1477e-41
6.04 3.64 1.77 9.1477e-41
6.08 3.64 1.77 9.1477e-41
6.12 3.64 1.77 9.1477e-41
6.16 3.64 1.8 9.1477e-41
6.2 3.64 1.8 9.1477e-41
6.25 3.64 1.8 9.1477e-41
6.29 3.64 1.8 9.1477e-41
6.34 3.64 1.8 9.1477e-41
6.38 3.64 1.82 9.1477e-41
6.43 3.64 1.81 9.1477e-41
6.47 3.64 1.81 9.1477e-41
6.52 3.64 1.81 9.1477e-41
6.57 3.64 1.81 9.1477e-41
6.63 3.64 1.81 9.1477e-41
6.67 3.64 1.82 9.1477e-41
6.72 3.64 1.82 9.1477e-41
6.77 3.64 1.81 9.1477e-41
6.83 3.64 1.81 9.1477e-41
6.88 3.64 1.81 9.1477e-41
6.94 3.64 1.81 9.1477e-41
7 3.64 1.8 9.1477e-41
7.06 3.64 1.79 9.1477e-41
7.11 3.64 1.79 9.1477e-41
7.18 3.64 1.78 9.1477e-41
7.24 3.64 1.77 9.1477e-41
5.74 3.71 0.54 9.1477e-41
5.71 3.71 0.77 9.1477e-41
5.73 3.71 0.85 9.1477e-41
5.75 3.71 0.94 9.1477e-41
5.76 3.71 1.03 9.1477e-41
5.78 3.71 1.11 9.1477e-41
5.79 3.71 1.21 9.1477e-41
5.84 3.71 1.21 3.57e-43
5.83 3.71 1.21 3.57e-43
5.85 3.71 1.21 3.57e-43
5.96 3.71 1.21 3.57e-43
6 3.71 1.21 3.57e-43
5.91 3.71 1.58 9.1477e-41
5.92 3.71 1.65 9.1477e-41
5.95 3.71 1.69 9.1477e-41
5.97 3.71 1.73 9.1477e-41
6.01 3.71 1.75 9.1477e-41
6.04 3.71 1.77 9.1477e-41
6.08 3.71 1.77 9.1477e-41
6.12 3.71 1.78 9.1477e-41
6.16 3.71 1.8 9.1477e-41
6.2 3.71 1.81 9.1477e-41
6.25 3.71 1.8 9.1477e-41
6.3 3.71 1.79 9.1477e-41
6.34 3.71 1.8 9.1477e-41
6.38 3.71 1.82 9.1477e-41
6.43 3.71 1.81 9.1477e-41
6.47 3.71 1.81 9.1477e-41
6.52 3.71 1.82 9.1477e-41
6.58 3.71 1.8 9.1477e-41
6.62 3.71 1.82 9.1477e-41
6.68 3.71 1.81 9.1477e-41
6.73 3.71 1.81 9.1477e-41
6.78 3.71 1.81 9.1477e-41
6.83 3.71 1.81 9.1477e-41
6.88 3.71 1.81 9.1477e-41
6.94 3.71 1.81 9.1477e-41
6.99 3.71 1.81 9.1477e-41
7.05 3.71 1.8 9.1477e-41
7.12 3.71 1.79 9.1477e-41
7.18 3.71 1.78 9.1477e-41
7.24 3.71 1.77 9.1477e-41
5.74 3.78 0.54 9.1477e-41
5.71 3.78 0.76 9.1477e-41
5.73 3.78 0.85 9.1477e-41
5.75 3.78 0.94 9.1477e-41
5.76 3.78 1.03 9.1477e-41
5.78 3.78 1.1 9.1477e-41
5.79 3.78 1.2 9.1477e-41
5.84 3.78 1.2 3.57e-43
5.83 3.78 1.2 3.57e-43
5.85 3.78 1.2 3.57e-43
5.96 3.78 1.2 3.57e-43
6 3.78 1.2 3.57e-43
5.91 3.78 1.58 9.1477e-41
5.93 3.78 1.63 9.1477e-41
5.95 3.78 1.68 9.1477e-41
5.98 3.78 1.72 9.1477e-41
6 3.78 1.76 9.1477e-41
6.04 3.78 1.77 9.1477e-41
6.08 3.78 1.77 9.1477e-41
6.12 3.78 1.78 9.1477e-41
6.16 3.78 1.8 9.1477e-41
6.2 3.78 1.8 9.1477e-41
6.25 3.78 1.8 9.1477e-41
6.3 3.78 1.79 9.1477e-41
6.34 3.78 1.8 9.1477e-41
6.38 3.78 1.82 9.1477e-41
6.43 3.78 1.8 9.1477e-41
6.48 3.78 1.81 9.1477e-41
6.53 3.78 1.8 9.1477e-41
6.57 3.78 1.81 9.1477e-41
6.62 3.78 1.82 9.1477e-41
6.67 3.78 1.82 9.1477e-41
6.72 3.78 1.82 9.1477e-41
6.77 3.78 1.81 9.1477e-41
6.83 3.78 1.81 9.1477e-41
6.88 3.78 1.81 9.1477e-41
6.94 3.78 1.81 9.1477e-41
6.99 3.78 1.81 9.1477e-41
7.05 3.78 1.8 9.1477e-41
7.11 3.78 1.79 9.1477e-41
7.18 3.78 1.78 9.1477e-41
7.25 3.78 1.76 9.1477e-41
5.73 3.85 0.55 9.1477e-41
5.72 3.85 0.74 9.1477e-41
5.74 3.85 0.82 9.1477e-41
5.76 3.85 0.92 9.1477e-41
5.77 3.85 1.01 9.1477e-41
5.78 3.85 1.1 9.1477e-41
5.79 3.85 1.2 9.1477e-41
5.83 3.85 1.2 3.57e-43
5.83 3.85 1.2 3.57e-43
5.85 3.85 1.2 3.57e-43
5.96 3.85 1.2 3.57e-43
6 3.85 1.2 3.57e-43
5.91 3.85 1.58 9.1477e-41
5.93 3.85 1.62 9.1477e-41
5.96 3.85 1.67 9.1477e-41
5.98 3.85 1.71 9.1477e-41
6.01 3.85 1.75 9.1477e-41
6.04 3.85 1.77 9.1477e-41
6.08 3.85 1.77 9.1477e-41
6.12 3.85 1.77 9.1477e-41
6.16 3.85 1.79 9.1477e-41
6.2 3.85 1.81 9.1477e-41
6.25 3.85 1.8 9.1477e-41
6.29 3.85 1.8 9.1477e-41
6.34 3.85 1.8 9.1477e-41
6.38 3.85 1.82 9.1477e-41
6.43 3.85 1.81 9.1477e-41
6.47 3.85 1.81 9.1477e-41
6.52 3.85 1.81 9.1477e-41
6.58 3.85 1.81 9.1477e-41
6.63 3.85 1.81 9.1477e-41
6.68 3.85 1.81 9.1477e-41
6.72 3.85 1.82 9.1477e-41
6.78 3.85 1.81 9.1477e-41
6.83 3.85 1.81 9.1477e-41
6.89 3.85 1.81 9.1477e-41
6.94 3.85 1.81 9.1477e-41
6.99 3.85 1.81 9.1477e-41
7.05 3.85 1.8 9.1477e-41
7.11 3.85 1.79 9.1477e-41
7.18 3.85 1.78 9.1477e-41
7.25 3.85 1.77 9.1477e-41
5.72 3.92 0.42 9.1477e-41
5.71 3.92 0.61 9.1477e-41
5.72 3.92 0.73 9.1477e-41
5.74 3.92 0.83 9.1477e-41
5.76 3.92 0.91 9.1477e-41
5.77 3.92 1.01 9.1477e-41
5.79 3.92 1.09 9.1477e-41
5.79 3.92 1.21 9.1477e-41
5.83 3.92 1.21 3.57e-43
5.83 3.92 1.21 3.57e-43
5.85 3.92 1.21 3.57e-43
5.96 3.92 1.21 3.57e-43
6 3.92 1.26 9.1477e-41
5.9 3.92 1.59 9.1477e-41
5.93 3.92 1.62 9.1477e-41
5.95 3.92 1.68 9.1477e-41
5.98 3.92 1.71 9.1477e-41
6.01 3.92 1.75 9.1477e-41
6.04 3.92 1.76 9.1477e-41
6.09 3.92 1.76 9.1477e-41
6.12 3.92 1.78 9.1477e-41
6.17 3.92 1.77 9.1477e-41
6.21 3.92 1.79 9.1477e-41
6.25 3.92 1.8 9.1477e-41
6.3 3.92 1.79 9.1477e-41
6.34 3.92 1.8 9.1477e-41
6.39 3.92 1.81 9.1477e-41
6.43 3.92 1.8 9.1477e-41
6.48 3.92 1.8 9.1477e-41
6.53 3.92 1.8 9.1477e-41
6.58 3.92 1.8 9.1477e-41
6.62 3.92 1.82 9.1477e-41
6.68 3.92 1.81 9.1477e-41
6.73 3.92 1.8 9.1477e-41
6.78 3.92 1.81 9.1477e-41
6.84 3.92 1.81 9.1477e-41
6.89 3.92 1.81 9.1477e-41
6.95 3.92 1.8 9.1477e-41
7 3.92 1.8 9.1477e-41
7.06 3.92 1.79 9.1477e-41
7.11 3.92 1.79 9.1477e-41
7.18 3.92 1.77 9.1477e-41
7.25 3.92 1.76 9.1477e-41
5.72 3.99 0.6 9.1477e-41
5.73 3.99 0.71 9.1477e-41
5.74 3.99 0.81 9.1477e-41
5.76 3.99 0.9 9.1477e-41
5.77 3.99 1 9.1477e-41
5.79 3.99 1.09 9.1477e-41
5.8 3.99 1.19 9.1477e-41
5.83 3.99 1.19 3.57e-43
5.83 3.99 1.19 3.57e-43
5.85 3.99 1.4 9.1477e-41
5.87 3.99 1.47 9.1477e-41
5.89 3.99 1.52 9.1477e-41
5.91 3.99 1.57 9.1477e-41
5.93 3.99 1.63 9.1477e-41
5.95 3.99 1.69 9.1477e-41
5.98 3.99 1.72 9.1477e-41
6.01 3.99 1.75 9.1477e-41
6.04 3.99 1.77 9.1477e-41
6.09 3.99 1.75 9.1477e-41
6.12 3.99 1.77 9.1477e-41
6.16 3.99 1.79 9.1477e-41
6.21 3.99 1.79 9.1477e-41
6.25 3.99 1.79 9.1477e-41
6.3 3.99 1.79 9.1477e-41
6.34 3.99 1.8 9.1477e-41
6.39 3.99 1.81 9.1477e-41
6.43 3.99 1.8 9.1477e-41
6.48 3.99 1.81 9.1477e-41
6.53 3.99 1.8 9.1477e-41
6.58 3.99 1.8 9.1477e-41
6.63 3.99 1.81 9.1477e-41
6.68 3.99 1.8 9.1477e-41
6.73 3.99 1.81 9.1477e-41
6.78 3.99 1.81 9.1477e-41
6.84 3.99 1.81 9.1477e-41
6.89 3.99 1.81 9.1477e-41
6.95 3.99 1.8 9.1477e-41
7 3.99 1.8 9.1477e-41
7.06 3.99 1.79 9.1477e-41
7.12 3.99 1.78 9.1477e-41
7.18 3.99 1.77 9.1477e-41
7.25 3.99 1.75 9.1477e-41
5.73 4.06 0.57 9.1477e-41
5.75 4.06 0.67 9.1477e-41
5.76 4.06 0.78 9.1477e-41
5.77 4.06 0.88 9.1477e-41
5.78 4.06 0.99 9.1477e-41
5.79 4.06 1.08 9.1477e-41
5.8 4.06 1.17 9.1477e-41
5.82 4.06 1.25 9.1477e-41
5.84 4.06 1.33 9.1477e-41
5.85 4.06 1.4 9.1477e-41
5.87 4.06 1.46 9.1477e-41
5.89 4.06 1.51 9.1477e-41
5.91 4.06 1.56 9.1477e-41
