# .PCD v.7 - Point Cloud Data file format
VERSION .7
FIELDS x y z rgb
SIZE 4 4 4 4
TYPE F F F F
WIDTH 1886
HEIGHT 1
POINTS 1886
DATA ascii
4.43 0.28 0.91 9.1477e-41
4.47 0.28 0.86 9.1477e-41
4.52 0.28 0.77 9.1477e-41
4.57 0.28 0.78 9.1477e-41
4.61 0.28 0.78 9.1477e-41
4.66 0.28 0.74 9.1477e-41
3.13 0.35 0.73 9.1477e-41
3.19 0.35 0.73 3.57e-43
3.24 0.35 0.82 9.1477e-41
3.3 0.35 0.92 9.1477e-41
3.35 0.35 0.95 9.1477e-41
3.39 0.35 0.97 9.1477e-41
3.43 0.35 0.97 9.1477e-41
3.48 0.35 0.98 9.1477e-41
3.52 0.35 0.96 9.1477e-41
3.56 0.35 0.98 9.1477e-41
3.6 0.35 0.97 9.1477e-41
3.64 0.35 0.98 9.1477e-41
3.68 0.35 0.98 9.1477e-41
3.72 0.35 0.97 9.1477e-41
3.77 0.35 0.99 9.1477e-41
3.81 0.35 0.97 9.1477e-41
3.85 0.35 0.97 9.1477e-41
3.89 0.35 0.97 9.1477e-41
3.93 0.35 0.98 9.1477e-41
3.97 0.35 0.96 9.1477e-41
4.01 0.35 0.98 9.1477e-41
4.05 0.35 0.97 9.1477e-41
4.09 0.35 0.97 9.1477e-41
4.18 0.35 0.97 9.1477e-41
4.22 0.35 0.96 9.1477e-41
4.26 0.35 0.95 9.1477e-41
4.3 0.35 0.94 9.1477e-41
4.34 0.35 0.94 9.1477e-41
4.38 0.35 0.94 9.1477e-41
4.43 0.35 0.93 9.1477e-41
4.47 0.35 0.92 9.1477e-41
4.51 0.35 0.93 9.1477e-41
4.57 0.35 0.78 9.1477e-41
4.61 0.35 0.78 9.1477e-41
4.65 0.35 0.78 9.1477e-41
4.7 0.35 0.73 9.1477e-41
3.15 0.42 0.8 9.1477e-41
3.2 0.42 0.83 9.1477e-41
3.26 0.42 0.97 9.1477e-41
3.31 0.42 0.98 9.1477e-41
3.35 0.42 0.99 9.1477e-41
3.39 0.42 0.99 9.1477e-41
3.44 0.42 0.99 9.1477e-41
3.48 0.42 1 9.1477e-41
3.52 0.42 0.99 9.1477e-41
3.56 0.42 1 9.1477e-41
3.6 0.42 1 9.1477e-41
3.64 0.42 1 9.1477e-41
3.69 0.42 1 9.1477e-41
3.73 0.42 1 9.1477e-41
3.77 0.42 1.01 9.1477e-41
3.81 0.42 0.99 9.1477e-41
3.85 0.42 1.01 9.1477e-41
3.89 0.42 1 9.1477e-41
3.93 0.42 1 9.1477e-41
3.97 0.42 0.99 9.1477e-41
4.01 0.42 0.98 9.1477e-41
4.05 0.42 1 9.1477e-41
4.09 0.42 0.99 9.1477e-41
4.18 0.42 0.99 9.1477e-41
4.22 0.42 0.97 9.1477e-41
4.26 0.42 0.97 9.1477e-41
4.3 0.42 0.96 9.1477e-41
4.34 0.42 0.97 9.1477e-41
4.38 0.42 0.96 9.1477e-41
4.43 0.42 0.95 9.1477e-41
4.47 0.42 0.94 9.1477e-41
4.51 0.42 0.95 9.1477e-41
4.55 0.42 0.95 9.1477e-41
4.59 0.42 0.95 3.57e-43
4.65 0.42 0.78 9.1477e-41
4.7 0.42 0.77 9.1477e-41
3.17 0.49 0.91 9.1477e-41
3.23 0.49 0.98 9.1477e-41
3.27 0.49 1.01 9.1477e-41
3.31 0.49 1.01 9.1477e-41
3.36 0.49 1 9.1477e-41
3.4 0.49 1 9.1477e-41
3.44 0.49 1.02 9.1477e-41
3.48 0.49 1.02 9.1477e-41
3.52 0.49 1.01 9.1477e-41
3.57 0.49 1.03 9.1477e-41
3.61 0.49 1.02 9.1477e-41
3.65 0.49 1.02 9.1477e-41
3.69 0.49 1.03 9.1477e-41
3.73 0.49 1.02 9.1477e-41
3.77 0.49 1.01 9.1477e-41
3.81 0.49 1.02 9.1477e-41
3.85 0.49 1.02 9.1477e-41
3.89 0.49 1.02 9.1477e-41
3.93 0.49 1.01 9.1477e-41
3.97 0.49 1.02 9.1477e-41
4.01 0.49 1.01 9.1477e-41
4.05 0.49 1.01 9.1477e-41
4.09 0.49 1.01 9.1477e-41
4.18 0.49 1 9.1477e-41
4.22 0.49 1.01 9.1477e-41
4.26 0.49 0.99 9.1477e-41
4.3 0.49 0.99 9.1477e-41
4.34 0.49 0.99 9.1477e-41
4.38 0.49 0.98 9.1477e-41
4.42 0.49 0.98 9.1477e-41
4.47 0.49 0.97 9.1477e-41
4.51 0.49 0.98 9.1477e-41
4.55 0.49 0.98 9.1477e-41
4.59 0.49 0.97 9.1477e-41
4.63 0.49 0.97 3.57e-43
4.7 0.49 0.78 9.1477e-41
3.13 0.56 0.92 9.1477e-41
3.19 0.56 1.02 9.1477e-41
3.23 0.56 1.01 9.1477e-41
3.28 0.56 1.03 9.1477e-41
3.32 0.56 1.03 9.1477e-41
3.36 0.56 1.04 9.1477e-41
3.4 0.56 1.04 9.1477e-41
3.44 0.56 1.03 9.1477e-41
3.49 0.56 1.04 9.1477e-41
3.53 0.56 1.04 9.1477e-41
3.57 0.56 1.04 9.1477e-41
3.61 0.56 1.04 9.1477e-41
3.65 0.56 1.05 9.1477e-41
3.69 0.56 1.04 9.1477e-41
3.73 0.56 1.05 9.1477e-41
3.77 0.56 1.05 9.1477e-41
3.81 0.56 1.04 9.1477e-41
3.85 0.56 1.04 9.1477e-41
3.89 0.56 1.04 9.1477e-41
3.93 0.56 1.04 9.1477e-41
3.97 0.56 1.04 9.1477e-41
4.01 0.56 1.04 9.1477e-41
4.05 0.56 1.04 9.1477e-41
4.09 0.56 1.03 9.1477e-41
4.18 0.56 1.03 9.1477e-41
4.22 0.56 1.03 9.1477e-41
4.26 0.56 1.02 9.1477e-41
4.3 0.56 1.01 9.1477e-41
4.34 0.56 1.01 9.1477e-41
4.38 0.56 1.01 9.1477e-41
4.42 0.56 1.01 9.1477e-41
4.46 0.56 1 9.1477e-41
4.5 0.56 1 9.1477e-41
4.55 0.56 1 9.1477e-41
4.59 0.56 0.98 9.1477e-41
4.63 0.56 0.98 9.1477e-41
4.67 0.56 0.98 9.1477e-41
4.73 0.56 0.88 9.1477e-41
3.14 0.63 0.97 9.1477e-41
3.19 0.63 1.03 9.1477e-41
3.24 0.63 1.04 9.1477e-41
3.28 0.63 1.04 9.1477e-41
3.32 0.63 1.05 9.1477e-41
3.36 0.63 1.06 9.1477e-41
3.4 0.63 1.06 9.1477e-41
3.45 0.63 1.05 9.1477e-41
3.49 0.63 1.05 9.1477e-41
3.53 0.63 1.06 9.1477e-41
3.57 0.63 1.05 9.1477e-41
3.61 0.63 1.06 9.1477e-41
3.65 0.63 1.07 9.1477e-41
3.69 0.63 1.06 9.1477e-41
3.73 0.63 1.07 9.1477e-41
3.77 0.63 1.06 9.1477e-41
3.81 0.63 1.06 9.1477e-41
3.85 0.63 1.07 9.1477e-41
3.89 0.63 1.05 9.1477e-41
3.93 0.63 1.06 9.1477e-41
3.97 0.63 1.06 9.1477e-41
4.01 0.63 1.07 9.1477e-41
4.05 0.63 1.06 9.1477e-41
4.09 0.63 1.06 9.1477e-41
4.18 0.63 1.05 9.1477e-41
4.22 0.63 1.05 9.1477e-41
4.26 0.63 1.04 9.1477e-41
4.3 0.63 1.03 9.1477e-41
4.34 0.63 1.04 9.1477e-41
4.38 0.63 1.03 9.1477e-41
4.42 0.63 1.03 9.1477e-41
4.46 0.63 1.01 9.1477e-41
4.5 0.63 1.01 9.1477e-41
4.54 0.63 1.02 9.1477e-41
4.59 0.63 1.01 9.1477e-41
4.63 0.63 1 9.1477e-41
4.67 0.63 1 9.1477e-41
4.72 0.63 0.97 9.1477e-41
3.15 0.7 1.01 9.1477e-41
3.2 0.7 1.06 9.1477e-41
3.24 0.7 1.07 9.1477e-41
3.28 0.7 1.07 9.1477e-41
3.33 0.7 1.09 9.1477e-41
3.36 0.7 1.06 9.1477e-41
3.41 0.7 1.08 9.1477e-41
3.45 0.7 1.08 9.1477e-41
3.49 0.7 1.07 9.1477e-41
3.53 0.7 1.08 9.1477e-41
3.57 0.7 1.08 9.1477e-41
3.61 0.7 1.08 9.1477e-41
3.65 0.7 1.08 9.1477e-41
3.69 0.7 1.09 9.1477e-41
3.73 0.7 1.08 9.1477e-41
3.77 0.7 1.08 9.1477e-41
3.81 0.7 1.08 9.1477e-41
3.85 0.7 1.07 9.1477e-41
3.89 0.7 1.07 9.1477e-41
3.93 0.7 1.07 9.1477e-41
3.97 0.7 1.09 9.1477e-41
4.01 0.7 1.08 9.1477e-41
4.05 0.7 1.08 9.1477e-41
4.09 0.7 1.08 9.1477e-41
4.18 0.7 1.07 9.1477e-41
4.22 0.7 1.05 9.1477e-41
4.26 0.7 1.06 9.1477e-41
4.3 0.7 1.05 9.1477e-41
4.34 0.7 1.07 9.1477e-41
4.38 0.7 1.05 9.1477e-41
4.42 0.7 1.04 9.1477e-41
4.46 0.7 1.04 9.1477e-41
4.5 0.7 1.04 9.1477e-41
4.54 0.7 1.04 9.1477e-41
4.58 0.7 1.03 9.1477e-41
4.63 0.7 1.03 9.1477e-41
4.67 0.7 1.02 9.1477e-41
4.71 0.7 1 9.1477e-41
4.77 0.7 0.87 9.1477e-41
3.15 0.77 1.04 9.1477e-41
3.2 0.77 1.07 9.1477e-41
3.24 0.77 1.08 9.1477e-41
3.29 0.77 1.1 9.1477e-41
3.33 0.77 1.09 9.1477e-41
3.37 0.77 1.09 9.1477e-41
3.41 0.77 1.1 9.1477e-41
3.45 0.77 1.1 9.1477e-41
3.49 0.77 1.09 9.1477e-41
3.53 0.77 1.1 9.1477e-41
3.57 0.77 1.1 9.1477e-41
3.61 0.77 1.09 9.1477e-41
3.65 0.77 1.1 9.1477e-41
3.69 0.77 1.08 9.1477e-41
3.73 0.77 1.09 9.1477e-41
3.77 0.77 1.09 9.1477e-41
3.81 0.77 1.09 9.1477e-41
3.85 0.77 1.08 9.1477e-41
3.89 0.77 1.09 9.1477e-41
3.94 0.77 1.1 9.1477e-41
3.97 0.77 1.09 9.1477e-41
4.02 0.77 1.1 9.1477e-41
4.05 0.77 1.08 9.1477e-41
4.09 0.77 1.08 9.1477e-41
4.18 0.77 1.09 9.1477e-41
4.22 0.77 1.08 9.1477e-41
4.26 0.77 1.08 9.1477e-41
4.3 0.77 1.07 9.1477e-41
4.34 0.77 1.07 9.1477e-41
4.38 0.77 1.07 9.1477e-41
4.42 0.77 1.06 9.1477e-41
4.46 0.77 1.06 9.1477e-41
4.5 0.77 1.05 9.1477e-41
4.54 0.77 1.06 9.1477e-41
4.58 0.77 1.05 9.1477e-41
4.62 0.77 1.04 9.1477e-41
4.67 0.77 1.04 9.1477e-41
4.71 0.77 1.02 9.1477e-41
4.76 0.77 0.94 9.1477e-41
3.16 0.84 1.08 9.1477e-41
3.21 0.84 1.1 9.1477e-41
3.25 0.84 1.1 9.1477e-41
3.29 0.84 1.11 9.1477e-41
3.33 0.84 1.11 9.1477e-41
3.37 0.84 1.09 9.1477e-41
3.4 0.84 1.05 9.1477e-41
3.44 0.84 1.03 9.1477e-41
3.48 0.84 1.03 9.1477e-41
3.52 0.84 1.03 9.1477e-41
3.57 0.84 1.04 9.1477e-41
3.61 0.84 1.03 9.1477e-41
3.65 0.84 1.04 9.1477e-41
3.69 0.84 1.03 9.1477e-41
3.73 0.84 1.05 9.1477e-41
3.77 0.84 1.04 9.1477e-41
3.81 0.84 1.04 9.1477e-41
3.85 0.84 1.02 9.1477e-41
3.89 0.84 1.03 9.1477e-41
3.93 0.84 1.02 9.1477e-41
3.97 0.84 1.05 9.1477e-41
4.01 0.84 1.04 9.1477e-41
4.05 0.84 1.05 9.1477e-41
4.09 0.84 1.05 9.1477e-41
4.18 0.84 1.04 9.1477e-41
4.22 0.84 1.03 9.1477e-41
4.26 0.84 1 9.1477e-41
4.3 0.84 0.99 9.1477e-41
4.34 0.84 1.03 9.1477e-41
4.38 0.84 1.08 9.1477e-41
4.42 0.84 1.06 9.1477e-41
4.46 0.84 1.08 9.1477e-41
4.5 0.84 1.07 9.1477e-41
4.54 0.84 1.07 9.1477e-41
4.58 0.84 1.07 9.1477e-41
4.62 0.84 1.06 9.1477e-41
4.66 0.84 1.05 9.1477e-41
4.71 0.84 1.05 9.1477e-41
4.76 0.84 0.99 9.1477e-41
3.16 0.91 1.1 9.1477e-41
3.21 0.91 1.11 9.1477e-41
3.25 0.91 1.1 9.1477e-41
3.28 0.91 1.06 9.1477e-41
3.32 0.91 1.03 9.1477e-41
3.36 0.91 1.04 9.1477e-41
3.4 0.91 1.04 3.57e-43
3.44 0.91 1.04 3.57e-43
3.48 0.91 1.04 3.57e-43
3.52 0.91 1.04 3.57e-43
3.57 0.91 1.04 9.1477e-41
3.62 0.91 1.04 3.57e-43
3.65 0.91 1.04 3.57e-43
3.69 0.91 1.04 3.57e-43
3.73 0.91 1.05 9.1477e-41
3.78 0.91 1.12 9.1477e-41
3.82 0.91 1.1 9.1477e-41
3.86 0.91 1.1 9.1477e-41
3.9 0.91 1.11 9.1477e-41
3.94 0.91 1.11 9.1477e-41
3.98 0.91 1.1 9.1477e-41
4.02 0.91 1.11 9.1477e-41
4.05 0.91 1.09 9.1477e-41
4.09 0.91 1.1 9.1477e-41
4.18 0.91 1.06 9.1477e-41
4.22 0.91 1.06 9.1477e-41
4.26 0.91 1.05 9.1477e-41
4.3 0.91 1.03 9.1477e-41
4.34 0.91 1.03 9.1477e-41
4.38 0.91 1.03 9.1477e-41
4.42 0.91 1.03 9.1477e-41
4.46 0.91 1.01 9.1477e-41
4.5 0.91 1.02 9.1477e-41
4.55 0.91 1.01 9.1477e-41
4.58 0.91 1.07 9.1477e-41
4.62 0.91 1.08 9.1477e-41
4.66 0.91 1.08 9.1477e-41
4.7 0.91 1.06 9.1477e-41
4.75 0.91 1.02 9.1477e-41
3.17 0.98 1.14 9.1477e-41
3.21 0.98 1.12 9.1477e-41
3.25 0.98 1.12 3.57e-43
3.28 0.98 1.12 3.57e-43
3.32 0.98 1.03 9.1477e-41
3.38 0.98 1.15 9.1477e-41
3.42 0.98 1.15 9.1477e-41
3.45 0.98 1.12 9.1477e-41
3.5 0.98 1.12 3.57e-43
3.52 0.98 1.12 3.57e-43
3.57 0.98 1.12 3.57e-43
3.62 0.98 1.12 3.57e-43
3.65 0.98 1.12 3.57e-43
3.69 0.98 1.12 3.57e-43
3.73 0.98 1.12 3.57e-43
3.78 0.98 1.12 3.57e-43
3.82 0.98 1.12 3.57e-43
3.86 0.98 1.12 3.57e-43
3.9 0.98 1.12 3.57e-43
3.94 0.98 1.12 3.57e-43
3.98 0.98 1.12 3.57e-43
4.02 0.98 1.12 3.57e-43
4.05 0.98 1.12 3.57e-43
4.09 0.98 1.12 3.57e-43
4.14 0.98 1.12 3.57e-43
4.18 0.98 1.12 3.57e-43
4.22 0.98 1.12 3.57e-43
4.26 0.98 1.12 3.57e-43
4.3 0.98 1.12 3.57e-43
4.34 0.98 1.12 3.57e-43
4.38 0.98 1.12 3.57e-43
4.42 0.98 1.12 3.57e-43
4.46 0.98 1.12 3.57e-43
4.5 0.98 1.12 3.57e-43
4.55 0.98 1.01 9.1477e-41
4.58 0.98 1.03 9.1477e-41
4.63 0.98 1.03 9.1477e-41
4.66 0.98 1.07 9.1477e-41
4.7 0.98 1.08 9.1477e-41
4.75 0.98 1.05 9.1477e-41
3.08 1.05 0.92 9.1477e-41
3.18 1.05 1.17 9.1477e-41
3.21 1.05 1.14 9.1477e-41
3.25 1.05 1.14 3.57e-43
3.28 1.05 1.14 3.57e-43
3.32 1.05 1.14 3.57e-43
3.38 1.05 1.14 3.57e-43
3.42 1.05 1.14 3.57e-43
3.45 1.05 1.14 3.57e-43
3.5 1.05 1.14 3.57e-43
3.52 1.05 1.14 3.57e-43
3.57 1.05 1.14 3.57e-43
3.62 1.05 1.14 3.57e-43
3.65 1.05 1.14 3.57e-43
3.69 1.05 1.14 3.57e-43
3.73 1.05 1.14 3.57e-43
3.78 1.05 1.14 3.57e-43
3.82 1.05 1.14 3.57e-43
3.86 1.05 1.14 3.57e-43
3.9 1.05 1.14 3.57e-43
3.94 1.05 1.14 3.57e-43
3.98 1.05 1.14 3.57e-43
4.02 1.05 1.14 3.57e-43
4.05 1.05 1.14 3.57e-43
4.09 1.05 1.14 3.57e-43
4.14 1.05 1.14 3.57e-43
4.18 1.05 1.14 3.57e-43
4.22 1.05 1.14 3.57e-43
4.26 1.05 1.14 3.57e-43
4.3 1.05 1.14 3.57e-43
4.34 1.05 1.14 3.57e-43
4.38 1.05 1.14 3.57e-43
4.42 1.05 1.14 3.57e-43
4.46 1.05 1.14 3.57e-43
4.5 1.05 1.14 3.57e-43
4.55 1.05 1.14 3.57e-43
4.58 1.05 1.03 9.1477e-41
4.62 1.05 1.08 9.1477e-41
4.66 1.05 1.07 9.1477e-41
4.7 1.05 1.11 9.1477e-41
4.74 1.05 1.08 9.1477e-41
3.11 1.12 1.03 9.1477e-41
3.19 1.12 1.22 9.1477e-41
3.22 1.12 1.22 3.57e-43
3.25 1.12 1.22 3.57e-43
3.28 1.12 1.22 3.57e-43
3.32 1.12 1.22 3.57e-43
3.38 1.12 1.22 3.57e-43
3.42 1.12 1.22 3.57e-43
3.45 1.12 1.22 3.57e-43
3.5 1.12 1.22 3.57e-43
3.52 1.12 1.22 3.57e-43
3.57 1.12 1.22 3.57e-43
3.62 1.12 1.22 3.57e-43
3.65 1.12 1.22 3.57e-43
3.69 1.12 1.22 3.57e-43
3.73 1.12 1.22 3.57e-43
3.78 1.12 1.22 3.57e-43
3.82 1.12 1.22 3.57e-43
3.86 1.12 1.22 3.57e-43
3.9 1.12 1.22 3.57e-43
3.94 1.12 1.22 3.57e-43
3.98 1.12 1.22 3.57e-43
4.02 1.12 1.22 3.57e-43
4.05 1.12 1.09 9.1477e-41
4.09 1.12 1.21 9.1477e-41
4.13 1.12 1.21 3.57e-43
4.18 1.12 1.21 3.57e-43
4.22 1.12 1.21 3.57e-43
4.26 1.12 1.21 3.57e-43
4.3 1.12 1.21 3.57e-43
4.34 1.12 1.21 3.57e-43
4.38 1.12 1.21 3.57e-43
4.42 1.12 1.21 3.57e-43
4.46 1.12 1.21 3.57e-43
4.5 1.12 1.21 3.57e-43
4.55 1.12 1.21 3.57e-43
4.58 1.12 1.03 9.1477e-41
4.61 1.12 1.14 9.1477e-41
4.65 1.12 1.13 9.1477e-41
4.69 1.12 1.15 9.1477e-41
4.74 1.12 1.06 9.1477e-41
4.84 1.12 0.69 9.1477e-41
3.12 1.19 1.08 9.1477e-41
3.2 1.19 1.28 9.1477e-41
3.24 1.19 1.28 3.57e-43
3.25 1.19 1.28 3.57e-43
3.28 1.19 1.28 3.57e-43
3.32 1.19 1.28 3.57e-43
3.38 1.19 1.28 3.57e-43
3.42 1.19 1.28 3.57e-43
3.45 1.19 1.28 3.57e-43
3.5 1.19 1.28 3.57e-43
3.52 1.19 1.28 3.57e-43
3.57 1.19 1.28 3.57e-43
3.62 1.19 1.28 3.57e-43
3.65 1.19 1.28 3.57e-43
3.69 1.19 1.28 3.57e-43
3.73 1.19 1.28 3.57e-43
3.78 1.19 1.28 3.57e-43
3.82 1.19 1.28 3.57e-43
3.86 1.19 1.28 3.57e-43
3.9 1.19 1.28 3.57e-43
3.94 1.19 1.28 3.57e-43
3.98 1.19 1.28 3.57e-43
4.02 1.19 1.28 3.57e-43
4.05 1.19 1.28 3.57e-43
4.09 1.19 1.28 3.57e-43
4.13 1.19 1.28 3.57e-43
4.18 1.19 1.28 3.57e-43
4.22 1.19 1.28 3.57e-43
4.26 1.19 1.28 3.57e-43
4.3 1.19 1.28 3.57e-43
4.34 1.19 1.28 3.57e-43
4.38 1.19 1.28 3.57e-43
4.42 1.19 1.28 3.57e-43
4.46 1.19 1.28 3.57e-43
4.5 1.19 1.28 3.57e-43
4.55 1.19 1.28 3.57e-43
4.58 1.19 1.28 3.57e-43
4.61 1.19 1.14 9.1477e-41
4.65 1.19 1.19 9.1477e-41
4.69 1.19 1.19 9.1477e-41
4.74 1.19 1.11 9.1477e-41
3.13 1.26 1.14 9.1477e-41
3.21 1.26 1.33 9.1477e-41
3.25 1.26 1.33 3.57e-43
3.25 1.26 1.12 9.1477e-41
3.33 1.26 1.33 9.1477e-41
3.36 1.26 1.33 3.57e-43
3.38 1.26 1.33 3.57e-43
3.42 1.26 1.33 3.57e-43
3.45 1.26 1.33 3.57e-43
3.5 1.26 1.33 3.57e-43
3.52 1.26 1.33 3.57e-43
3.57 1.26 1.33 3.57e-43
3.62 1.26 1.33 3.57e-43
3.65 1.26 1.33 3.57e-43
3.69 1.26 1.33 3.57e-43
3.73 1.26 1.33 3.57e-43
3.78 1.26 1.33 3.57e-43
3.82 1.26 1.33 3.57e-43
3.86 1.26 1.1 9.1477e-41
3.9 1.26 1.21 9.1477e-41
3.94 1.26 1.22 9.1477e-41
3.98 1.26 1.22 3.57e-43
4.02 1.26 1.22 3.57e-43
4.05 1.26 1.22 3.57e-43
4.09 1.26 1.22 3.57e-43
4.13 1.26 1.22 3.57e-43
4.18 1.26 1.22 3.57e-43
4.22 1.26 1.22 3.57e-43
4.26 1.26 1.22 3.57e-43
4.3 1.26 1.22 3.57e-43
4.34 1.26 1.22 3.57e-43
4.38 1.26 1.22 3.57e-43
4.42 1.26 1.22 3.57e-43
4.46 1.26 1.22 3.57e-43
4.5 1.26 1.22 3.57e-43
4.55 1.26 1.22 3.57e-43
4.58 1.26 1.03 9.1477e-41
4.6 1.26 1.26 9.1477e-41
4.64 1.26 1.27 9.1477e-41
4.68 1.26 1.25 9.1477e-41
4.73 1.26 1.18 9.1477e-41
3.18 1.33 1.35 9.1477e-41
3.22 1.33 1.38 9.1477e-41
3.26 1.33 1.38 9.1477e-41
3.26 1.33 1.17 9.1477e-41
3.3 1.33 1.16 9.1477e-41
3.34 1.33 1.16 9.1477e-41
3.38 1.33 1.16 9.1477e-41
3.42 1.33 1.16 9.1477e-41
3.46 1.33 1.16 9.1477e-41
3.5 1.33 1.14 9.1477e-41
3.54 1.33 1.16 9.1477e-41
3.58 1.33 1.15 9.1477e-41
3.62 1.33 1.17 9.1477e-41
3.66 1.33 1.17 3.57e-43
3.69 1.33 1.17 3.57e-43
3.73 1.33 1.17 3.57e-43
3.78 1.33 1.17 3.57e-43
3.82 1.33 1.17 3.57e-43
3.86 1.33 1.17 3.57e-43
3.9 1.33 1.17 3.57e-43
3.94 1.33 1.17 3.57e-43
3.98 1.33 1.17 3.57e-43
4.02 1.33 1.17 3.57e-43
4.05 1.33 1.17 3.57e-43
4.09 1.33 1.17 3.57e-43
4.13 1.33 1.17 3.57e-43
4.18 1.33 1.17 3.57e-43
4.22 1.33 1.17 3.57e-43
4.26 1.33 1.17 3.57e-43
4.3 1.33 1.17 3.57e-43
4.34 1.33 1.17 3.57e-43
4.38 1.33 1.17 3.57e-43
4.42 1.33 1.17 3.57e-43
4.46 1.33 1.17 3.57e-43
4.5 1.33 1.17 3.57e-43
4.55 1.33 1.17 3.57e-43
4.58 1.33 1.17 3.57e-43
4.6 1.33 1.26 9.1477e-41
4.63 1.33 1.3 9.1477e-41
4.67 1.33 1.31 9.1477e-41
4.72 1.33 1.25 9.1477e-41
2.99 1.4 1.23 9.1477e-41
3.03 1.4 1.25 9.1477e-41
3.06 1.4 1.17 9.1477e-41
3.17 1.4 1.34 9.1477e-41
3.23 1.4 1.43 9.1477e-41
3.27 1.4 1.43 3.57e-43
3.26 1.4 1.17 9.1477e-41
3.3 1.4 1.17 9.1477e-41
3.34 1.4 1.17 3.57e-43
3.38 1.4 1.17 3.57e-43
3.42 1.4 1.16 9.1477e-41
3.46 1.4 1.17 9.1477e-41
3.5 1.4 1.15 9.1477e-41
3.54 1.4 1.16 9.1477e-41
3.58 1.4 1.14 9.1477e-41
3.62 1.4 1.15 9.1477e-41
3.66 1.4 1.15 9.1477e-41
3.7 1.4 1.14 9.1477e-41
3.74 1.4 1.14 3.57e-43
3.78 1.4 1.12 9.1477e-41
3.82 1.4 1.18 9.1477e-41
3.86 1.4 1.19 9.1477e-41
3.9 1.4 1.19 9.1477e-41
3.94 1.4 1.18 9.1477e-41
3.98 1.4 1.19 9.1477e-41
4.02 1.4 1.18 9.1477e-41
4.06 1.4 1.18 3.57e-43
4.09 1.4 1.21 9.1477e-41
4.17 1.4 1.15 9.1477e-41
4.21 1.4 1.16 9.1477e-41
4.25 1.4 1.16 9.1477e-41
4.29 1.4 1.17 9.1477e-41
4.33 1.4 1.17 9.1477e-41
4.37 1.4 1.17 9.1477e-41
4.41 1.4 1.17 9.1477e-41
4.45 1.4 1.15 9.1477e-41
4.49 1.4 1.14 9.1477e-41
4.53 1.4 1.13 9.1477e-41
4.58 1.4 1.11 9.1477e-41
4.61 1.4 1.17 9.1477e-41
4.63 1.4 1.36 9.1477e-41
4.66 1.4 1.37 9.1477e-41
4.71 1.4 1.34 9.1477e-41
4.78 1.4 1.12 9.1477e-41
3.17 1.47 1.32 9.1477e-41
3.24 1.47 1.48 9.1477e-41
3.28 1.47 1.48 3.57e-43
3.26 1.47 1.48 3.57e-43
3.3 1.47 1.48 3.57e-43
3.34 1.47 1.48 3.57e-43
3.38 1.47 1.48 3.57e-43
3.42 1.47 1.48 3.57e-43
3.46 1.47 1.48 3.57e-43
3.5 1.47 1.48 3.57e-43
3.54 1.47 1.48 3.57e-43
3.58 1.47 1.48 3.57e-43
3.62 1.47 1.48 3.57e-43
3.66 1.47 1.48 3.57e-43
3.7 1.47 1.48 3.57e-43
3.74 1.47 1.48 3.57e-43
3.78 1.47 1.48 3.57e-43
3.82 1.47 1.48 3.57e-43
3.86 1.47 1.48 3.57e-43
3.9 1.47 1.48 3.57e-43
3.94 1.47 1.48 3.57e-43
3.98 1.47 1.48 3.57e-43
4.02 1.47 1.48 3.57e-43
4.06 1.47 1.48 3.57e-43
4.09 1.47 1.21 9.1477e-41
4.14 1.47 1.21 3.57e-43
4.17 1.47 1.21 3.57e-43
4.21 1.47 1.21 3.57e-43
4.25 1.47 1.21 3.57e-43
4.29 1.47 1.21 3.57e-43
4.33 1.47 1.21 3.57e-43
4.37 1.47 1.21 3.57e-43
4.41 1.47 1.21 3.57e-43
4.45 1.47 1.21 3.57e-43
4.49 1.47 1.21 3.57e-43
4.53 1.47 1.21 3.57e-43
4.58 1.47 1.21 3.57e-43
4.61 1.47 1.21 3.57e-43
4.63 1.47 1.36 9.1477e-41
4.66 1.47 1.42 9.1477e-41
4.7 1.47 1.36 9.1477e-41
4.81 1.47 0.94 9.1477e-41
4.82 1.47 1.11 9.1477e-41
4.84 1.47 1.22 9.1477e-41
4.89 1.47 1.22 3.57e-43
3.18 1.54 1.37 9.1477e-41
3.25 1.54 1.53 9.1477e-41
3.29 1.54 1.53 3.57e-43
3.26 1.54 1.53 3.57e-43
3.3 1.54 1.53 3.57e-43
3.34 1.54 1.53 3.57e-43
3.38 1.54 1.16 9.1477e-41
3.3 1.54 1.16 3.57e-43
3.46 1.54 1.16 3.57e-43
3.5 1.54 1.16 3.57e-43
3.54 1.54 1.16 3.57e-43
3.58 1.54 1.16 3.57e-43
3.62 1.54 1.15 9.1477e-41
3.7 1.54 1.54 9.1477e-41
3.73 1.54 1.54 3.57e-43
3.74 1.54 1.15 9.1477e-41
3.81 1.54 1.56 9.1477e-41
3.84 1.54 1.56 3.57e-43
3.86 1.54 1.56 3.57e-43
3.9 1.54 1.56 3.57e-43
3.94 1.54 1.56 3.57e-43
3.98 1.54 1.56 3.57e-43
4.02 1.54 1.56 3.57e-43
4.06 1.54 1.56 3.57e-43
4.09 1.54 1.56 3.57e-43
4.14 1.54 1.56 3.57e-43
4.17 1.54 1.15 9.1477e-41
4.21 1.54 1.24 9.1477e-41
4.25 1.54 1.23 9.1477e-41
4.29 1.54 1.23 9.1477e-41
4.33 1.54 1.23 3.57e-43
4.37 1.54 1.23 3.57e-43
4.41 1.54 1.23 3.57e-43
4.45 1.54 1.15 9.1477e-41
4.51 1.54 1.15 3.57e-43
4.53 1.54 1.15 3.57e-43
4.58 1.54 1.15 3.57e-43
4.61 1.54 1.15 3.57e-43
4.63 1.54 1.36 9.1477e-41
4.65 1.54 1.47 9.1477e-41
4.7 1.54 1.4 9.1477e-41
4.81 1.54 0.93 9.1477e-41
4.95 1.54 1.1 9.1477e-41
3.19 1.61 1.44 9.1477e-41
3.26 1.61 1.56 9.1477e-41
3.3 1.61 1.56 3.57e-43
3.26 1.61 1.56 3.57e-43
3.3 1.61 1.56 3.57e-43
3.34 1.61 1.56 3.57e-43
3.38 1.61 1.56 3.57e-43
3.3 1.61 1.56 3.57e-43
3.46 1.61 1.56 3.57e-43
3.5 1.61 1.15 9.1477e-41
3.59 1.61 1.59 9.1477e-41
3.63 1.61 1.6 9.1477e-41
3.67 1.61 1.59 9.1477e-41
3.7 1.61 1.58 9.1477e-41
3.74 1.61 1.59 9.1477e-41
3.77 1.61 1.59 9.1477e-41
3.81 1.61 1.58 9.1477e-41
3.85 1.61 1.59 9.1477e-41
3.88 1.61 1.59 9.1477e-41
3.92 1.61 1.59 3.57e-43
3.94 1.61 1.59 3.57e-43
3.98 1.61 1.59 3.57e-43
4.02 1.61 1.59 3.57e-43
4.06 1.61 1.59 3.57e-43
4.09 1.61 1.59 3.57e-43
4.14 1.61 1.59 3.57e-43
4.17 1.61 1.59 3.57e-43
4.21 1.61 1.24 9.1477e-41
4.24 1.61 1.48 9.1477e-41
4.28 1.61 1.47 9.1477e-41
4.32 1.61 1.47 9.1477e-41
4.35 1.61 1.46 9.1477e-41
4.39 1.61 1.47 9.1477e-41
4.42 1.61 1.52 9.1477e-41
4.46 1.61 1.52 9.1477e-41
4.49 1.61 1.53 9.1477e-41
4.53 1.61 1.53 9.1477e-41
4.57 1.61 1.53 3.57e-43
4.63 1.61 1.36 9.1477e-41
4.65 1.61 1.5 9.1477e-41
4.69 1.61 1.43 9.1477e-41
4.81 1.61 0.92 9.1477e-41
3.2 1.68 1.48 9.1477e-41
3.27 1.68 1.61 9.1477e-41
3.31 1.68 1.61 9.1477e-41
3.34 1.68 1.6 9.1477e-41
3.38 1.68 1.62 9.1477e-41
3.42 1.68 1.62 9.1477e-41
3.46 1.68 1.64 9.1477e-41
3.49 1.68 1.63 9.1477e-41
3.53 1.68 1.62 9.1477e-41
3.56 1.68 1.63 9.1477e-41
3.6 1.68 1.64 9.1477e-41
3.63 1.68 1.63 9.1477e-41
3.67 1.68 1.64 9.1477e-41
3.71 1.68 1.63 9.1477e-41
3.74 1.68 1.63 9.1477e-41
3.78 1.68 1.63 9.1477e-41
3.81 1.68 1.63 9.1477e-41
3.85 1.68 1.63 9.1477e-41
3.88 1.68 1.63 9.1477e-41
3.92 1.68 1.63 9.1477e-41
3.95 1.68 1.63 9.1477e-41
3.99 1.68 1.62 9.1477e-41
4.02 1.68 1.62 9.1477e-41
4.06 1.68 1.62 9.1477e-41
4.09 1.68 1.63 9.1477e-41
4.17 1.68 1.62 9.1477e-41
4.2 1.68 1.61 9.1477e-41
4.24 1.68 1.6 9.1477e-41
4.27 1.68 1.6 9.1477e-41
4.31 1.68 1.6 9.1477e-41
4.34 1.68 1.6 9.1477e-41
4.38 1.68 1.6 9.1477e-41
4.42 1.68 1.59 9.1477e-41
4.45 1.68 1.58 9.1477e-41
4.49 1.68 1.57 9.1477e-41
4.53 1.68 1.58 9.1477e-41
4.56 1.68 1.56 9.1477e-41
4.6 1.68 1.56 9.1477e-41
4.64 1.68 1.55 9.1477e-41
4.69 1.68 1.5 9.1477e-41
4.8 1.68 0.95 9.1477e-41
3.05 1.75 0.94 9.1477e-41
3.21 1.75 1.52 9.1477e-41
3.27 1.75 1.64 9.1477e-41
3.31 1.75 1.64 9.1477e-41
3.35 1.75 1.63 9.1477e-41
3.39 1.75 1.67 9.1477e-41
3.42 1.75 1.65 9.1477e-41
3.46 1.75 1.66 9.1477e-41
3.49 1.75 1.66 9.1477e-41
3.53 1.75 1.65 9.1477e-41
3.57 1.75 1.67 9.1477e-41
3.6 1.75 1.66 9.1477e-41
3.64 1.75 1.66 9.1477e-41
3.67 1.75 1.66 9.1477e-41
3.71 1.75 1.66 9.1477e-41
3.74 1.75 1.66 9.1477e-41
3.78 1.75 1.66 9.1477e-41
3.81 1.75 1.66 9.1477e-41
3.85 1.75 1.66 9.1477e-41
3.88 1.75 1.65 9.1477e-41
3.92 1.75 1.66 9.1477e-41
3.95 1.75 1.66 9.1477e-41
3.99 1.75 1.66 9.1477e-41
4.02 1.75 1.66 9.1477e-41
4.06 1.75 1.66 9.1477e-41
4.09 1.75 1.65 9.1477e-41
4.17 1.75 1.65 9.1477e-41
4.2 1.75 1.65 9.1477e-41
4.24 1.75 1.63 9.1477e-41
4.27 1.75 1.63 9.1477e-41
4.31 1.75 1.64 9.1477e-41
4.34 1.75 1.64 9.1477e-41
4.38 1.75 1.63 9.1477e-41
4.41 1.75 1.62 9.1477e-41
4.45 1.75 1.61 9.1477e-41
4.49 1.75 1.61 9.1477e-41
4.52 1.75 1.62 9.1477e-41
4.56 1.75 1.6 9.1477e-41
4.6 1.75 1.59 9.1477e-41
4.63 1.75 1.6 9.1477e-41
4.68 1.75 1.51 9.1477e-41
4.81 1.75 0.94 9.1477e-41
3.05 1.82 0.96 9.1477e-41
3.22 1.82 1.54 9.1477e-41
3.28 1.82 1.66 9.1477e-41
3.32 1.82 1.67 9.1477e-41
3.35 1.82 1.66 9.1477e-41
3.39 1.82 1.68 9.1477e-41
3.43 1.82 1.68 9.1477e-41
3.46 1.82 1.68 9.1477e-41
3.5 1.82 1.69 9.1477e-41
3.53 1.82 1.67 9.1477e-41
3.57 1.82 1.68 9.1477e-41
3.61 1.82 1.68 9.1477e-41
3.64 1.82 1.68 9.1477e-41
3.68 1.82 1.69 9.1477e-41
3.71 1.82 1.68 9.1477e-41
3.75 1.82 1.68 9.1477e-41
3.78 1.82 1.69 9.1477e-41
3.82 1.82 1.68 9.1477e-41
3.85 1.82 1.69 9.1477e-41
3.89 1.82 1.69 9.1477e-41
3.92 1.82 1.68 9.1477e-41
3.96 1.82 1.69 9.1477e-41
3.99 1.82 1.68 9.1477e-41
4.03 1.82 1.68 9.1477e-41
4.06 1.82 1.69 9.1477e-41
4.09 1.82 1.68 9.1477e-41
4.16 1.82 1.67 9.1477e-41
4.2 1.82 1.67 9.1477e-41
4.23 1.82 1.67 9.1477e-41
4.27 1.82 1.66 9.1477e-41
4.31 1.82 1.65 9.1477e-41
4.34 1.82 1.66 9.1477e-41
4.38 1.82 1.65 9.1477e-41
4.41 1.82 1.64 9.1477e-41
4.45 1.82 1.65 9.1477e-41
4.48 1.82 1.63 9.1477e-41
4.52 1.82 1.63 9.1477e-41
4.56 1.82 1.63 9.1477e-41
4.59 1.82 1.63 9.1477e-41
4.63 1.82 1.63 9.1477e-41
4.68 1.82 1.55 9.1477e-41
4.81 1.82 0.94 9.1477e-41
3.06 1.89 0.99 9.1477e-41
3.22 1.89 1.56 9.1477e-41
3.28 1.89 1.69 9.1477e-41
3.32 1.89 1.67 9.1477e-41
3.36 1.89 1.68 9.1477e-41
3.39 1.89 1.7 9.1477e-41
3.43 1.89 1.7 9.1477e-41
3.47 1.89 1.7 9.1477e-41
3.5 1.89 1.71 9.1477e-41
3.54 1.89 1.7 9.1477e-41
3.57 1.89 1.7 9.1477e-41
3.61 1.89 1.7 9.1477e-41
3.64 1.89 1.71 9.1477e-41
3.68 1.89 1.72 9.1477e-41
3.71 1.89 1.71 9.1477e-41
3.75 1.89 1.71 9.1477e-41
3.78 1.89 1.71 9.1477e-41
3.82 1.89 1.7 9.1477e-41
3.85 1.89 1.71 9.1477e-41
3.89 1.89 1.71 9.1477e-41
3.92 1.89 1.7 9.1477e-41
3.96 1.89 1.7 9.1477e-41
3.99 1.89 1.7 9.1477e-41
4.03 1.89 1.7 9.1477e-41
4.06 1.89 1.71 9.1477e-41
4.09 1.89 1.69 9.1477e-41
4.16 1.89 1.7 9.1477e-41
4.2 1.89 1.7 9.1477e-41
4.23 1.89 1.7 9.1477e-41
4.27 1.89 1.69 9.1477e-41
4.3 1.89 1.68 9.1477e-41
4.34 1.89 1.69 9.1477e-41
4.37 1.89 1.68 9.1477e-41
4.41 1.89 1.68 9.1477e-41
4.45 1.89 1.66 9.1477e-41
4.48 1.89 1.65 9.1477e-41
4.52 1.89 1.66 9.1477e-41
4.55 1.89 1.66 9.1477e-41
4.59 1.89 1.64 9.1477e-41
4.63 1.89 1.64 9.1477e-41
4.67 1.89 1.59 9.1477e-41
4.8 1.89 0.96 9.1477e-41
3.09 1.96 1.13 9.1477e-41
3.23 1.96 1.59 9.1477e-41
3.29 1.96 1.71 9.1477e-41
3.32 1.96 1.69 9.1477e-41
3.36 1.96 1.69 9.1477e-41
3.4 1.96 1.72 9.1477e-41
3.43 1.96 1.72 9.1477e-41
3.47 1.96 1.72 9.1477e-41
3.5 1.96 1.72 9.1477e-41
3.54 1.96 1.72 9.1477e-41
3.58 1.96 1.73 9.1477e-41
3.61 1.96 1.72 9.1477e-41
3.65 1.96 1.73 9.1477e-41
3.68 1.96 1.72 9.1477e-41
3.72 1.96 1.73 9.1477e-41
3.75 1.96 1.72 9.1477e-41
3.78 1.96 1.73 9.1477e-41
3.82 1.96 1.72 9.1477e-41
3.85 1.96 1.72 9.1477e-41
3.89 1.96 1.72 9.1477e-41
3.92 1.96 1.72 9.1477e-41
3.96 1.96 1.73 9.1477e-41
3.99 1.96 1.72 9.1477e-41
4.03 1.96 1.72 9.1477e-41
4.06 1.96 1.73 9.1477e-41
4.09 1.96 1.72 9.1477e-41
4.16 1.96 1.71 9.1477e-41
4.2 1.96 1.72 9.1477e-41
4.23 1.96 1.72 9.1477e-41
4.27 1.96 1.7 9.1477e-41
4.3 1.96 1.7 9.1477e-41
4.34 1.96 1.7 9.1477e-41
4.37 1.96 1.7 9.1477e-41
4.41 1.96 1.69 9.1477e-41
4.44 1.96 1.68 9.1477e-41
4.48 1.96 1.68 9.1477e-41
4.52 1.96 1.69 9.1477e-41
4.55 1.96 1.68 9.1477e-41
4.59 1.96 1.67 9.1477e-41
4.62 1.96 1.66 9.1477e-41
4.67 1.96 1.61 9.1477e-41
4.8 1.96 0.99 9.1477e-41
3.1 2.03 1.16 9.1477e-41
3.23 2.03 1.63 9.1477e-41
3.29 2.03 1.72 9.1477e-41
3.33 2.03 1.72 9.1477e-41
3.36 2.03 1.71 9.1477e-41
3.4 2.03 1.73 9.1477e-41
3.43 2.03 1.73 9.1477e-41
3.47 2.03 1.74 9.1477e-41
3.51 2.03 1.74 9.1477e-41
3.54 2.03 1.73 9.1477e-41
3.58 2.03 1.74 9.1477e-41
3.61 2.03 1.73 9.1477e-41
3.65 2.03 1.73 9.1477e-41
3.68 2.03 1.75 9.1477e-41
3.72 2.03 1.74 9.1477e-41
3.75 2.03 1.74 9.1477e-41
3.79 2.03 1.74 9.1477e-41
3.82 2.03 1.74 9.1477e-41
3.85 2.03 1.74 9.1477e-41
3.89 2.03 1.74 9.1477e-41
3.92 2.03 1.74 9.1477e-41
3.96 2.03 1.74 9.1477e-41
3.99 2.03 1.74 9.1477e-41
4.03 2.03 1.73 9.1477e-41
4.06 2.03 1.74 9.1477e-41
4.09 2.03 1.73 9.1477e-41
4.16 2.03 1.74 9.1477e-41
4.2 2.03 1.73 9.1477e-41
4.23 2.03 1.73 9.1477e-41
4.27 2.03 1.72 9.1477e-41
4.3 2.03 1.72 9.1477e-41
4.34 2.03 1.71 9.1477e-41
4.37 2.03 1.71 9.1477e-41
4.41 2.03 1.71 9.1477e-41
4.44 2.03 1.7 9.1477e-41
4.48 2.03 1.7 9.1477e-41
4.51 2.03 1.7 9.1477e-41
4.55 2.03 1.68 9.1477e-41
4.59 2.03 1.68 9.1477e-41
4.62 2.03 1.69 9.1477e-41
4.67 2.03 1.62 9.1477e-41
4.78 2.03 1.09 9.1477e-41
3.24 2.1 1.67 9.1477e-41
3.29 2.1 1.73 9.1477e-41
3.33 2.1 1.72 9.1477e-41
3.36 2.1 1.73 9.1477e-41
3.4 2.1 1.74 9.1477e-41
3.44 2.1 1.75 9.1477e-41
3.47 2.1 1.74 9.1477e-41
3.51 2.1 1.75 9.1477e-41
3.54 2.1 1.75 9.1477e-41
3.58 2.1 1.75 9.1477e-41
3.61 2.1 1.74 9.1477e-41
3.65 2.1 1.75 9.1477e-41
3.68 2.1 1.75 9.1477e-41
3.72 2.1 1.75 9.1477e-41
3.75 2.1 1.75 9.1477e-41
3.79 2.1 1.76 9.1477e-41
3.82 2.1 1.74 9.1477e-41
3.86 2.1 1.75 9.1477e-41
3.89 2.1 1.75 9.1477e-41
3.92 2.1 1.74 9.1477e-41
3.96 2.1 1.75 9.1477e-41
3.99 2.1 1.75 9.1477e-41
4.03 2.1 1.74 9.1477e-41
4.06 2.1 1.76 9.1477e-41
4.09 2.1 1.74 9.1477e-41
4.16 2.1 1.74 9.1477e-41
4.2 2.1 1.74 9.1477e-41
4.23 2.1 1.73 9.1477e-41
4.27 2.1 1.74 9.1477e-41
4.3 2.1 1.72 9.1477e-41
4.34 2.1 1.74 9.1477e-41
4.37 2.1 1.73 9.1477e-41
4.41 2.1 1.73 9.1477e-41
4.44 2.1 1.72 9.1477e-41
4.48 2.1 1.71 9.1477e-41
4.51 2.1 1.72 9.1477e-41
4.55 2.1 1.7 9.1477e-41
4.58 2.1 1.7 9.1477e-41
4.62 2.1 1.7 9.1477e-41
4.66 2.1 1.64 9.1477e-41
4.77 2.1 1.18 9.1477e-41
3.25 2.17 1.69 9.1477e-41
3.29 2.17 1.74 9.1477e-41
3.33 2.17 1.74 9.1477e-41
3.37 2.17 1.74 9.1477e-41
3.4 2.17 1.76 9.1477e-41
3.44 2.17 1.75 9.1477e-41
3.48 2.17 1.76 9.1477e-41
3.51 2.17 1.76 9.1477e-41
3.54 2.17 1.75 9.1477e-41
3.58 2.17 1.76 9.1477e-41
3.61 2.17 1.76 9.1477e-41
3.65 2.17 1.75 9.1477e-41
3.68 2.17 1.76 9.1477e-41
3.72 2.17 1.77 9.1477e-41
3.75 2.17 1.77 9.1477e-41
3.79 2.17 1.77 9.1477e-41
3.82 2.17 1.75 9.1477e-41
3.86 2.17 1.76 9.1477e-41
3.89 2.17 1.77 9.1477e-41
3.92 2.17 1.76 9.1477e-41
3.96 2.17 1.76 9.1477e-41
3.99 2.17 1.76 9.1477e-41
4.03 2.17 1.77 9.1477e-41
4.06 2.17 1.77 9.1477e-41
4.09 2.17 1.76 9.1477e-41
4.16 2.17 1.75 9.1477e-41
4.2 2.17 1.75 9.1477e-41
4.23 2.17 1.74 9.1477e-41
4.27 2.17 1.75 9.1477e-41
4.3 2.17 1.74 9.1477e-41
4.34 2.17 1.74 9.1477e-41
4.37 2.17 1.73 9.1477e-41
4.4 2.17 1.74 9.1477e-41
4.44 2.17 1.73 9.1477e-41
4.48 2.17 1.72 9.1477e-41
4.51 2.17 1.73 9.1477e-41
4.55 2.17 1.72 9.1477e-41
4.58 2.17 1.7 9.1477e-41
4.62 2.17 1.7 9.1477e-41
4.66 2.17 1.66 9.1477e-41
4.73 2.17 1.41 9.1477e-41
3.25 2.24 1.7 9.1477e-41
3.29 2.24 1.74 9.1477e-41
3.33 2.24 1.75 9.1477e-41
3.37 2.24 1.75 9.1477e-41
3.4 2.24 1.76 9.1477e-41
3.44 2.24 1.76 9.1477e-41
3.48 2.24 1.76 9.1477e-41
3.51 2.24 1.78 9.1477e-41
3.55 2.24 1.76 9.1477e-41
3.58 2.24 1.77 9.1477e-41
3.61 2.24 1.76 9.1477e-41
3.65 2.24 1.78 9.1477e-41
3.69 2.24 1.78 9.1477e-41
3.72 2.24 1.77 9.1477e-41
3.75 2.24 1.78 9.1477e-41
3.79 2.24 1.77 9.1477e-41
3.82 2.24 1.77 9.1477e-41
3.86 2.24 1.77 9.1477e-41
3.89 2.24 1.77 9.1477e-41
3.92 2.24 1.76 9.1477e-41
3.96 2.24 1.77 9.1477e-41
3.99 2.24 1.78 9.1477e-41
4.03 2.24 1.77 9.1477e-41
4.06 2.24 1.76 9.1477e-41
4.09 2.24 1.77 9.1477e-41
4.16 2.24 1.77 9.1477e-41
4.2 2.24 1.75 9.1477e-41
4.23 2.24 1.76 9.1477e-41
4.27 2.24 1.75 9.1477e-41
4.3 2.24 1.74 9.1477e-41
4.33 2.24 1.75 9.1477e-41
4.37 2.24 1.73 9.1477e-41
4.4 2.24 1.74 9.1477e-41
4.44 2.24 1.73 9.1477e-41
4.47 2.24 1.73 9.1477e-41
4.51 2.24 1.73 9.1477e-41
4.55 2.24 1.72 9.1477e-41
4.58 2.24 1.71 9.1477e-41
4.62 2.24 1.71 9.1477e-41
4.66 2.24 1.67 9.1477e-41
3.17 2.31 1.5 9.1477e-41
3.25 2.31 1.71 9.1477e-41
3.3 2.31 1.75 9.1477e-41
3.33 2.31 1.76 9.1477e-41
3.37 2.31 1.75 9.1477e-41
3.41 2.31 1.77 9.1477e-41
3.44 2.31 1.77 9.1477e-41
3.48 2.31 1.77 9.1477e-41
3.51 2.31 1.77 9.1477e-41
3.55 2.31 1.77 9.1477e-41
3.58 2.31 1.77 9.1477e-41
3.62 2.31 1.78 9.1477e-41
3.65 2.31 1.77 9.1477e-41
3.68 2.31 1.77 9.1477e-41
3.72 2.31 1.77 9.1477e-41
3.75 2.31 1.78 9.1477e-41
3.79 2.31 1.78 9.1477e-41
3.82 2.31 1.76 9.1477e-41
3.86 2.31 1.77 9.1477e-41
3.89 2.31 1.78 9.1477e-41
3.92 2.31 1.77 9.1477e-41
3.96 2.31 1.78 9.1477e-41
3.99 2.31 1.78 9.1477e-41
4.03 2.31 1.77 9.1477e-41
4.06 2.31 1.77 9.1477e-41
4.09 2.31 1.77 9.1477e-41
4.16 2.31 1.77 9.1477e-41
4.2 2.31 1.76 9.1477e-41
4.23 2.31 1.76 9.1477e-41
4.27 2.31 1.76 9.1477e-41
4.3 2.31 1.75 9.1477e-41
4.33 2.31 1.75 9.1477e-41
4.37 2.31 1.74 9.1477e-41
4.4 2.31 1.75 9.1477e-41
4.44 2.31 1.74 9.1477e-41
4.47 2.31 1.74 9.1477e-41
4.51 2.31 1.74 9.1477e-41
4.54 2.31 1.74 9.1477e-41
4.58 2.31 1.72 9.1477e-41
4.62 2.31 1.73 9.1477e-41
4.66 2.31 1.67 9.1477e-41
4.71 2.31 1.55 9.1477e-41
3.17 2.38 1.5 9.1477e-41
3.26 2.38 1.72 9.1477e-41
3.3 2.38 1.77 9.1477e-41
3.33 2.38 1.76 9.1477e-41
3.37 2.38 1.76 9.1477e-41
3.41 2.38 1.77 9.1477e-41
3.44 2.38 1.78 9.1477e-41
3.48 2.38 1.78 9.1477e-41
3.51 2.38 1.78 9.1477e-41
3.55 2.38 1.78 9.1477e-41
3.58 2.38 1.78 9.1477e-41
3.62 2.38 1.78 9.1477e-41
3.65 2.38 1.79 9.1477e-41
3.69 2.38 1.79 9.1477e-41
3.72 2.38 1.78 9.1477e-41
3.75 2.38 1.78 9.1477e-41
3.79 2.38 1.79 9.1477e-41
3.82 2.38 1.79 9.1477e-41
3.86 2.38 1.78 9.1477e-41
3.89 2.38 1.78 9.1477e-41
3.92 2.38 1.78 9.1477e-41
3.96 2.38 1.78 9.1477e-41
3.99 2.38 1.78 9.1477e-41
4.03 2.38 1.79 9.1477e-41
4.06 2.38 1.78 9.1477e-41
4.09 2.38 1.78 9.1477e-41
4.16 2.38 1.78 9.1477e-41
4.2 2.38 1.78 9.1477e-41
4.23 2.38 1.78 9.1477e-41
4.27 2.38 1.75 9.1477e-41
4.3 2.38 1.77 9.1477e-41
4.33 2.38 1.75 9.1477e-41
4.37 2.38 1.76 9.1477e-41
4.4 2.38 1.76 9.1477e-41
4.44 2.38 1.75 9.1477e-41
4.47 2.38 1.74 9.1477e-41
4.51 2.38 1.75 9.1477e-41
4.55 2.38 1.73 9.1477e-41
4.58 2.38 1.73 9.1477e-41
4.62 2.38 1.73 9.1477e-41
4.66 2.38 1.67 9.1477e-41
4.71 2.38 1.54 9.1477e-41
3.26 2.45 1.72 9.1477e-41
3.3 2.45 1.77 9.1477e-41
3.34 2.45 1.77 9.1477e-41
3.37 2.45 1.76 9.1477e-41
3.41 2.45 1.78 9.1477e-41
3.44 2.45 1.79 9.1477e-41
3.48 2.45 1.78 9.1477e-41
3.51 2.45 1.78 9.1477e-41
3.55 2.45 1.78 9.1477e-41
3.58 2.45 1.78 9.1477e-41
3.62 2.45 1.78 9.1477e-41
3.65 2.45 1.79 9.1477e-41
3.69 2.45 1.8 9.1477e-41
3.72 2.45 1.79 9.1477e-41
3.76 2.45 1.79 9.1477e-41
3.79 2.45 1.79 9.1477e-41
3.82 2.45 1.79 9.1477e-41
3.86 2.45 1.79 9.1477e-41
3.89 2.45 1.79 9.1477e-41
3.93 2.45 1.79 9.1477e-41
3.96 2.45 1.79 9.1477e-41
3.99 2.45 1.79 9.1477e-41
4.03 2.45 1.8 9.1477e-41
4.06 2.45 1.78 9.1477e-41
4.09 2.45 1.79 9.1477e-41
4.16 2.45 1.79 9.1477e-41
4.2 2.45 1.78 9.1477e-41
4.23 2.45 1.77 9.1477e-41
4.27 2.45 1.77 9.1477e-41
4.3 2.45 1.77 9.1477e-41
4.33 2.45 1.76 9.1477e-41
4.37 2.45 1.76 9.1477e-41
4.4 2.45 1.76 9.1477e-41
4.44 2.45 1.76 9.1477e-41
4.47 2.45 1.76 9.1477e-41
4.51 2.45 1.76 9.1477e-41
4.54 2.45 1.74 9.1477e-41
4.58 2.45 1.74 9.1477e-41
4.62 2.45 1.73 9.1477e-41
4.66 2.45 1.68 9.1477e-41
4.72 2.45 1.5 9.1477e-41
3.26 2.52 1.73 9.1477e-41
3.3 2.52 1.78 9.1477e-41
3.34 2.52 1.77 9.1477e-41
3.37 2.52 1.77 9.1477e-41
3.41 2.52 1.78 9.1477e-41
3.44 2.52 1.79 9.1477e-41
3.48 2.52 1.78 9.1477e-41
3.51 2.52 1.79 9.1477e-41
3.55 2.52 1.79 9.1477e-41
3.58 2.52 1.79 9.1477e-41
3.62 2.52 1.79 9.1477e-41
3.65 2.52 1.8 9.1477e-41
3.69 2.52 1.8 9.1477e-41
3.72 2.52 1.8 9.1477e-41
3.76 2.52 1.8 9.1477e-41
3.79 2.52 1.79 9.1477e-41
3.82 2.52 1.8 9.1477e-41
3.86 2.52 1.8 9.1477e-41
3.89 2.52 1.8 9.1477e-41
3.93 2.52 1.81 9.1477e-41
3.96 2.52 1.79 9.1477e-41
3.99 2.52 1.8 9.1477e-41
4.03 2.52 1.8 9.1477e-41
4.06 2.52 1.8 9.1477e-41
4.09 2.52 1.8 9.1477e-41
4.16 2.52 1.78 9.1477e-41
4.2 2.52 1.79 9.1477e-41
4.23 2.52 1.78 9.1477e-41
4.27 2.52 1.77 9.1477e-41
4.3 2.52 1.77 9.1477e-41
4.33 2.52 1.78 9.1477e-41
4.37 2.52 1.76 9.1477e-41
4.4 2.52 1.77 9.1477e-41
4.44 2.52 1.76 9.1477e-41
4.47 2.52 1.77 9.1477e-41
4.51 2.52 1.76 9.1477e-41
4.54 2.52 1.75 9.1477e-41
4.58 2.52 1.74 9.1477e-41
4.61 2.52 1.74 9.1477e-41
4.66 2.52 1.68 9.1477e-41
3.26 2.59 1.74 9.1477e-41
3.3 2.59 1.77 9.1477e-41
3.34 2.59 1.78 9.1477e-41
3.37 2.59 1.77 9.1477e-41
3.41 2.59 1.79 9.1477e-41
3.45 2.59 1.8 9.1477e-41
3.48 2.59 1.78 9.1477e-41
3.52 2.59 1.8 9.1477e-41
3.55 2.59 1.8 9.1477e-41
3.59 2.59 1.81 9.1477e-41
3.62 2.59 1.8 9.1477e-41
3.65 2.59 1.8 9.1477e-41
3.69 2.59 1.81 9.1477e-41
3.72 2.59 1.8 9.1477e-41
3.76 2.59 1.8 9.1477e-41
3.79 2.59 1.81 9.1477e-41
3.82 2.59 1.79 9.1477e-41
3.86 2.59 1.8 9.1477e-41
3.89 2.59 1.8 9.1477e-41
3.93 2.59 1.81 9.1477e-41
3.96 2.59 1.8 9.1477e-41
3.99 2.59 1.8 9.1477e-41
4.03 2.59 1.8 9.1477e-41
4.06 2.59 1.8 9.1477e-41
4.09 2.59 1.8 9.1477e-41
4.16 2.59 1.79 9.1477e-41
4.2 2.59 1.8 9.1477e-41
4.23 2.59 1.79 9.1477e-41
4.27 2.59 1.78 9.1477e-41
4.3 2.59 1.77 9.1477e-41
4.33 2.59 1.78 9.1477e-41
4.37 2.59 1.78 9.1477e-41
4.4 2.59 1.76 9.1477e-41
4.44 2.59 1.77 9.1477e-41
4.47 2.59 1.76 9.1477e-41
4.51 2.59 1.77 9.1477e-41
4.54 2.59 1.75 9.1477e-41
4.58 2.59 1.75 9.1477e-41
4.61 2.59 1.75 9.1477e-41
4.66 2.59 1.68 9.1477e-41
3.26 2.66 1.74 9.1477e-41
3.3 2.66 1.77 9.1477e-41
3.34 2.66 1.79 9.1477e-41
3.37 2.66 1.78 9.1477e-41
3.41 2.66 1.79 9.1477e-41
3.45 2.66 1.8 9.1477e-41
3.48 2.66 1.79 9.1477e-41
3.52 2.66 1.8 9.1477e-41
3.55 2.66 1.8 9.1477e-41
3.59 2.66 1.81 9.1477e-41
3.62 2.66 1.81 9.1477e-41
3.65 2.66 1.8 9.1477e-41
3.69 2.66 1.81 9.1477e-41
3.72 2.66 1.81 9.1477e-41
3.76 2.66 1.81 9.1477e-41
3.79 2.66 1.81 9.1477e-41
3.82 2.66 1.79 9.1477e-41
3.86 2.66 1.8 9.1477e-41
3.89 2.66 1.81 9.1477e-41
3.93 2.66 1.81 9.1477e-41
3.96 2.66 1.8 9.1477e-41
3.99 2.66 1.8 9.1477e-41
4.03 2.66 1.8 9.1477e-41
4.06 2.66 1.81 9.1477e-41
4.09 2.66 1.81 9.1477e-41
4.16 2.66 1.81 9.1477e-41
4.2 2.66 1.79 9.1477e-41
4.23 2.66 1.79 9.1477e-41
4.26 2.66 1.79 9.1477e-41
4.3 2.66 1.79 9.1477e-41
4.33 2.66 1.78 9.1477e-41
4.37 2.66 1.77 9.1477e-41
4.4 2.66 1.79 9.1477e-41
4.44 2.66 1.77 9.1477e-41
4.47 2.66 1.77 9.1477e-41
4.51 2.66 1.78 9.1477e-41
4.54 2.66 1.76 9.1477e-41
4.58 2.66 1.76 9.1477e-41
4.61 2.66 1.74 9.1477e-41
4.65 2.66 1.71 9.1477e-41
4.7 2.66 1.61 9.1477e-41
3.26 2.73 1.73 9.1477e-41
3.3 2.73 1.77 9.1477e-41
3.34 2.73 1.78 9.1477e-41
3.37 2.73 1.78 9.1477e-41
3.41 2.73 1.79 9.1477e-41
3.45 2.73 1.8 9.1477e-41
3.48 2.73 1.8 9.1477e-41
3.52 2.73 1.8 9.1477e-41
3.55 2.73 1.81 9.1477e-41
3.58 2.73 1.8 9.1477e-41
3.62 2.73 1.79 9.1477e-41
3.65 2.73 1.81 9.1477e-41
3.69 2.73 1.81 9.1477e-41
3.72 2.73 1.81 9.1477e-41
3.76 2.73 1.81 9.1477e-41
3.79 2.73 1.81 9.1477e-41
3.83 2.73 1.81 9.1477e-41
3.86 2.73 1.8 9.1477e-41
3.89 2.73 1.81 9.1477e-41
3.93 2.73 1.81 9.1477e-41
3.96 2.73 1.81 9.1477e-41
3.99 2.73 1.81 9.1477e-41
4.03 2.73 1.81 9.1477e-41
4.06 2.73 1.8 9.1477e-41
4.09 2.73 1.8 9.1477e-41
4.16 2.73 1.8 9.1477e-41
4.2 2.73 1.8 9.1477e-41
4.23 2.73 1.8 9.1477e-41
4.26 2.73 1.79 9.1477e-41
4.3 2.73 1.79 9.1477e-41
4.33 2.73 1.78 9.1477e-41
4.37 2.73 1.78 9.1477e-41
4.4 2.73 1.78 9.1477e-41
4.44 2.73 1.77 9.1477e-41
4.47 2.73 1.77 9.1477e-41
4.51 2.73 1.77 9.1477e-41
4.54 2.73 1.76 9.1477e-41
4.58 2.73 1.76 9.1477e-41
4.61 2.73 1.75 9.1477e-41
4.65 2.73 1.7 9.1477e-41
4.71 2.73 1.57 9.1477e-41
3.26 2.8 1.74 9.1477e-41
3.3 2.8 1.77 9.1477e-41
3.34 2.8 1.79 9.1477e-41
3.37 2.8 1.78 9.1477e-41
3.41 2.8 1.8 9.1477e-41
3.45 2.8 1.8 9.1477e-41
3.48 2.8 1.8 9.1477e-41
3.52 2.8 1.81 9.1477e-41
3.55 2.8 1.81 9.1477e-41
3.59 2.8 1.82 9.1477e-41
3.62 2.8 1.8 9.1477e-41
3.66 2.8 1.82 9.1477e-41
3.69 2.8 1.82 9.1477e-41
3.72 2.8 1.81 9.1477e-41
3.76 2.8 1.82 9.1477e-41
3.79 2.8 1.81 9.1477e-41
3.83 2.8 1.81 9.1477e-41
3.86 2.8 1.81 9.1477e-41
3.89 2.8 1.82 9.1477e-41
3.93 2.8 1.81 9.1477e-41
3.96 2.8 1.81 9.1477e-41
3.99 2.8 1.82 9.1477e-41
4.03 2.8 1.81 9.1477e-41
4.06 2.8 1.81 9.1477e-41
4.09 2.8 1.8 9.1477e-41
4.16 2.8 1.81 9.1477e-41
4.2 2.8 1.8 9.1477e-41
4.23 2.8 1.81 9.1477e-41
4.26 2.8 1.79 9.1477e-41
4.3 2.8 1.79 9.1477e-41
4.33 2.8 1.79 9.1477e-41
4.37 2.8 1.79 9.1477e-41
4.4 2.8 1.79 9.1477e-41
4.44 2.8 1.78 9.1477e-41
4.47 2.8 1.76 9.1477e-41
4.51 2.8 1.77 9.1477e-41
4.54 2.8 1.77 9.1477e-41
4.58 2.8 1.76 9.1477e-41
4.61 2.8 1.75 9.1477e-41
4.66 2.8 1.75 3.57e-43
4.71 2.8 1.57 9.1477e-41
3.26 2.87 1.73 9.1477e-41
3.3 2.87 1.78 9.1477e-41
3.34 2.87 1.79 9.1477e-41
3.38 2.87 1.79 9.1477e-41
3.41 2.87 1.8 9.1477e-41
3.45 2.87 1.8 9.1477e-41
3.48 2.87 1.81 9.1477e-41
3.52 2.87 1.81 9.1477e-41
3.55 2.87 1.8 9.1477e-41
3.59 2.87 1.82 9.1477e-41
3.62 2.87 1.81 9.1477e-41
3.65 2.87 1.81 9.1477e-41
3.69 2.87 1.82 9.1477e-41
3.72 2.87 1.82 9.1477e-41
3.76 2.87 1.82 9.1477e-41
3.79 2.87 1.82 9.1477e-41
3.83 2.87 1.81 9.1477e-41
3.86 2.87 1.81 9.1477e-41
3.89 2.87 1.81 9.1477e-41
3.93 2.87 1.82 9.1477e-41
3.96 2.87 1.81 9.1477e-41
3.99 2.87 1.82 9.1477e-41
4.03 2.87 1.81 9.1477e-41
4.06 2.87 1.8 9.1477e-41
4.09 2.87 1.81 9.1477e-41
4.16 2.87 1.82 9.1477e-41
4.2 2.87 1.8 9.1477e-41
4.23 2.87 1.79 9.1477e-41
4.26 2.87 1.79 9.1477e-41
4.3 2.87 1.8 9.1477e-41
4.33 2.87 1.79 9.1477e-41
4.37 2.87 1.78 9.1477e-41
4.4 2.87 1.79 9.1477e-41
4.44 2.87 1.78 9.1477e-41
4.47 2.87 1.78 9.1477e-41
4.51 2.87 1.78 9.1477e-41
4.54 2.87 1.77 9.1477e-41
4.58 2.87 1.77 9.1477e-41
4.61 2.87 1.75 9.1477e-41
4.65 2.87 1.7 9.1477e-41
3.26 2.94 1.74 9.1477e-41
3.3 2.94 1.77 9.1477e-41
3.34 2.94 1.8 9.1477e-41
3.38 2.94 1.79 9.1477e-41
3.41 2.94 1.8 9.1477e-41
3.45 2.94 1.81 9.1477e-41
3.48 2.94 1.81 9.1477e-41
3.52 2.94 1.82 9.1477e-41
3.55 2.94 1.81 9.1477e-41
3.59 2.94 1.82 9.1477e-41
3.62 2.94 1.81 9.1477e-41
3.66 2.94 1.82 9.1477e-41
3.69 2.94 1.81 9.1477e-41
3.72 2.94 1.81 9.1477e-41
3.76 2.94 1.82 9.1477e-41
3.79 2.94 1.82 9.1477e-41
3.83 2.94 1.82 9.1477e-41
3.86 2.94 1.82 9.1477e-41
3.89 2.94 1.82 9.1477e-41
3.93 2.94 1.82 9.1477e-41
3.96 2.94 1.83 9.1477e-41
3.99 2.94 1.82 9.1477e-41
4.03 2.94 1.81 9.1477e-41
4.06 2.94 1.81 9.1477e-41
4.09 2.94 1.8 9.1477e-41
4.16 2.94 1.81 9.1477e-41
4.2 2.94 1.81 9.1477e-41
4.23 2.94 1.8 9.1477e-41
4.26 2.94 1.8 9.1477e-41
4.3 2.94 1.8 9.1477e-41
4.33 2.94 1.78 9.1477e-41
4.37 2.94 1.79 9.1477e-41
4.4 2.94 1.79 9.1477e-41
4.44 2.94 1.78 9.1477e-41
4.47 2.94 1.78 9.1477e-41
4.51 2.94 1.78 9.1477e-41
4.54 2.94 1.77 9.1477e-41
4.58 2.94 1.77 9.1477e-41
4.61 2.94 1.76 9.1477e-41
4.65 2.94 1.7 9.1477e-41
3.26 3.01 1.74 9.1477e-41
3.3 3.01 1.78 9.1477e-41
3.34 3.01 1.81 9.1477e-41
3.38 3.01 1.79 9.1477e-41
3.41 3.01 1.8 9.1477e-41
3.45 3.01 1.81 9.1477e-41
3.48 3.01 1.8 9.1477e-41
3.52 3.01 1.81 9.1477e-41
3.55 3.01 1.81 9.1477e-41
3.59 3.01 1.82 9.1477e-41
3.62 3.01 1.81 9.1477e-41
3.66 3.01 1.83 9.1477e-41
3.69 3.01 1.82 9.1477e-41
3.72 3.01 1.82 9.1477e-41
3.76 3.01 1.82 9.1477e-41
3.79 3.01 1.82 9.1477e-41
3.83 3.01 1.82 9.1477e-41
3.86 3.01 1.82 9.1477e-41
3.89 3.01 1.82 9.1477e-41
3.93 3.01 1.82 9.1477e-41
3.96 3.01 1.8 9.1477e-41
3.99 3.01 1.81 9.1477e-41
4.03 3.01 1.82 9.1477e-41
4.06 3.01 1.82 9.1477e-41
4.09 3.01 1.81 9.1477e-41
4.16 3.01 1.81 9.1477e-41
4.2 3.01 1.8 9.1477e-41
4.23 3.01 1.81 9.1477e-41
4.26 3.01 1.8 9.1477e-41
4.3 3.01 1.8 9.1477e-41
4.33 3.01 1.8 9.1477e-41
4.37 3.01 1.79 9.1477e-41
4.4 3.01 1.8 9.1477e-41
4.44 3.01 1.78 9.1477e-41
4.47 3.01 1.77 9.1477e-41
4.5 3.01 1.79 9.1477e-41
4.54 3.01 1.78 9.1477e-41
4.58 3.01 1.77 9.1477e-41
4.61 3.01 1.76 9.1477e-41
4.66 3.01 1.69 9.1477e-41
3.26 3.08 1.74 9.1477e-41
3.3 3.08 1.77 9.1477e-41
3.34 3.08 1.8 9.1477e-41
3.38 3.08 1.79 9.1477e-41
3.41 3.08 1.8 9.1477e-41
3.45 3.08 1.81 9.1477e-41
3.48 3.08 1.8 9.1477e-41
3.52 3.08 1.82 9.1477e-41
3.55 3.08 1.81 9.1477e-41
3.59 3.08 1.82 9.1477e-41
3.62 3.08 1.82 9.1477e-41
3.66 3.08 1.82 9.1477e-41
3.69 3.08 1.82 9.1477e-41
3.72 3.08 1.81 9.1477e-41
3.76 3.08 1.83 9.1477e-41
3.79 3.08 1.83 9.1477e-41
3.83 3.08 1.82 9.1477e-41
3.86 3.08 1.82 9.1477e-41
3.89 3.08 1.82 9.1477e-41
3.93 3.08 1.81 9.1477e-41
3.96 3.08 1.82 9.1477e-41
3.99 3.08 1.83 9.1477e-41
4.03 3.08 1.82 9.1477e-41
4.06 3.08 1.83 9.1477e-41
4.09 3.08 1.82 9.1477e-41
4.16 3.08 1.82 9.1477e-41
4.2 3.08 1.81 9.1477e-41
4.23 3.08 1.8 9.1477e-41
4.26 3.08 1.8 9.1477e-41
4.3 3.08 1.8 9.1477e-41
4.33 3.08 1.79 9.1477e-41
4.37 3.08 1.78 9.1477e-41
4.4 3.08 1.79 9.1477e-41
4.44 3.08 1.78 9.1477e-41
4.47 3.08 1.78 9.1477e-41
4.51 3.08 1.78 9.1477e-41
4.54 3.08 1.78 9.1477e-41
4.57 3.08 1.78 9.1477e-41
4.61 3.08 1.75 9.1477e-41
4.65 3.08 1.7 9.1477e-41
4.71 3.08 1.59 9.1477e-41
3.13 3.15 1.3 9.1477e-41
3.26 3.15 1.73 9.1477e-41
3.3 3.15 1.78 9.1477e-41
3.34 3.15 1.8 9.1477e-41
3.38 3.15 1.79 9.1477e-41
3.41 3.15 1.79 9.1477e-41
3.45 3.15 1.81 9.1477e-41
3.48 3.15 1.81 9.1477e-41
3.52 3.15 1.81 9.1477e-41
3.55 3.15 1.82 9.1477e-41
3.59 3.15 1.81 9.1477e-41
3.62 3.15 1.81 9.1477e-41
3.66 3.15 1.82 9.1477e-41
3.69 3.15 1.82 9.1477e-41
3.72 3.15 1.81 9.1477e-41
3.76 3.15 1.82 9.1477e-41
3.79 3.15 1.82 9.1477e-41
3.83 3.15 1.82 9.1477e-41
3.86 3.15 1.82 9.1477e-41
3.89 3.15 1.82 9.1477e-41
3.93 3.15 1.82 9.1477e-41
3.96 3.15 1.82 9.1477e-41
3.99 3.15 1.83 9.1477e-41
4.03 3.15 1.81 9.1477e-41
4.06 3.15 1.82 9.1477e-41
4.09 3.15 1.82 9.1477e-41
4.16 3.15 1.82 9.1477e-41
4.2 3.15 1.81 9.1477e-41
4.23 3.15 1.81 9.1477e-41
4.26 3.15 1.81 9.1477e-41
4.3 3.15 1.8 9.1477e-41
4.33 3.15 1.79 9.1477e-41
4.37 3.15 1.79 9.1477e-41
4.4 3.15 1.79 9.1477e-41
4.43 3.15 1.79 9.1477e-41
4.47 3.15 1.8 9.1477e-41
4.51 3.15 1.78 9.1477e-41
4.54 3.15 1.77 9.1477e-41
4.58 3.15 1.77 9.1477e-41
4.61 3.15 1.75 9.1477e-41
4.65 3.15 1.7 9.1477e-41
3.12 3.22 1.28 9.1477e-41
3.26 3.22 1.73 9.1477e-41
3.3 3.22 1.77 9.1477e-41
3.34 3.22 1.79 9.1477e-41
3.38 3.22 1.81 9.1477e-41
3.41 3.22 1.79 9.1477e-41
3.45 3.22 1.81 9.1477e-41
3.48 3.22 1.8 9.1477e-41
3.52 3.22 1.81 9.1477e-41
3.55 3.22 1.82 9.1477e-41
3.59 3.22 1.82 9.1477e-41
3.62 3.22 1.82 9.1477e-41
3.65 3.22 1.81 9.1477e-41
3.69 3.22 1.83 9.1477e-41
3.72 3.22 1.82 9.1477e-41
3.76 3.22 1.82 9.1477e-41
3.79 3.22 1.83 9.1477e-41
3.83 3.22 1.82 9.1477e-41
3.86 3.22 1.82 9.1477e-41
3.89 3.22 1.82 9.1477e-41
3.93 3.22 1.82 9.1477e-41
3.96 3.22 1.83 9.1477e-41
3.99 3.22 1.82 9.1477e-41
4.03 3.22 1.82 9.1477e-41
4.06 3.22 1.82 9.1477e-41
4.09 3.22 1.82 9.1477e-41
4.16 3.22 1.81 9.1477e-41
4.2 3.22 1.81 9.1477e-41
4.23 3.22 1.8 9.1477e-41
4.26 3.22 1.8 9.1477e-41
4.3 3.22 1.8 9.1477e-41
4.33 3.22 1.79 9.1477e-41
4.37 3.22 1.8 9.1477e-41
4.4 3.22 1.78 9.1477e-41
4.44 3.22 1.78 9.1477e-41
4.47 3.22 1.79 9.1477e-41
4.51 3.22 1.78 9.1477e-41
4.54 3.22 1.78 9.1477e-41
4.58 3.22 1.76 9.1477e-41
4.61 3.22 1.75 9.1477e-41
4.65 3.22 1.7 9.1477e-41
3.12 3.29 1.28 9.1477e-41
3.26 3.29 1.74 9.1477e-41
3.3 3.29 1.78 9.1477e-41
3.34 3.29 1.8 9.1477e-41
3.38 3.29 1.79 9.1477e-41
3.41 3.29 1.8 9.1477e-41
3.45 3.29 1.81 9.1477e-41
3.48 3.29 1.81 9.1477e-41
3.52 3.29 1.82 9.1477e-41
3.55 3.29 1.81 9.1477e-41
3.59 3.29 1.82 9.1477e-41
3.62 3.29 1.81 9.1477e-41
3.66 3.29 1.82 9.1477e-41
3.69 3.29 1.82 9.1477e-41
3.72 3.29 1.81 9.1477e-41
3.76 3.29 1.82 9.1477e-41
3.79 3.29 1.82 9.1477e-41
3.83 3.29 1.83 9.1477e-41
3.86 3.29 1.81 9.1477e-41
3.89 3.29 1.82 9.1477e-41
3.93 3.29 1.81 9.1477e-41
3.96 3.29 1.82 9.1477e-41
3.99 3.29 1.82 9.1477e-41
4.03 3.29 1.82 9.1477e-41
4.06 3.29 1.82 9.1477e-41
4.09 3.29 1.82 9.1477e-41
4.16 3.29 1.82 9.1477e-41
4.2 3.29 1.81 9.1477e-41
4.23 3.29 1.81 9.1477e-41
4.26 3.29 1.8 9.1477e-41
4.3 3.29 1.8 9.1477e-41
4.33 3.29 1.79 9.1477e-41
4.37 3.29 1.8 9.1477e-41
4.4 3.29 1.8 9.1477e-41
4.44 3.29 1.78 9.1477e-41
4.47 3.29 1.79 9.1477e-41
4.51 3.29 1.78 9.1477e-41
4.54 3.29 1.77 9.1477e-41
4.58 3.29 1.77 9.1477e-41
4.61 3.29 1.76 9.1477e-41
4.66 3.29 1.69 9.1477e-41
3.12 3.36 1.28 9.1477e-41
3.26 3.36 1.73 9.1477e-41
3.3 3.36 1.77 9.1477e-41
3.34 3.36 1.8 9.1477e-41
3.37 3.36 1.78 9.1477e-41
3.41 3.36 1.79 9.1477e-41
3.45 3.36 1.82 9.1477e-41
3.48 3.36 1.8 9.1477e-41
3.52 3.36 1.82 9.1477e-41
3.55 3.36 1.81 9.1477e-41
3.59 3.36 1.82 9.1477e-41
3.62 3.36 1.81 9.1477e-41
3.65 3.36 1.81 9.1477e-41
3.69 3.36 1.83 9.1477e-41
3.72 3.36 1.82 9.1477e-41
3.76 3.36 1.82 9.1477e-41
3.79 3.36 1.82 9.1477e-41
3.83 3.36 1.81 9.1477e-41
3.86 3.36 1.81 9.1477e-41
3.89 3.36 1.82 9.1477e-41
3.93 3.36 1.82 9.1477e-41
3.96 3.36 1.81 9.1477e-41
3.99 3.36 1.81 9.1477e-41
4.03 3.36 1.81 9.1477e-41
4.06 3.36 1.81 9.1477e-41
4.09 3.36 1.82 9.1477e-41
4.16 3.36 1.81 9.1477e-41
4.2 3.36 1.81 9.1477e-41
4.23 3.36 1.81 9.1477e-41
4.26 3.36 1.8 9.1477e-41
4.3 3.36 1.8 9.1477e-41
4.33 3.36 1.79 9.1477e-41
4.37 3.36 1.79 9.1477e-41
4.4 3.36 1.79 9.1477e-41
4.44 3.36 1.78 9.1477e-41
4.47 3.36 1.78 9.1477e-41
4.51 3.36 1.78 9.1477e-41
4.54 3.36 1.78 9.1477e-41
4.58 3.36 1.77 9.1477e-41
4.61 3.36 1.74 9.1477e-41
4.65 3.36 1.7 9.1477e-41
3.26 3.43 1.73 9.1477e-41
3.3 3.43 1.77 9.1477e-41
3.34 3.43 1.79 9.1477e-41
3.38 3.43 1.79 9.1477e-41
3.41 3.43 1.79 9.1477e-41
3.45 3.43 1.81 9.1477e-41
3.48 3.43 1.81 9.1477e-41
3.52 3.43 1.81 9.1477e-41
3.55 3.43 1.82 9.1477e-41
3.59 3.43 1.81 9.1477e-41
3.62 3.43 1.81 9.1477e-41
3.66 3.43 1.83 9.1477e-41
3.69 3.43 1.82 9.1477e-41
3.72 3.43 1.81 9.1477e-41
3.76 3.43 1.82 9.1477e-41
3.79 3.43 1.82 9.1477e-41
3.82 3.43 1.8 9.1477e-41
3.86 3.43 1.82 9.1477e-41
3.89 3.43 1.81 9.1477e-41
3.93 3.43 1.82 9.1477e-41
3.96 3.43 1.82 9.1477e-41
3.99 3.43 1.81 9.1477e-41
4.03 3.43 1.82 9.1477e-41
4.06 3.43 1.81 9.1477e-41
4.09 3.43 1.82 9.1477e-41
4.16 3.43 1.8 9.1477e-41
4.2 3.43 1.81 9.1477e-41
4.23 3.43 1.81 9.1477e-41
4.26 3.43 1.8 9.1477e-41
4.3 3.43 1.8 9.1477e-41
4.33 3.43 1.8 9.1477e-41
4.37 3.43 1.79 9.1477e-41
4.4 3.43 1.79 9.1477e-41
4.44 3.43 1.78 9.1477e-41
4.47 3.43 1.79 9.1477e-41
4.51 3.43 1.78 9.1477e-41
4.54 3.43 1.76 9.1477e-41
4.57 3.43 1.78 9.1477e-41
4.61 3.43 1.74 9.1477e-41
4.66 3.43 1.69 9.1477e-41
3.26 3.5 1.72 9.1477e-41
3.3 3.5 1.77 9.1477e-41
3.34 3.5 1.79 9.1477e-41
3.38 3.5 1.79 9.1477e-41
3.41 3.5 1.79 9.1477e-41
3.45 3.5 1.81 9.1477e-41
3.48 3.5 1.8 9.1477e-41
3.52 3.5 1.81 9.1477e-41
3.55 3.5 1.81 9.1477e-41
3.59 3.5 1.82 9.1477e-41
3.62 3.5 1.81 9.1477e-41
3.66 3.5 1.82 9.1477e-41
3.69 3.5 1.82 9.1477e-41
3.72 3.5 1.82 9.1477e-41
3.76 3.5 1.81 9.1477e-41
3.79 3.5 1.82 9.1477e-41
3.82 3.5 1.8 9.1477e-41
3.86 3.5 1.81 9.1477e-41
3.89 3.5 1.81 9.1477e-41
3.93 3.5 1.81 9.1477e-41
3.96 3.5 1.82 9.1477e-41
3.99 3.5 1.82 9.1477e-41
4.03 3.5 1.81 9.1477e-41
4.06 3.5 1.82 9.1477e-41
4.09 3.5 1.81 9.1477e-41
4.16 3.5 1.81 9.1477e-41
4.2 3.5 1.81 9.1477e-41
4.23 3.5 1.79 9.1477e-41
4.26 3.5 1.8 9.1477e-41
4.3 3.5 1.8 9.1477e-41
4.33 3.5 1.79 9.1477e-41
4.37 3.5 1.78 9.1477e-41
4.4 3.5 1.8 9.1477e-41
4.44 3.5 1.78 9.1477e-41
4.47 3.5 1.77 9.1477e-41
4.51 3.5 1.78 9.1477e-41
4.54 3.5 1.77 9.1477e-41
4.58 3.5 1.77 9.1477e-41
4.61 3.5 1.74 9.1477e-41
4.66 3.5 1.68 9.1477e-41
3.25 3.57 1.71 9.1477e-41
3.3 3.57 1.77 9.1477e-41
3.34 3.57 1.79 9.1477e-41
3.38 3.57 1.79 9.1477e-41
3.41 3.57 1.79 9.1477e-41
3.45 3.57 1.81 9.1477e-41
3.48 3.57 1.8 9.1477e-41
3.52 3.57 1.81 9.1477e-41
3.55 3.57 1.8 9.1477e-41
3.58 3.57 1.8 9.1477e-41
3.62 3.57 1.81 9.1477e-41
3.65 3.57 1.81 9.1477e-41
3.69 3.57 1.82 9.1477e-41
3.72 3.57 1.81 9.1477e-41
