# .PCD v.7 - Point Cloud Data file format
VERSION .7
FIELDS x y z rgb
SIZE 4 4 4 4
TYPE F F F F
WIDTH 655
HEIGHT 1
POINTS 655
DATA ascii
4.88 0 0.47 9.1477e-41
4.9 0 0.62 9.1477e-41
4.93 0 0.69 9.1477e-41
4.97 0 0.73 9.1477e-41
5.02 0 0.74 9.1477e-41
5.06 0 0.74 9.1477e-41
5.11 0 0.74 9.1477e-41
5.15 0 0.76 9.1477e-41
5.17 0 0.86 9.1477e-41
5.22 0 0.87 9.1477e-41
5.26 0 0.87 9.1477e-41
5.3 0 0.88 9.1477e-41
5.35 0 0.88 9.1477e-41
5.39 0 0.89 9.1477e-41
5.44 0 0.89 9.1477e-41
5.48 0 0.9 9.1477e-41
5.53 0 0.9 9.1477e-41
5.57 0 0.91 9.1477e-41
5.62 0 0.89 9.1477e-41
5.67 0 0.89 9.1477e-41
5.72 0 0.9 9.1477e-41
5.77 0 0.89 9.1477e-41
5.81 0 0.89 9.1477e-41
5.87 0 0.88 9.1477e-41
5.91 0 0.89 9.1477e-41
5.97 0 0.87 9.1477e-41
6.02 0 0.87 9.1477e-41
6.08 0 0.85 9.1477e-41
6.13 0 0.84 9.1477e-41
6.19 0 0.82 9.1477e-41
6.29 0 0.72 9.1477e-41
6.37 0 0.65 9.1477e-41
4.81 0.26 0.63 9.1477e-41
4.84 0.26 0.72 9.1477e-41
4.87 0.26 0.81 9.1477e-41
4.91 0.26 0.81 9.1477e-41
4.96 0.26 0.81 3.57e-43
5.02 0.26 0.74 9.1477e-41
5.02 0.26 0.94 9.1477e-41
5.06 0.26 0.96 9.1477e-41
5.1 0.26 0.97 9.1477e-41
5.15 0.26 0.97 9.1477e-41
5.19 0.26 0.97 9.1477e-41
5.23 0.26 0.99 9.1477e-41
5.28 0.26 0.98 9.1477e-41
5.32 0.26 0.99 9.1477e-41
5.37 0.26 0.99 9.1477e-41
5.41 0.26 0.98 9.1477e-41
5.45 0.26 1 9.1477e-41
5.5 0.26 0.99 9.1477e-41
5.54 0.26 1 9.1477e-41
5.59 0.26 0.99 9.1477e-41
5.64 0.26 0.98 9.1477e-41
5.68 0.26 0.98 9.1477e-41
5.73 0.26 0.98 9.1477e-41
5.78 0.26 0.98 9.1477e-41
5.83 0.26 0.98 9.1477e-41
5.88 0.26 0.98 9.1477e-41
5.92 0.26 0.99 9.1477e-41
5.97 0.26 0.99 9.1477e-41
6.03 0.26 0.97 9.1477e-41
6.08 0.26 0.97 9.1477e-41
6.13 0.26 0.96 9.1477e-41
6.18 0.26 0.96 9.1477e-41
6.24 0.26 0.95 9.1477e-41
6.3 0.26 0.92 9.1477e-41
6.34 0.26 0.94 9.1477e-41
4.79 0.52 0.78 9.1477e-41
4.82 0.52 0.86 9.1477e-41
4.85 0.52 0.92 9.1477e-41
4.88 0.52 0.99 9.1477e-41
4.92 0.52 1.03 9.1477e-41
4.96 0.52 1.03 9.1477e-41
5 0.52 1.03 9.1477e-41
5.04 0.52 1.04 9.1477e-41
5.09 0.52 1.05 9.1477e-41
5.13 0.52 1.04 9.1477e-41
5.17 0.52 1.05 9.1477e-41
5.21 0.52 1.07 9.1477e-41
5.26 0.52 1.06 9.1477e-41
5.3 0.52 1.06 9.1477e-41
5.35 0.52 1.06 9.1477e-41
5.39 0.52 1.06 9.1477e-41
5.43 0.52 1.06 9.1477e-41
5.48 0.52 1.07 9.1477e-41
5.52 0.52 1.07 9.1477e-41
5.57 0.52 1.07 9.1477e-41
5.62 0.52 1.06 9.1477e-41
5.66 0.52 1.06 9.1477e-41
5.71 0.52 1.06 9.1477e-41
5.75 0.52 1.07 9.1477e-41
5.8 0.52 1.07 9.1477e-41
5.85 0.52 1.05 9.1477e-41
5.89 0.52 1.06 9.1477e-41
5.94 0.52 1.07 9.1477e-41
5.99 0.52 1.05 9.1477e-41
6.05 0.52 1.04 9.1477e-41
6.1 0.52 1.03 9.1477e-41
6.15 0.52 1.04 9.1477e-41
6.2 0.52 1.04 9.1477e-41
6.25 0.52 1.03 9.1477e-41
6.3 0.52 1.03 9.1477e-41
6.36 0.52 1.01 9.1477e-41
6.43 0.52 0.98 9.1477e-41
4.79 0.78 0.4 9.1477e-41
4.78 0.78 0.79 9.1477e-41
4.82 0.78 0.87 9.1477e-41
4.84 0.78 0.96 9.1477e-41
4.88 0.78 1.03 9.1477e-41
4.91 0.78 1.09 9.1477e-41
4.95 0.78 1.1 9.1477e-41
5 0.78 1.1 3.57e-43
5.04 0.78 1.1 3.57e-43
5.09 0.78 1.1 3.57e-43
5.13 0.78 1.1 3.57e-43
5.17 0.78 1.1 3.57e-43
5.21 0.78 1.1 3.57e-43
5.26 0.78 1.1 3.57e-43
5.3 0.78 1.1 3.57e-43
5.35 0.78 1.1 3.57e-43
5.39 0.78 1.1 3.57e-43
5.43 0.78 1.1 3.57e-43
5.48 0.78 1.1 3.57e-43
5.52 0.78 1.1 3.57e-43
5.57 0.78 1.1 3.57e-43
5.62 0.78 1.1 3.57e-43
5.66 0.78 1.1 3.57e-43
5.71 0.78 1.1 3.57e-43
5.75 0.78 1.1 3.57e-43
5.8 0.78 1.1 3.57e-43
5.85 0.78 1.1 3.57e-43
5.89 0.78 1.1 3.57e-43
5.94 0.78 1.1 3.57e-43
5.99 0.78 1.1 3.57e-43
6.05 0.78 1.1 3.57e-43
6.1 0.78 1.1 3.57e-43
6.15 0.78 1.1 3.57e-43
6.2 0.78 1.1 3.57e-43
6.25 0.78 1.03 9.1477e-41
6.31 0.78 1.01 9.1477e-41
6.36 0.78 1.03 9.1477e-41
6.39 0.78 1.06 9.1477e-41
6.47 0.78 1.01 9.1477e-41
4.77 1.04 0.59 9.1477e-41
4.79 1.04 0.73 9.1477e-41
4.81 1.04 0.9 9.1477e-41
4.85 1.04 0.9 3.57e-43
4.88 1.04 1.04 9.1477e-41
4.89 1.04 1.2 9.1477e-41
4.92 1.04 1.23 9.1477e-41
4.96 1.04 1.26 9.1477e-41
5 1.04 1.26 3.57e-43
5.09 1.04 1.26 3.57e-43
5.13 1.04 1.26 3.57e-43
5.17 1.04 1.26 3.57e-43
5.21 1.04 1.26 3.57e-43
5.26 1.04 1.26 3.57e-43
5.3 1.04 1.26 3.57e-43
5.35 1.04 1.26 3.57e-43
5.39 1.04 1.26 3.57e-43
5.43 1.04 1.26 3.57e-43
5.48 1.04 1.26 3.57e-43
5.52 1.04 1.26 3.57e-43
5.57 1.04 1.26 3.57e-43
5.62 1.04 1.26 3.57e-43
5.66 1.04 1.26 3.57e-43
5.71 1.04 1.26 3.57e-43
5.75 1.04 1.26 3.57e-43
5.8 1.04 1.26 3.57e-43
5.85 1.04 1.26 3.57e-43
5.89 1.04 1.26 3.57e-43
5.94 1.04 1.26 3.57e-43
5.99 1.04 1.26 3.57e-43
6.05 1.04 1.26 3.57e-43
6.1 1.04 1.26 3.57e-43
6.15 1.04 1.26 3.57e-43
6.2 1.04 1.26 3.57e-43
6.25 1.04 1.26 3.57e-43
6.31 1.04 1.26 3.57e-43
6.36 1.04 1.26 3.57e-43
6.39 1.04 1.06 9.1477e-41
6.37 1.04 1.2 9.1477e-41
6.42 1.04 1.2 9.1477e-41
4.68 1.3 1.22 9.1477e-41
4.74 1.3 1.14 9.1477e-41
4.8 1.3 0.97 9.1477e-41
4.84 1.3 0.99 9.1477e-41
4.88 1.3 0.99 3.57e-43
4.89 1.3 0.99 3.57e-43
4.92 1.3 1.23 9.1477e-41
4.93 1.3 1.41 9.1477e-41
4.96 1.3 1.43 9.1477e-41
5 1.3 1.44 9.1477e-41
5.04 1.3 1.44 3.57e-43
5.17 1.3 1.44 3.57e-43
5.21 1.3 1.44 3.57e-43
5.26 1.3 1.44 3.57e-43
5.3 1.3 1.44 3.57e-43
5.35 1.3 1.44 3.57e-43
5.39 1.3 1.44 3.57e-43
5.43 1.3 1.44 3.57e-43
5.48 1.3 1.44 3.57e-43
5.52 1.3 1.44 3.57e-43
5.57 1.3 1.44 3.57e-43
5.62 1.3 1.44 3.57e-43
5.66 1.3 1.44 3.57e-43
5.71 1.3 1.44 3.57e-43
5.75 1.3 1.44 3.57e-43
5.8 1.3 1.44 3.57e-43
5.85 1.3 1.44 3.57e-43
5.89 1.3 1.44 3.57e-43
5.94 1.3 1.44 3.57e-43
5.99 1.3 1.44 3.57e-43
6.05 1.3 1.44 3.57e-43
6.1 1.3 1.44 3.57e-43
6.15 1.3 1.44 3.57e-43
6.2 1.3 1.44 3.57e-43
6.25 1.3 1.44 3.57e-43
6.31 1.3 1.44 3.57e-43
6.36 1.3 1.44 3.57e-43
6.39 1.3 1.44 3.57e-43
6.37 1.3 1.44 3.57e-43
6.42 1.3 1.2 9.1477e-41
6.37 1.3 1.39 9.1477e-41
6.41 1.3 1.41 9.1477e-41
6.55 1.3 1.41 3.57e-43
4.76 1.56 0.63 9.1477e-41
4.79 1.56 0.78 9.1477e-41
4.8 1.56 0.96 9.1477e-41
4.83 1.56 1.02 9.1477e-41
4.87 1.56 1.02 3.57e-43
4.89 1.56 1.02 3.57e-43
4.92 1.56 1.02 3.57e-43
4.93 1.56 1.41 9.1477e-41
4.95 1.56 1.52 9.1477e-41
4.98 1.56 1.56 9.1477e-41
5.01 1.56 1.59 9.1477e-41
5.04 1.56 1.59 9.1477e-41
5.08 1.56 1.59 9.1477e-41
5.12 1.56 1.61 9.1477e-41
5.15 1.56 1.63 9.1477e-41
5.19 1.56 1.62 9.1477e-41
5.23 1.56 1.63 9.1477e-41
5.27 1.56 1.63 9.1477e-41
5.31 1.56 1.63 9.1477e-41
5.35 1.56 1.63 9.1477e-41
5.39 1.56 1.63 9.1477e-41
5.42 1.56 1.64 9.1477e-41
5.46 1.56 1.64 9.1477e-41
5.5 1.56 1.64 9.1477e-41
5.54 1.56 1.64 9.1477e-41
5.59 1.56 1.64 9.1477e-41
5.63 1.56 1.63 9.1477e-41
5.68 1.56 1.62 9.1477e-41
5.71 1.56 1.64 9.1477e-41
5.76 1.56 1.63 9.1477e-41
5.8 1.56 1.63 9.1477e-41
5.84 1.56 1.63 9.1477e-41
5.89 1.56 1.63 9.1477e-41
5.93 1.56 1.63 9.1477e-41
5.97 1.56 1.63 9.1477e-41
6.02 1.56 1.63 9.1477e-41
6.07 1.56 1.61 9.1477e-41
6.12 1.56 1.61 9.1477e-41
6.17 1.56 1.6 9.1477e-41
6.22 1.56 1.6 9.1477e-41
6.26 1.56 1.6 9.1477e-41
6.32 1.56 1.58 9.1477e-41
6.37 1.56 1.59 9.1477e-41
4.76 1.82 0.66 9.1477e-41
4.79 1.82 0.78 9.1477e-41
4.8 1.82 0.97 9.1477e-41
4.83 1.82 1.07 9.1477e-41
4.86 1.82 1.07 3.57e-43
4.89 1.82 1.07 3.57e-43
4.92 1.82 1.07 3.57e-43
4.93 1.82 1.07 3.57e-43
4.95 1.82 1.52 9.1477e-41
4.97 1.82 1.61 9.1477e-41
5 1.82 1.63 9.1477e-41
5.03 1.82 1.67 9.1477e-41
5.06 1.82 1.67 9.1477e-41
5.1 1.82 1.68 9.1477e-41
5.14 1.82 1.68 9.1477e-41
5.17 1.82 1.7 9.1477e-41
5.21 1.82 1.72 9.1477e-41
5.25 1.82 1.71 9.1477e-41
5.29 1.82 1.71 9.1477e-41
5.32 1.82 1.71 9.1477e-41
5.36 1.82 1.71 9.1477e-41
5.4 1.82 1.72 9.1477e-41
5.44 1.82 1.71 9.1477e-41
5.48 1.82 1.73 9.1477e-41
5.51 1.82 1.73 9.1477e-41
5.56 1.82 1.72 9.1477e-41
5.59 1.82 1.73 9.1477e-41
5.64 1.82 1.71 9.1477e-41
5.68 1.82 1.72 9.1477e-41
5.72 1.82 1.71 9.1477e-41
5.76 1.82 1.73 9.1477e-41
5.81 1.82 1.71 9.1477e-41
5.85 1.82 1.72 9.1477e-41
5.89 1.82 1.71 9.1477e-41
5.93 1.82 1.72 9.1477e-41
5.98 1.82 1.71 9.1477e-41
6.03 1.82 1.7 9.1477e-41
6.07 1.82 1.7 9.1477e-41
6.12 1.82 1.69 9.1477e-41
6.16 1.82 1.71 9.1477e-41
6.21 1.82 1.69 9.1477e-41
6.26 1.82 1.69 9.1477e-41
6.32 1.82 1.67 9.1477e-41
6.36 1.82 1.67 9.1477e-41
4.76 2.08 0.67 9.1477e-41
4.78 2.08 0.8 9.1477e-41
4.8 2.08 0.98 9.1477e-41
4.82 2.08 1.1 9.1477e-41
4.85 2.08 1.21 9.1477e-41
4.87 2.08 1.3 9.1477e-41
4.9 2.08 1.39 9.1477e-41
4.92 2.08 1.46 9.1477e-41
4.94 2.08 1.53 9.1477e-41
4.97 2.08 1.6 9.1477e-41
4.99 2.08 1.65 9.1477e-41
5.02 2.08 1.68 9.1477e-41
5.05 2.08 1.73 9.1477e-41
5.09 2.08 1.73 9.1477e-41
5.13 2.08 1.73 9.1477e-41
5.16 2.08 1.75 9.1477e-41
5.2 2.08 1.74 9.1477e-41
5.23 2.08 1.75 9.1477e-41
5.27 2.08 1.76 9.1477e-41
5.31 2.08 1.76 9.1477e-41
5.35 2.08 1.76 9.1477e-41
5.38 2.08 1.76 9.1477e-41
5.42 2.08 1.76 9.1477e-41
5.46 2.08 1.75 9.1477e-41
5.5 2.08 1.77 9.1477e-41
5.54 2.08 1.77 9.1477e-41
5.58 2.08 1.76 9.1477e-41
5.62 2.08 1.77 9.1477e-41
5.66 2.08 1.76 9.1477e-41
5.7 2.08 1.78 9.1477e-41
5.74 2.08 1.76 9.1477e-41
5.79 2.08 1.76 9.1477e-41
5.83 2.08 1.76 9.1477e-41
5.87 2.08 1.75 9.1477e-41
5.91 2.08 1.77 9.1477e-41
5.96 2.08 1.76 9.1477e-41
6 2.08 1.76 9.1477e-41
6.05 2.08 1.75 9.1477e-41
6.09 2.08 1.75 9.1477e-41
6.14 2.08 1.76 9.1477e-41
6.18 2.08 1.76 9.1477e-41
6.24 2.08 1.73 9.1477e-41
6.29 2.08 1.72 9.1477e-41
6.34 2.08 1.72 9.1477e-41
4.76 2.34 0.68 9.1477e-41
4.78 2.34 0.79 9.1477e-41
4.8 2.34 1.01 9.1477e-41
4.83 2.34 1.01 3.57e-43
4.85 2.34 1.01 3.57e-43
4.87 2.34 1.01 3.57e-43
4.9 2.34 1.01 3.57e-43
4.92 2.34 1.01 3.57e-43
4.94 2.34 1.01 3.57e-43
4.97 2.34 1.6 9.1477e-41
4.99 2.34 1.67 9.1477e-41
5.02 2.34 1.7 9.1477e-41
5.05 2.34 1.75 9.1477e-41
5.08 2.34 1.77 9.1477e-41
5.12 2.34 1.76 9.1477e-41
5.15 2.34 1.76 9.1477e-41
5.19 2.34 1.77 9.1477e-41
5.23 2.34 1.77 9.1477e-41
5.26 2.34 1.78 9.1477e-41
5.3 2.34 1.79 9.1477e-41
5.34 2.34 1.79 9.1477e-41
5.38 2.34 1.78 9.1477e-41
5.41 2.34 1.78 9.1477e-41
5.45 2.34 1.79 9.1477e-41
5.49 2.34 1.79 9.1477e-41
5.53 2.34 1.79 9.1477e-41
5.57 2.34 1.79 9.1477e-41
5.61 2.34 1.79 9.1477e-41
5.65 2.34 1.79 9.1477e-41
5.69 2.34 1.8 9.1477e-41
5.73 2.34 1.79 9.1477e-41
5.77 2.34 1.8 9.1477e-41
5.81 2.34 1.79 9.1477e-41
5.86 2.34 1.78 9.1477e-41
5.9 2.34 1.79 9.1477e-41
5.95 2.34 1.79 9.1477e-41
5.99 2.34 1.78 9.1477e-41
6.03 2.34 1.78 9.1477e-41
6.08 2.34 1.78 9.1477e-41
6.12 2.34 1.77 9.1477e-41
6.17 2.34 1.77 9.1477e-41
6.22 2.34 1.77 9.1477e-41
6.27 2.34 1.77 9.1477e-41
6.33 2.34 1.74 9.1477e-41
6.37 2.34 1.75 9.1477e-41
4.76 2.6 0.67 9.1477e-41
4.78 2.6 0.79 9.1477e-41
4.8 2.6 0.99 9.1477e-41
4.83 2.6 0.99 3.57e-43
4.85 2.6 0.99 3.57e-43
4.87 2.6 0.99 3.57e-43
4.9 2.6 0.99 3.57e-43
4.92 2.6 0.99 3.57e-43
4.94 2.6 0.99 3.57e-43
4.97 2.6 1.6 9.1477e-41
4.99 2.6 1.67 9.1477e-41
5.02 2.6 1.71 9.1477e-41
5.05 2.6 1.76 9.1477e-41
5.08 2.6 1.78 9.1477e-41
5.11 2.6 1.77 9.1477e-41
5.15 2.6 1.77 9.1477e-41
5.19 2.6 1.78 9.1477e-41
5.22 2.6 1.79 9.1477e-41
5.26 2.6 1.8 9.1477e-41
5.29 2.6 1.8 9.1477e-41
5.33 2.6 1.81 9.1477e-41
5.37 2.6 1.82 9.1477e-41
5.41 2.6 1.81 9.1477e-41
5.45 2.6 1.8 9.1477e-41
5.48 2.6 1.81 9.1477e-41
5.52 2.6 1.82 9.1477e-41
5.56 2.6 1.81 9.1477e-41
5.6 2.6 1.8 9.1477e-41
5.65 2.6 1.8 9.1477e-41
5.68 2.6 1.8 9.1477e-41
5.73 2.6 1.8 9.1477e-41
5.77 2.6 1.81 9.1477e-41
5.8 2.6 1.82 9.1477e-41
5.85 2.6 1.81 9.1477e-41
5.89 2.6 1.8 9.1477e-41
5.93 2.6 1.81 9.1477e-41
5.98 2.6 1.8 9.1477e-41
6.02 2.6 1.8 9.1477e-41
6.07 2.6 1.79 9.1477e-41
6.12 2.6 1.79 9.1477e-41
6.16 2.6 1.79 9.1477e-41
6.21 2.6 1.79 9.1477e-41
6.26 2.6 1.78 9.1477e-41
6.32 2.6 1.76 9.1477e-41
6.35 2.6 1.78 9.1477e-41
4.76 2.86 0.66 9.1477e-41
4.79 2.86 0.78 9.1477e-41
4.8 2.86 0.97 9.1477e-41
4.82 2.86 1.09 9.1477e-41
4.86 2.86 1.09 3.57e-43
4.87 2.86 1.09 3.57e-43
4.9 2.86 1.09 3.57e-43
4.92 2.86 1.09 3.57e-43
4.94 2.86 1.09 3.57e-43
4.97 2.86 1.6 9.1477e-41
4.99 2.86 1.68 9.1477e-41
5.02 2.86 1.71 9.1477e-41
5.05 2.86 1.76 9.1477e-41
5.07 2.86 1.79 9.1477e-41
5.11 2.86 1.78 9.1477e-41
5.15 2.86 1.79 9.1477e-41
5.18 2.86 1.79 9.1477e-41
5.22 2.86 1.81 9.1477e-41
5.26 2.86 1.8 9.1477e-41
5.29 2.86 1.81 9.1477e-41
5.33 2.86 1.81 9.1477e-41
5.37 2.86 1.82 9.1477e-41
5.41 2.86 1.81 9.1477e-41
5.44 2.86 1.81 9.1477e-41
5.48 2.86 1.82 9.1477e-41
5.52 2.86 1.82 9.1477e-41
5.56 2.86 1.81 9.1477e-41
5.6 2.86 1.82 9.1477e-41
5.64 2.86 1.81 9.1477e-41
5.68 2.86 1.81 9.1477e-41
5.72 2.86 1.81 9.1477e-41
5.76 2.86 1.81 9.1477e-41
5.8 2.86 1.82 9.1477e-41
5.85 2.86 1.81 9.1477e-41
5.89 2.86 1.81 9.1477e-41
5.93 2.86 1.82 9.1477e-41
5.98 2.86 1.81 9.1477e-41
6.02 2.86 1.81 9.1477e-41
6.06 2.86 1.81 9.1477e-41
6.11 2.86 1.81 9.1477e-41
6.15 2.86 1.81 9.1477e-41
6.2 2.86 1.8 9.1477e-41
6.25 2.86 1.79 9.1477e-41
6.31 2.86 1.78 9.1477e-41
6.35 2.86 1.78 9.1477e-41
4.79 3.12 0.43 9.1477e-41
4.78 3.12 0.84 9.1477e-41
4.8 3.12 0.96 9.1477e-41
4.83 3.12 1.08 9.1477e-41
4.85 3.12 1.08 3.57e-43
4.87 3.12 1.08 3.57e-43
4.9 3.12 1.08 3.57e-43
4.92 3.12 1.08 3.57e-43
4.94 3.12 1.08 3.57e-43
4.97 3.12 1.6 9.1477e-41
4.99 3.12 1.68 9.1477e-41
5.02 3.12 1.71 9.1477e-41
5.05 3.12 1.76 9.1477e-41
5.07 3.12 1.79 9.1477e-41
5.11 3.12 1.78 9.1477e-41
5.15 3.12 1.78 9.1477e-41
5.18 3.12 1.8 9.1477e-41
5.22 3.12 1.81 9.1477e-41
5.26 3.12 1.8 9.1477e-41
5.29 3.12 1.81 9.1477e-41
5.33 3.12 1.81 9.1477e-41
5.37 3.12 1.82 9.1477e-41
5.41 3.12 1.81 9.1477e-41
5.44 3.12 1.82 9.1477e-41
5.48 3.12 1.83 9.1477e-41
5.52 3.12 1.82 9.1477e-41
5.56 3.12 1.83 9.1477e-41
5.6 3.12 1.81 9.1477e-41
5.64 3.12 1.82 9.1477e-41
5.68 3.12 1.81 9.1477e-41
5.72 3.12 1.82 9.1477e-41
5.76 3.12 1.82 9.1477e-41
5.8 3.12 1.83 9.1477e-41
5.84 3.12 1.82 9.1477e-41
5.89 3.12 1.81 9.1477e-41
5.92 3.12 1.83 9.1477e-41
5.97 3.12 1.82 9.1477e-41
6.02 3.12 1.82 9.1477e-41
6.06 3.12 1.81 9.1477e-41
6.1 3.12 1.82 9.1477e-41
6.15 3.12 1.81 9.1477e-41
6.2 3.12 1.8 9.1477e-41
6.25 3.12 1.79 9.1477e-41
6.31 3.12 1.78 9.1477e-41
6.35 3.12 1.79 9.1477e-41
4.78 3.38 0.5 9.1477e-41
4.78 3.38 0.83 9.1477e-41
4.81 3.38 0.93 9.1477e-41
4.83 3.38 1.06 9.1477e-41
4.85 3.38 1.16 9.1477e-41
4.88 3.38 1.16 3.57e-43
4.9 3.38 1.16 3.57e-43
4.92 3.38 1.16 3.57e-43
4.94 3.38 1.16 3.57e-43
4.97 3.38 1.6 9.1477e-41
4.99 3.38 1.66 9.1477e-41
5.02 3.38 1.69 9.1477e-41
5.05 3.38 1.75 9.1477e-41
5.07 3.38 1.79 9.1477e-41
5.11 3.38 1.77 9.1477e-41
5.15 3.38 1.78 9.1477e-41
5.18 3.38 1.79 9.1477e-41
5.22 3.38 1.8 9.1477e-41
5.26 3.38 1.8 9.1477e-41
5.29 3.38 1.8 9.1477e-41
5.33 3.38 1.81 9.1477e-41
5.37 3.38 1.83 9.1477e-41
5.41 3.38 1.81 9.1477e-41
5.44 3.38 1.81 9.1477e-41
5.48 3.38 1.82 9.1477e-41
5.52 3.38 1.82 9.1477e-41
5.56 3.38 1.82 9.1477e-41
5.6 3.38 1.81 9.1477e-41
5.64 3.38 1.82 9.1477e-41
5.68 3.38 1.82 9.1477e-41
5.72 3.38 1.82 9.1477e-41
5.76 3.38 1.82 9.1477e-41
5.8 3.38 1.82 9.1477e-41
5.84 3.38 1.82 9.1477e-41
5.89 3.38 1.81 9.1477e-41
5.93 3.38 1.81 9.1477e-41
5.97 3.38 1.82 9.1477e-41
6.02 3.38 1.81 9.1477e-41
6.06 3.38 1.81 9.1477e-41
6.11 3.38 1.81 9.1477e-41
6.15 3.38 1.82 9.1477e-41
6.2 3.38 1.8 9.1477e-41
6.25 3.38 1.79 9.1477e-41
6.31 3.38 1.78 9.1477e-41
4.79 3.64 0.72 9.1477e-41
4.82 3.64 0.86 9.1477e-41
4.83 3.64 1.03 9.1477e-41
4.86 3.64 1.15 9.1477e-41
4.88 3.64 1.27 9.1477e-41
4.9 3.64 1.36 9.1477e-41
4.92 3.64 1.44 9.1477e-41
4.95 3.64 1.5 9.1477e-41
4.97 3.64 1.58 9.1477e-41
5 3.64 1.63 9.1477e-41
5.03 3.64 1.67 9.1477e-41
5.05 3.64 1.73 9.1477e-41
5.08 3.64 1.76 9.1477e-41
5.11 3.64 1.78 9.1477e-41
5.15 3.64 1.78 9.1477e-41
5.19 3.64 1.78 9.1477e-41
5.22 3.64 1.79 9.1477e-41
5.26 3.64 1.79 9.1477e-41
5.29 3.64 1.8 9.1477e-41
5.33 3.64 1.81 9.1477e-41
5.37 3.64 1.82 9.1477e-41
5.41 3.64 1.8 9.1477e-41
5.45 3.64 1.8 9.1477e-41
5.48 3.64 1.81 9.1477e-41
5.52 3.64 1.81 9.1477e-41
5.56 3.64 1.81 9.1477e-41
5.6 3.64 1.8 9.1477e-41
5.64 3.64 1.81 9.1477e-41
5.68 3.64 1.8 9.1477e-41
5.73 3.64 1.8 9.1477e-41
5.77 3.64 1.81 9.1477e-41
5.81 3.64 1.8 9.1477e-41
5.85 3.64 1.81 9.1477e-41
5.89 3.64 1.8 9.1477e-41
5.94 3.64 1.8 9.1477e-41
5.98 3.64 1.81 9.1477e-41
6.02 3.64 1.8 9.1477e-41
6.06 3.64 1.81 9.1477e-41
6.12 3.64 1.79 9.1477e-41
6.16 3.64 1.8 9.1477e-41
6.2 3.64 1.8 9.1477e-41
6.27 3.64 1.77 9.1477e-41
6.31 3.64 1.77 9.1477e-41
4.92 3.9 0.5 9.1477e-41
4.97 3.9 0.5 9.1477e-41
5.01 3.9 0.5 9.1477e-41
5.06 3.9 0.51 9.1477e-41
5.11 3.9 0.5 9.1477e-41
5.16 3.9 0.49 9.1477e-41
5.2 3.9 0.5 9.1477e-41
5.25 3.9 0.51 9.1477e-41
5.3 3.9 0.51 9.1477e-41
5.35 3.9 0.5 9.1477e-41
5.38 3.9 0.57 9.1477e-41
5.37 3.9 0.81 9.1477e-41
5.39 3.9 0.89 9.1477e-41
5.42 3.9 0.96 9.1477e-41
5.45 3.9 1.01 9.1477e-41
5.49 3.9 1.04 9.1477e-41
5.53 3.9 1.04 9.1477e-41
5.57 3.9 1.04 9.1477e-41
5.61 3.9 1.07 9.1477e-41
5.66 3.9 1.07 9.1477e-41
5.71 3.9 1.05 9.1477e-41
5.76 3.9 1.03 9.1477e-41
5.79 3.9 1.07 9.1477e-41
5.81 3.9 1.16 9.1477e-41
5.88 3.9 1.09 9.1477e-41
5.93 3.9 1.08 9.1477e-41
5.99 3.9 1.07 9.1477e-41
6.04 3.9 1.05 9.1477e-41
6.11 3.9 1.01 9.1477e-41
6.17 3.9 1.01 3.57e-43
5.85 3.9 1.82 9.1477e-41
