# .PCD v.7 - Point Cloud Data file format
VERSION .7
FIELDS x y z rgb
SIZE 4 4 4 4
TYPE F F F F
WIDTH 1904
HEIGHT 1
POINTS 1904
DATA ascii
5.97 0.16 0.73 9.1477e-41
6.02 0.16 0.74 9.1477e-41
6.07 0.16 0.74 9.1477e-41
6.1 0.16 0.8 9.1477e-41
6.14 0.16 0.82 9.1477e-41
6.19 0.16 0.83 9.1477e-41
6.24 0.16 0.84 9.1477e-41
6.29 0.16 0.83 9.1477e-41
6.35 0.16 0.82 9.1477e-41
6.39 0.16 0.84 9.1477e-41
6.45 0.16 0.85 9.1477e-41
6.5 0.16 0.85 9.1477e-41
6.54 0.16 0.86 9.1477e-41
6.61 0.16 0.85 9.1477e-41
6.66 0.16 0.85 9.1477e-41
6.72 0.16 0.84 9.1477e-41
6.78 0.16 0.84 9.1477e-41
6.85 0.16 0.83 9.1477e-41
6.91 0.16 0.82 9.1477e-41
7.02 0.16 0.73 9.1477e-41
7.08 0.16 0.73 9.1477e-41
7.16 0.16 0.69 9.1477e-41
5.77 0.24 0.58 9.1477e-41
5.81 0.24 0.63 9.1477e-41
5.83 0.24 0.71 9.1477e-41
5.86 0.24 0.77 9.1477e-41
5.93 0.24 0.72 9.1477e-41
5.99 0.24 0.68 9.1477e-41
6.02 0.24 0.75 9.1477e-41
6.06 0.24 0.76 9.1477e-41
6.07 0.24 0.87 9.1477e-41
6.12 0.24 0.88 9.1477e-41
6.17 0.24 0.89 9.1477e-41
6.21 0.24 0.9 9.1477e-41
6.27 0.24 0.89 9.1477e-41
6.31 0.24 0.91 9.1477e-41
6.36 0.24 0.9 9.1477e-41
6.42 0.24 0.91 9.1477e-41
6.47 0.24 0.91 9.1477e-41
6.52 0.24 0.91 9.1477e-41
6.58 0.24 0.9 9.1477e-41
6.63 0.24 0.91 9.1477e-41
6.69 0.24 0.9 9.1477e-41
6.75 0.24 0.9 9.1477e-41
6.81 0.24 0.9 9.1477e-41
6.87 0.24 0.89 9.1477e-41
6.94 0.24 0.88 9.1477e-41
7 0.24 0.87 9.1477e-41
7.06 0.24 0.86 9.1477e-41
7.19 0.24 0.74 9.1477e-41
5.75 0.32 0.51 9.1477e-41
5.76 0.32 0.63 9.1477e-41
5.78 0.32 0.71 9.1477e-41
5.82 0.32 0.73 9.1477e-41
5.89 0.32 0.66 9.1477e-41
5.96 0.32 0.64 9.1477e-41
5.99 0.32 0.68 9.1477e-41
6.03 0.32 0.72 9.1477e-41
6 0.32 0.91 9.1477e-41
6.05 0.32 0.91 9.1477e-41
6.1 0.32 0.91 9.1477e-41
6.15 0.32 0.93 9.1477e-41
6.2 0.32 0.92 9.1477e-41
6.25 0.32 0.92 9.1477e-41
6.3 0.32 0.93 9.1477e-41
6.35 0.32 0.93 9.1477e-41
6.4 0.32 0.94 9.1477e-41
6.45 0.32 0.95 9.1477e-41
6.5 0.32 0.94 9.1477e-41
6.56 0.32 0.94 9.1477e-41
6.62 0.32 0.94 9.1477e-41
6.67 0.32 0.95 9.1477e-41
6.72 0.32 0.94 9.1477e-41
6.79 0.32 0.92 9.1477e-41
6.85 0.32 0.93 9.1477e-41
6.91 0.32 0.92 9.1477e-41
6.97 0.32 0.92 9.1477e-41
7.03 0.32 0.91 9.1477e-41
7.1 0.32 0.89 9.1477e-41
7.22 0.32 0.8 9.1477e-41
5.72 0.4 0.42 9.1477e-41
5.73 0.4 0.57 9.1477e-41
5.74 0.4 0.68 9.1477e-41
5.77 0.4 0.74 9.1477e-41
5.81 0.4 0.75 9.1477e-41
5.85 0.4 0.75 3.57e-43
5.96 0.4 0.63 9.1477e-41
5.91 0.4 0.88 9.1477e-41
5.95 0.4 0.92 9.1477e-41
5.99 0.4 0.94 9.1477e-41
6.04 0.4 0.93 9.1477e-41
6.09 0.4 0.94 9.1477e-41
6.13 0.4 0.95 9.1477e-41
6.18 0.4 0.95 9.1477e-41
6.23 0.4 0.96 9.1477e-41
6.29 0.4 0.95 9.1477e-41
6.33 0.4 0.96 9.1477e-41
6.39 0.4 0.96 9.1477e-41
6.44 0.4 0.97 9.1477e-41
6.5 0.4 0.96 9.1477e-41
6.54 0.4 0.97 9.1477e-41
6.6 0.4 0.96 9.1477e-41
6.65 0.4 0.97 9.1477e-41
6.71 0.4 0.96 9.1477e-41
6.77 0.4 0.96 9.1477e-41
6.83 0.4 0.96 9.1477e-41
6.89 0.4 0.95 9.1477e-41
6.95 0.4 0.94 9.1477e-41
7.02 0.4 0.93 9.1477e-41
7.08 0.4 0.93 9.1477e-41
7.15 0.4 0.9 9.1477e-41
7.22 0.4 0.89 9.1477e-41
5.7 0.48 0.5 9.1477e-41
5.71 0.48 0.62 9.1477e-41
5.73 0.48 0.7 9.1477e-41
5.76 0.48 0.78 9.1477e-41
5.79 0.48 0.82 9.1477e-41
5.84 0.48 0.81 9.1477e-41
5.86 0.48 0.9 9.1477e-41
5.9 0.48 0.93 9.1477e-41
5.94 0.48 0.96 9.1477e-41
5.98 0.48 0.96 9.1477e-41
6.03 0.48 0.96 9.1477e-41
6.08 0.48 0.97 9.1477e-41
6.12 0.48 0.98 9.1477e-41
6.18 0.48 0.98 9.1477e-41
6.22 0.48 0.99 9.1477e-41
6.28 0.48 0.98 9.1477e-41
6.33 0.48 0.98 9.1477e-41
6.38 0.48 0.99 9.1477e-41
6.43 0.48 0.98 9.1477e-41
6.48 0.48 1 9.1477e-41
6.54 0.48 0.98 9.1477e-41
6.59 0.48 0.99 9.1477e-41
6.65 0.48 0.98 9.1477e-41
6.7 0.48 0.99 9.1477e-41
6.76 0.48 0.98 9.1477e-41
6.81 0.48 0.99 9.1477e-41
6.87 0.48 0.99 9.1477e-41
6.93 0.48 0.98 9.1477e-41
6.99 0.48 0.97 9.1477e-41
7.06 0.48 0.96 9.1477e-41
7.13 0.48 0.94 9.1477e-41
7.18 0.48 0.94 3.57e-43
5.69 0.56 0.5 9.1477e-41
5.69 0.56 0.67 9.1477e-41
5.72 0.56 0.75 9.1477e-41
5.74 0.56 0.81 9.1477e-41
5.77 0.56 0.88 9.1477e-41
5.81 0.56 0.91 9.1477e-41
5.84 0.56 0.95 9.1477e-41
5.88 0.56 0.97 9.1477e-41
5.92 0.56 0.99 9.1477e-41
5.97 0.56 0.99 9.1477e-41
6.02 0.56 0.99 9.1477e-41
6.07 0.56 1 9.1477e-41
6.12 0.56 1 9.1477e-41
6.16 0.56 1.01 9.1477e-41
6.21 0.56 1.01 9.1477e-41
6.26 0.56 1.01 9.1477e-41
6.31 0.56 1.01 9.1477e-41
6.36 0.56 1.01 9.1477e-41
6.41 0.56 1.01 9.1477e-41
6.47 0.56 1.01 9.1477e-41
6.52 0.56 1.02 9.1477e-41
6.57 0.56 1.02 9.1477e-41
6.63 0.56 1.02 9.1477e-41
6.68 0.56 1.02 9.1477e-41
6.74 0.56 1.01 9.1477e-41
6.79 0.56 1.02 9.1477e-41
6.86 0.56 1.01 9.1477e-41
6.92 0.56 1 9.1477e-41
6.97 0.56 1 9.1477e-41
7.05 0.56 0.98 9.1477e-41
7.1 0.56 0.98 9.1477e-41
7.17 0.56 0.97 9.1477e-41
7.24 0.56 0.96 9.1477e-41
5.69 0.64 0.51 9.1477e-41
5.69 0.64 0.7 9.1477e-41
5.71 0.64 0.78 9.1477e-41
5.74 0.64 0.84 9.1477e-41
5.76 0.64 0.9 9.1477e-41
5.79 0.64 0.96 9.1477e-41
5.83 0.64 0.99 9.1477e-41
5.87 0.64 1.01 9.1477e-41
5.92 0.64 1.01 9.1477e-41
5.96 0.64 1.02 9.1477e-41
6.01 0.64 1.02 9.1477e-41
6.06 0.64 1.02 9.1477e-41
6.1 0.64 1.02 9.1477e-41
6.15 0.64 1.04 9.1477e-41
6.2 0.64 1.03 9.1477e-41
6.25 0.64 1.03 9.1477e-41
6.3 0.64 1.04 9.1477e-41
6.35 0.64 1.04 9.1477e-41
6.41 0.64 1.04 9.1477e-41
6.46 0.64 1.04 9.1477e-41
6.51 0.64 1.03 9.1477e-41
6.56 0.64 1.05 9.1477e-41
6.62 0.64 1.03 9.1477e-41
6.67 0.64 1.05 9.1477e-41
6.73 0.64 1.04 9.1477e-41
6.78 0.64 1.03 9.1477e-41
6.84 0.64 1.04 9.1477e-41
6.91 0.64 1.02 9.1477e-41
6.96 0.64 1.02 9.1477e-41
7.03 0.64 1.01 9.1477e-41
7.09 0.64 1 9.1477e-41
7.16 0.64 0.99 9.1477e-41
7.22 0.64 0.99 9.1477e-41
7.29 0.64 0.98 9.1477e-41
5.69 0.72 0.52 9.1477e-41
5.68 0.72 0.72 9.1477e-41
5.7 0.72 0.81 9.1477e-41
5.73 0.72 0.87 9.1477e-41
5.76 0.72 0.91 9.1477e-41
5.78 0.72 0.98 9.1477e-41
5.82 0.72 1.02 9.1477e-41
5.86 0.72 1.02 9.1477e-41
5.91 0.72 1.02 9.1477e-41
5.95 0.72 1.04 9.1477e-41
6 0.72 1.04 9.1477e-41
6.05 0.72 1.03 9.1477e-41
6.09 0.72 1.05 9.1477e-41
6.14 0.72 1.05 9.1477e-41
6.19 0.72 1.06 9.1477e-41
6.24 0.72 1.06 9.1477e-41
6.29 0.72 1.06 9.1477e-41
6.34 0.72 1.05 9.1477e-41
6.39 0.72 1.07 9.1477e-41
6.44 0.72 1.07 9.1477e-41
6.5 0.72 1.05 9.1477e-41
6.55 0.72 1.06 9.1477e-41
6.61 0.72 1.05 9.1477e-41
6.66 0.72 1.07 9.1477e-41
6.72 0.72 1.05 9.1477e-41
6.77 0.72 1.06 9.1477e-41
6.83 0.72 1.06 9.1477e-41
6.89 0.72 1.06 9.1477e-41
6.94 0.72 1.05 9.1477e-41
7.01 0.72 1.04 9.1477e-41
7.07 0.72 1.04 9.1477e-41
7.13 0.72 1.03 9.1477e-41
7.2 0.72 1.01 9.1477e-41
7.27 0.72 1.01 9.1477e-41
5.69 0.8 0.51 9.1477e-41
5.67 0.8 0.73 9.1477e-41
5.7 0.8 0.82 9.1477e-41
5.72 0.8 0.89 9.1477e-41
5.75 0.8 0.94 9.1477e-41
5.78 0.8 0.99 9.1477e-41
5.81 0.8 1.04 9.1477e-41
5.85 0.8 1.04 9.1477e-41
5.9 0.8 1.05 9.1477e-41
5.95 0.8 1.06 9.1477e-41
5.99 0.8 1.06 9.1477e-41
6.04 0.8 1.06 9.1477e-41
6.08 0.8 1.07 9.1477e-41
6.14 0.8 1.06 9.1477e-41
6.18 0.8 1.08 9.1477e-41
6.23 0.8 1.08 9.1477e-41
6.28 0.8 1.07 9.1477e-41
6.33 0.8 1.07 9.1477e-41
6.38 0.8 1.08 9.1477e-41
6.43 0.8 1.09 9.1477e-41
6.49 0.8 1.07 9.1477e-41
6.54 0.8 1.07 9.1477e-41
6.59 0.8 1.08 9.1477e-41
6.65 0.8 1.08 9.1477e-41
6.7 0.8 1.08 9.1477e-41
6.76 0.8 1.07 9.1477e-41
6.82 0.8 1.08 9.1477e-41
6.88 0.8 1.07 9.1477e-41
6.93 0.8 1.08 9.1477e-41
6.99 0.8 1.06 9.1477e-41
7.05 0.8 1.06 9.1477e-41
7.12 0.8 1.05 9.1477e-41
7.18 0.8 1.04 9.1477e-41
7.25 0.8 1.03 9.1477e-41
7.34 0.8 0.99 9.1477e-41
5.7 0.88 0.5 9.1477e-41
5.67 0.88 0.75 9.1477e-41
5.69 0.88 0.83 9.1477e-41
5.72 0.88 0.9 9.1477e-41
5.75 0.88 0.95 9.1477e-41
5.77 0.88 1.01 9.1477e-41
5.8 0.88 1.06 9.1477e-41
5.85 0.88 1.06 9.1477e-41
5.89 0.88 1.07 9.1477e-41
5.94 0.88 1.07 9.1477e-41
5.98 0.88 1.08 9.1477e-41
6.03 0.88 1.08 9.1477e-41
6.08 0.88 1.07 9.1477e-41
6.13 0.88 1.07 9.1477e-41
6.19 0.88 1.06 9.1477e-41
6.26 0.88 1.02 9.1477e-41
6.31 0.88 1.01 9.1477e-41
6.37 0.88 1 9.1477e-41
6.42 0.88 1.01 9.1477e-41
6.46 0.88 1.02 9.1477e-41
6.52 0.88 1.01 9.1477e-41
6.58 0.88 1 9.1477e-41
6.63 0.88 1.02 9.1477e-41
6.68 0.88 1.02 9.1477e-41
6.74 0.88 1.01 9.1477e-41
6.79 0.88 1.02 9.1477e-41
6.85 0.88 1.02 9.1477e-41
6.89 0.88 1.06 9.1477e-41
6.93 0.88 1.07 9.1477e-41
6.99 0.88 1.07 9.1477e-41
7.05 0.88 1.07 9.1477e-41
7.1 0.88 1.07 9.1477e-41
7.17 0.88 1.06 9.1477e-41
7.24 0.88 1.05 9.1477e-41
7.3 0.88 1.05 9.1477e-41
5.69 0.96 0.5 9.1477e-41
5.67 0.96 0.75 9.1477e-41
5.69 0.96 0.84 9.1477e-41
5.72 0.96 0.9 9.1477e-41
5.74 0.96 0.97 9.1477e-41
5.77 0.96 1.02 9.1477e-41
5.79 0.96 1.07 9.1477e-41
5.84 0.96 1.09 9.1477e-41
5.89 0.96 1.08 9.1477e-41
5.95 0.96 1.04 9.1477e-41
6.01 0.96 1.02 9.1477e-41
6.06 0.96 1.02 9.1477e-41
6.1 0.96 1.02 3.57e-43
6.13 0.96 1.02 3.57e-43
6.19 0.96 1.02 3.57e-43
6.26 0.96 1.02 3.57e-43
6.31 0.96 1.02 3.57e-43
6.37 0.96 1.02 3.57e-43
6.42 0.96 1.02 3.57e-43
6.46 0.96 1.02 3.57e-43
6.52 0.96 1.02 3.57e-43
6.58 0.96 1.02 3.57e-43
6.63 0.96 1.02 3.57e-43
6.68 0.96 1.02 3.57e-43
6.74 0.96 1.01 9.1477e-41
6.77 0.96 1.06 9.1477e-41
6.84 0.96 1.05 9.1477e-41
6.89 0.96 1.06 9.1477e-41
6.95 0.96 1.05 9.1477e-41
7.02 0.96 1.02 9.1477e-41
7.07 0.96 1.03 9.1477e-41
7.16 0.96 0.99 9.1477e-41
7.22 0.96 0.98 9.1477e-41
7.22 0.96 1.07 9.1477e-41
7.29 0.96 1.06 9.1477e-41
5.68 1.04 0.54 9.1477e-41
5.67 1.04 0.75 9.1477e-41
5.69 1.04 0.83 9.1477e-41
5.72 1.04 0.9 9.1477e-41
5.74 1.04 0.97 9.1477e-41
5.76 1.04 1.04 9.1477e-41
5.79 1.04 1.07 9.1477e-41
5.83 1.04 1.07 3.57e-43
5.89 1.04 1.07 3.57e-43
5.95 1.04 1.07 3.57e-43
6.01 1.04 1.07 3.57e-43
6.06 1.04 1.07 3.57e-43
6.1 1.04 1.07 3.57e-43
6.13 1.04 1.07 3.57e-43
6.19 1.04 1.07 3.57e-43
6.26 1.04 1.07 3.57e-43
6.31 1.04 1.07 3.57e-43
6.37 1.04 1.07 3.57e-43
6.42 1.04 1.07 3.57e-43
6.46 1.04 1.07 3.57e-43
6.52 1.04 1.07 3.57e-43
6.58 1.04 1.07 3.57e-43
6.63 1.04 1.07 3.57e-43
6.68 1.04 1.07 3.57e-43
6.74 1.04 1.07 3.57e-43
6.77 1.04 1.07 3.57e-43
6.84 1.04 1.07 3.57e-43
6.89 1.04 1.07 3.57e-43
6.95 1.04 1.07 3.57e-43
7.02 1.04 1.07 3.57e-43
7.07 1.04 1.07 3.57e-43
7.16 1.04 1.07 3.57e-43
7.22 1.04 0.98 9.1477e-41
7.26 1.04 1.03 9.1477e-41
7.29 1.04 1.07 9.1477e-41
7.33 1.04 1.09 9.1477e-41
5.67 1.12 0.6 9.1477e-41
5.67 1.12 0.73 9.1477e-41
5.7 1.12 0.81 9.1477e-41
5.72 1.12 0.89 9.1477e-41
5.75 1.12 0.95 9.1477e-41
5.75 1.12 1.06 9.1477e-41
5.78 1.12 1.1 9.1477e-41
5.82 1.12 1.14 9.1477e-41
5.87 1.12 1.14 3.57e-43
5.95 1.12 1.14 3.57e-43
6.01 1.12 1.14 3.57e-43
6.06 1.12 1.14 3.57e-43
6.1 1.12 1.14 3.57e-43
6.13 1.12 1.14 3.57e-43
6.19 1.12 1.14 3.57e-43
6.26 1.12 1.14 3.57e-43
6.31 1.12 1.14 3.57e-43
6.37 1.12 1.14 3.57e-43
6.42 1.12 1.14 3.57e-43
6.46 1.12 1.14 3.57e-43
6.52 1.12 1.14 3.57e-43
6.58 1.12 1.14 3.57e-43
6.63 1.12 1.14 3.57e-43
6.68 1.12 1.14 3.57e-43
6.74 1.12 1.14 3.57e-43
6.77 1.12 1.14 3.57e-43
6.84 1.12 1.14 3.57e-43
6.89 1.12 1.14 3.57e-43
6.95 1.12 1.14 3.57e-43
7.02 1.12 1.14 3.57e-43
7.07 1.12 1.14 3.57e-43
7.16 1.12 1.14 3.57e-43
7.22 1.12 0.98 9.1477e-41
7.22 1.12 1.08 9.1477e-41
7.28 1.12 1.08 9.1477e-41
7.32 1.12 1.12 9.1477e-41
5.67 1.2 0.6 9.1477e-41
5.68 1.2 0.71 9.1477e-41
5.7 1.2 0.81 9.1477e-41
5.71 1.2 0.92 9.1477e-41
5.75 1.2 0.92 3.57e-43
5.75 1.2 1.06 9.1477e-41
5.77 1.2 1.13 9.1477e-41
5.8 1.2 1.17 9.1477e-41
5.84 1.2 1.19 9.1477e-41
5.89 1.2 1.19 3.57e-43
6.01 1.2 1.19 3.57e-43
6.06 1.2 1.19 3.57e-43
6.1 1.2 1.19 3.57e-43
6.13 1.2 1.19 3.57e-43
6.19 1.2 1.19 3.57e-43
6.26 1.2 1.19 3.57e-43
6.31 1.2 1.19 3.57e-43
6.37 1.2 1.19 3.57e-43
6.42 1.2 1.19 3.57e-43
6.46 1.2 1.19 3.57e-43
6.52 1.2 1.19 3.57e-43
6.58 1.2 1.19 3.57e-43
6.63 1.2 1.19 3.57e-43
6.68 1.2 1.19 3.57e-43
6.74 1.2 1.19 3.57e-43
6.77 1.2 1.19 3.57e-43
6.84 1.2 1.05 9.1477e-41
6.78 1.2 1.05 3.57e-43
6.95 1.2 1.05 3.57e-43
7.02 1.2 1.05 3.57e-43
7.07 1.2 1.05 3.57e-43
7.16 1.2 1.05 3.57e-43
7.22 1.2 1.05 3.57e-43
7.22 1.2 1.08 9.1477e-41
7.23 1.2 1.14 9.1477e-41
7.3 1.2 1.15 9.1477e-41
5.67 1.28 0.42 9.1477e-41
5.67 1.28 0.6 9.1477e-41
5.69 1.28 0.7 9.1477e-41
5.7 1.28 0.81 9.1477e-41
5.71 1.28 0.91 9.1477e-41
5.74 1.28 0.91 3.57e-43
5.75 1.28 0.91 3.57e-43
5.77 1.28 1.13 9.1477e-41
5.79 1.28 1.2 9.1477e-41
5.82 1.28 1.25 9.1477e-41
5.86 1.28 1.25 3.57e-43
6.01 1.28 1.25 3.57e-43
6.06 1.28 1.25 3.57e-43
6.1 1.28 1.25 3.57e-43
6.13 1.28 1.25 3.57e-43
6.19 1.28 1.25 3.57e-43
6.26 1.28 1.25 3.57e-43
6.31 1.28 1.25 3.57e-43
6.37 1.28 1.25 3.57e-43
6.42 1.28 1.25 3.57e-43
6.46 1.28 1.25 3.57e-43
6.52 1.28 1.25 3.57e-43
6.58 1.28 1.25 3.57e-43
6.63 1.28 1.25 3.57e-43
6.68 1.28 1.25 3.57e-43
6.74 1.28 1.25 3.57e-43
6.77 1.28 1.25 3.57e-43
6.84 1.28 1.25 3.57e-43
6.78 1.28 1.25 3.57e-43
6.95 1.28 1.25 3.57e-43
7.02 1.28 1.25 3.57e-43
7.07 1.28 1.25 3.57e-43
7.16 1.28 1.25 3.57e-43
7.22 1.28 1.25 3.57e-43
7.22 1.28 1.25 3.57e-43
7.23 1.28 1.14 9.1477e-41
7.26 1.28 1.21 9.1477e-41
7.31 1.28 1.22 9.1477e-41
5.67 1.36 0.42 9.1477e-41
5.67 1.36 0.59 9.1477e-41
5.68 1.36 0.7 9.1477e-41
5.7 1.36 0.82 9.1477e-41
5.71 1.36 0.93 9.1477e-41
5.74 1.36 0.98 9.1477e-41
5.77 1.36 0.98 3.57e-43
5.77 1.36 1.13 9.1477e-41
5.78 1.36 1.24 9.1477e-41
5.81 1.36 1.27 9.1477e-41
5.84 1.36 1.31 9.1477e-41
5.89 1.36 1.31 9.1477e-41
5.94 1.36 1.31 9.1477e-41
5.98 1.36 1.31 3.57e-43
6.13 1.36 1.31 3.57e-43
6.19 1.36 1.31 3.57e-43
6.26 1.36 1.31 3.57e-43
6.31 1.36 1.31 3.57e-43
6.37 1.36 1.31 3.57e-43
6.42 1.36 1.31 3.57e-43
6.46 1.36 1.31 3.57e-43
6.52 1.36 1.31 3.57e-43
6.58 1.36 1.31 3.57e-43
6.63 1.36 1.31 3.57e-43
6.68 1.36 1.31 3.57e-43
6.74 1.36 1.31 3.57e-43
6.77 1.36 1.31 3.57e-43
6.84 1.36 1.31 3.57e-43
6.78 1.36 1.31 3.57e-43
6.95 1.36 1.31 3.57e-43
7.02 1.36 1.31 3.57e-43
7.07 1.36 1.31 3.57e-43
7.16 1.36 1.31 3.57e-43
7.22 1.36 1.31 3.57e-43
7.22 1.36 1.31 3.57e-43
7.23 1.36 1.31 3.57e-43
7.26 1.36 1.21 9.1477e-41
7.27 1.36 1.27 9.1477e-41
7.32 1.36 1.29 9.1477e-41
5.67 1.44 0.4 9.1477e-41
5.66 1.44 0.62 9.1477e-41
5.68 1.44 0.71 9.1477e-41
5.69 1.44 0.83 9.1477e-41
5.7 1.44 0.95 9.1477e-41
5.71 1.44 1.06 9.1477e-41
5.73 1.44 1.12 9.1477e-41
5.78 1.44 1.12 3.57e-43
5.78 1.44 1.24 9.1477e-41
5.79 1.44 1.32 9.1477e-41
5.83 1.44 1.33 9.1477e-41
5.86 1.44 1.37 9.1477e-41
5.9 1.44 1.38 9.1477e-41
6.04 1.44 1.16 9.1477e-41
6.1 1.44 1.15 9.1477e-41
6.14 1.44 1.16 9.1477e-41
6.2 1.44 1.15 9.1477e-41
6.25 1.44 1.14 9.1477e-41
6.29 1.44 1.15 9.1477e-41
6.35 1.44 1.15 3.57e-43
6.46 1.44 1.15 3.57e-43
6.52 1.44 1.15 3.57e-43
6.58 1.44 1.15 3.57e-43
6.63 1.44 1.15 3.57e-43
6.68 1.44 1.15 3.57e-43
6.74 1.44 1.15 3.57e-43
6.77 1.44 1.06 9.1477e-41
6.77 1.44 1.15 9.1477e-41
6.82 1.44 1.16 9.1477e-41
6.87 1.44 1.18 9.1477e-41
6.92 1.44 1.19 9.1477e-41
6.98 1.44 1.19 3.57e-43
7.16 1.44 1.19 3.57e-43
7.22 1.44 0.98 9.1477e-41
7.18 1.44 0.98 3.57e-43
7.23 1.44 0.98 3.57e-43
7.26 1.44 0.98 3.57e-43
7.27 1.44 1.27 9.1477e-41
7.28 1.44 1.34 9.1477e-41
5.67 1.52 0.42 9.1477e-41
5.66 1.52 0.42 3.57e-43
5.68 1.52 0.71 9.1477e-41
5.57 1.52 1.21 9.1477e-41
5.61 1.52 1.22 9.1477e-41
5.71 1.52 1.05 9.1477e-41
5.76 1.52 1.05 9.1477e-41
5.77 1.52 1.05 3.57e-43
5.78 1.52 1.05 3.57e-43
5.79 1.52 1.32 9.1477e-41
5.81 1.52 1.38 9.1477e-41
5.85 1.52 1.41 9.1477e-41
5.89 1.52 1.41 3.57e-43
6.04 1.52 1.41 3.57e-43
6.1 1.52 1.41 3.57e-43
6.14 1.52 1.41 3.57e-43
6.2 1.52 1.41 3.57e-43
6.25 1.52 1.41 3.57e-43
6.29 1.52 1.41 3.57e-43
6.35 1.52 1.41 3.57e-43
6.46 1.52 1.41 3.57e-43
6.52 1.52 1.41 3.57e-43
6.58 1.52 1.41 3.57e-43
6.63 1.52 1.41 3.57e-43
6.68 1.52 1.41 3.57e-43
6.74 1.52 1.41 3.57e-43
6.77 1.52 1.06 9.1477e-41
6.78 1.52 1.13 9.1477e-41
6.83 1.52 1.15 9.1477e-41
6.87 1.52 1.18 9.1477e-41
6.93 1.52 1.17 9.1477e-41
7.02 1.52 1.17 3.57e-43
7.16 1.52 0.99 9.1477e-41
7.14 1.52 1.1 9.1477e-41
7.2 1.52 1.1 3.57e-43
7.23 1.52 1.1 3.57e-43
7.26 1.52 1.1 3.57e-43
7.27 1.52 1.27 9.1477e-41
7.25 1.52 1.38 9.1477e-41
7.29 1.52 1.4 9.1477e-41
5.67 1.6 0.42 9.1477e-41
5.66 1.6 0.62 9.1477e-41
5.68 1.6 0.71 9.1477e-41
5.69 1.6 0.84 9.1477e-41
5.7 1.6 0.95 9.1477e-41
5.73 1.6 0.99 9.1477e-41
5.76 1.6 0.99 3.57e-43
5.77 1.6 0.99 3.57e-43
5.78 1.6 0.99 3.57e-43
5.79 1.6 0.99 3.57e-43
5.81 1.6 1.38 9.1477e-41
5.84 1.6 1.43 9.1477e-41
5.87 1.6 1.46 9.1477e-41
5.9 1.6 1.46 3.57e-43
6.1 1.6 1.46 3.57e-43
6.14 1.6 1.46 3.57e-43
6.2 1.6 1.46 3.57e-43
6.25 1.6 1.14 9.1477e-41
6.13 1.6 1.14 3.57e-43
6.35 1.6 1.14 9.1477e-41
6.54 1.6 1.14 3.57e-43
6.52 1.6 1.14 3.57e-43
6.58 1.6 1 9.1477e-41
6.73 1.6 1 3.57e-43
6.68 1.6 1 3.57e-43
6.74 1.6 1 3.57e-43
6.77 1.6 1 3.57e-43
6.78 1.6 1 3.57e-43
6.83 1.6 1 3.57e-43
6.87 1.6 1 3.57e-43
6.93 1.6 1 3.57e-43
7.02 1.6 1 3.57e-43
7.16 1.6 1 3.57e-43
7.14 1.6 1.1 9.1477e-41
7.27 1.6 1.1 3.57e-43
7.23 1.6 1.1 3.57e-43
7.26 1.6 1.1 3.57e-43
7.27 1.6 1.1 3.57e-43
7.25 1.6 1.38 9.1477e-41
7.26 1.6 1.44 9.1477e-41
7.3 1.6 1.47 9.1477e-41
5.66 1.68 0.44 9.1477e-41
5.66 1.68 0.63 9.1477e-41
5.68 1.68 0.72 9.1477e-41
5.69 1.68 0.85 9.1477e-41
5.7 1.68 0.95 9.1477e-41
5.73 1.68 1.01 9.1477e-41
5.76 1.68 1.01 3.57e-43
5.77 1.68 1.01 3.57e-43
5.78 1.68 1.01 3.57e-43
5.79 1.68 1.01 3.57e-43
5.81 1.68 1.38 9.1477e-41
5.83 1.68 1.46 9.1477e-41
5.86 1.68 1.49 9.1477e-41
5.89 1.68 1.51 9.1477e-41
5.93 1.68 1.51 3.57e-43
6.14 1.68 1.51 3.57e-43
6.2 1.68 1.51 3.57e-43
6.25 1.68 1.51 3.57e-43
6.13 1.68 1.51 3.57e-43
6.35 1.68 1.51 3.57e-43
6.54 1.68 1.51 3.57e-43
6.52 1.68 1.51 3.57e-43
6.58 1.68 1.51 3.57e-43
6.73 1.68 1.51 3.57e-43
6.68 1.68 1.51 3.57e-43
6.74 1.68 1.51 3.57e-43
6.77 1.68 1.51 3.57e-43
6.78 1.68 1.51 3.57e-43
6.83 1.68 1.51 3.57e-43
6.87 1.68 1.51 3.57e-43
6.93 1.68 1.51 3.57e-43
7.02 1.68 1.51 3.57e-43
7.16 1.68 0.99 9.1477e-41
6.91 1.68 1.47 9.1477e-41
6.98 1.68 1.47 3.57e-43
7.23 1.68 1.47 3.57e-43
7.26 1.68 1.21 9.1477e-41
7.08 1.68 1.54 9.1477e-41
7.14 1.68 1.53 9.1477e-41
7.2 1.68 1.52 9.1477e-41
7.27 1.68 1.51 9.1477e-41
5.66 1.76 0.44 9.1477e-41
5.65 1.76 0.64 9.1477e-41
5.67 1.76 0.74 9.1477e-41
5.69 1.76 0.85 9.1477e-41
5.7 1.76 0.96 9.1477e-41
5.72 1.76 1.02 9.1477e-41
5.76 1.76 1.02 3.57e-43
5.77 1.76 1.02 3.57e-43
5.78 1.76 1.02 3.57e-43
5.79 1.76 1.02 3.57e-43
5.81 1.76 1.02 3.57e-43
5.83 1.76 1.46 9.1477e-41
5.85 1.76 1.51 9.1477e-41
5.88 1.76 1.54 9.1477e-41
5.91 1.76 1.59 9.1477e-41
5.95 1.76 1.58 9.1477e-41
5.99 1.76 1.59 9.1477e-41
6.03 1.76 1.6 9.1477e-41
6.08 1.76 1.59 9.1477e-41
6.12 1.76 1.6 9.1477e-41
6.17 1.76 1.61 9.1477e-41
6.21 1.76 1.61 9.1477e-41
6.26 1.76 1.61 9.1477e-41
6.3 1.76 1.62 9.1477e-41
6.35 1.76 1.62 9.1477e-41
6.4 1.76 1.62 9.1477e-41
6.45 1.76 1.61 9.1477e-41
6.5 1.76 1.62 9.1477e-41
6.54 1.76 1.62 9.1477e-41
6.6 1.76 1.61 9.1477e-41
6.64 1.76 1.62 9.1477e-41
6.7 1.76 1.61 9.1477e-41
6.75 1.76 1.61 9.1477e-41
6.81 1.76 1.62 9.1477e-41
6.87 1.76 1.61 9.1477e-41
6.92 1.76 1.61 9.1477e-41
6.98 1.76 1.6 9.1477e-41
7.04 1.76 1.59 9.1477e-41
7.1 1.76 1.58 9.1477e-41
7.16 1.76 1.57 9.1477e-41
7.24 1.76 1.55 9.1477e-41
5.66 1.84 0.44 9.1477e-41
5.65 1.84 0.64 9.1477e-41
5.67 1.84 0.73 9.1477e-41
5.68 1.84 0.85 9.1477e-41
5.7 1.84 0.95 9.1477e-41
5.72 1.84 1.03 9.1477e-41
5.75 1.84 1.03 3.57e-43
5.77 1.84 1.03 3.57e-43
5.78 1.84 1.03 3.57e-43
5.79 1.84 1.03 3.57e-43
5.81 1.84 1.03 3.57e-43
5.83 1.84 1.46 9.1477e-41
5.84 1.84 1.54 9.1477e-41
5.87 1.84 1.57 9.1477e-41
5.9 1.84 1.6 9.1477e-41
5.94 1.84 1.61 9.1477e-41
5.98 1.84 1.61 9.1477e-41
6.02 1.84 1.62 9.1477e-41
6.07 1.84 1.62 9.1477e-41
6.1 1.84 1.64 9.1477e-41
6.15 1.84 1.64 9.1477e-41
6.19 1.84 1.65 9.1477e-41
6.24 1.84 1.64 9.1477e-41
6.28 1.84 1.65 9.1477e-41
6.33 1.84 1.65 9.1477e-41
6.38 1.84 1.66 9.1477e-41
6.42 1.84 1.66 9.1477e-41
6.48 1.84 1.65 9.1477e-41
6.53 1.84 1.65 9.1477e-41
6.58 1.84 1.64 9.1477e-41
6.62 1.84 1.66 9.1477e-41
6.69 1.84 1.64 9.1477e-41
6.73 1.84 1.65 9.1477e-41
6.78 1.84 1.65 9.1477e-41
6.84 1.84 1.65 9.1477e-41
6.89 1.84 1.66 9.1477e-41
6.96 1.84 1.63 9.1477e-41
7.01 1.84 1.63 9.1477e-41
7.07 1.84 1.63 9.1477e-41
7.13 1.84 1.61 9.1477e-41
7.2 1.84 1.6 9.1477e-41
7.26 1.84 1.6 9.1477e-41
5.66 1.92 0.45 9.1477e-41
5.65 1.92 0.65 9.1477e-41
5.67 1.92 0.73 9.1477e-41
5.68 1.92 0.86 9.1477e-41
5.69 1.92 0.96 9.1477e-41
5.72 1.92 1.04 9.1477e-41
5.75 1.92 1.04 3.57e-43
5.77 1.92 1.04 3.57e-43
5.78 1.92 1.24 9.1477e-41
5.8 1.92 1.29 9.1477e-41
5.82 1.92 1.29 3.57e-43
5.83 1.92 1.29 3.57e-43
5.84 1.92 1.54 9.1477e-41
5.87 1.92 1.58 9.1477e-41
5.89 1.92 1.62 9.1477e-41
5.93 1.92 1.63 9.1477e-41
5.97 1.92 1.64 9.1477e-41
6.01 1.92 1.65 9.1477e-41
6.05 1.92 1.66 9.1477e-41
6.09 1.92 1.66 9.1477e-41
6.13 1.92 1.67 9.1477e-41
6.18 1.92 1.67 9.1477e-41
6.22 1.92 1.68 9.1477e-41
6.27 1.92 1.67 9.1477e-41
6.32 1.92 1.66 9.1477e-41
6.36 1.92 1.67 9.1477e-41
6.41 1.92 1.67 9.1477e-41
6.46 1.92 1.68 9.1477e-41
6.51 1.92 1.68 9.1477e-41
6.55 1.92 1.69 9.1477e-41
6.6 1.92 1.68 9.1477e-41
6.65 1.92 1.69 9.1477e-41
6.71 1.92 1.68 9.1477e-41
6.76 1.92 1.68 9.1477e-41
6.82 1.92 1.68 9.1477e-41
6.87 1.92 1.67 9.1477e-41
6.93 1.92 1.67 9.1477e-41
6.99 1.92 1.67 9.1477e-41
7.04 1.92 1.66 9.1477e-41
7.11 1.92 1.64 9.1477e-41
7.18 1.92 1.63 9.1477e-41
7.24 1.92 1.62 9.1477e-41
5.66 2 0.45 9.1477e-41
5.65 2 0.65 9.1477e-41
5.68 2 0.72 9.1477e-41
5.68 2 0.86 9.1477e-41
5.69 2 0.96 9.1477e-41
5.71 2 1.06 9.1477e-41
5.75 2 1.06 3.57e-43
5.77 2 1.06 3.57e-43
5.78 2 1.06 3.57e-43
5.8 2 1.06 3.57e-43
5.82 2 1.06 3.57e-43
5.83 2 1.06 3.57e-43
5.84 2 1.54 9.1477e-41
5.86 2 1.58 9.1477e-41
5.89 2 1.61 9.1477e-41
5.91 2 1.67 9.1477e-41
5.96 2 1.66 9.1477e-41
6 2 1.67 9.1477e-41
6.04 2 1.68 9.1477e-41
6.08 2 1.68 9.1477e-41
6.13 2 1.67 9.1477e-41
6.17 2 1.7 9.1477e-41
6.21 2 1.69 9.1477e-41
6.26 2 1.69 9.1477e-41
6.3 2 1.7 9.1477e-41
6.35 2 1.7 9.1477e-41
6.39 2 1.71 9.1477e-41
6.44 2 1.71 9.1477e-41
6.49 2 1.71 9.1477e-41
6.54 2 1.7 9.1477e-41
6.59 2 1.7 9.1477e-41
6.64 2 1.71 9.1477e-41
6.7 2 1.7 9.1477e-41
6.74 2 1.71 9.1477e-41
6.8 2 1.7 9.1477e-41
6.86 2 1.7 9.1477e-41
6.91 2 1.7 9.1477e-41
6.97 2 1.69 9.1477e-41
7.03 2 1.68 9.1477e-41
7.09 2 1.68 9.1477e-41
7.15 2 1.66 9.1477e-41
7.22 2 1.64 9.1477e-41
5.66 2.08 0.45 9.1477e-41
5.65 2.08 0.66 9.1477e-41
5.67 2.08 0.74 9.1477e-41
5.68 2.08 0.85 9.1477e-41
5.69 2.08 0.96 9.1477e-41
5.71 2.08 1.06 9.1477e-41
5.74 2.08 1.11 9.1477e-41
5.77 2.08 1.11 3.57e-43
5.78 2.08 1.24 9.1477e-41
6.02 2.08 1.24 3.57e-43
5.82 2.08 1.24 3.57e-43
5.83 2.08 1.46 9.1477e-41
6.1 2.08 0.92 9.1477e-41
5.86 2.08 1.59 9.1477e-41
5.89 2.08 1.63 9.1477e-41
5.92 2.08 1.66 9.1477e-41
5.96 2.08 1.67 9.1477e-41
6 2.08 1.68 9.1477e-41
6.03 2.08 1.69 9.1477e-41
6.07 2.08 1.71 9.1477e-41
6.12 2.08 1.7 9.1477e-41
6.16 2.08 1.72 9.1477e-41
6.21 2.08 1.71 9.1477e-41
6.25 2.08 1.72 9.1477e-41
6.29 2.08 1.71 9.1477e-41
6.34 2.08 1.72 9.1477e-41
6.38 2.08 1.73 9.1477e-41
6.44 2.08 1.71 9.1477e-41
6.49 2.08 1.72 9.1477e-41
6.54 2.08 1.71 9.1477e-41
6.58 2.08 1.72 9.1477e-41
6.63 2.08 1.72 9.1477e-41
6.68 2.08 1.72 9.1477e-41
6.73 2.08 1.73 9.1477e-41
6.79 2.08 1.72 9.1477e-41
6.84 2.08 1.72 9.1477e-41
6.9 2.08 1.72 9.1477e-41
6.95 2.08 1.72 9.1477e-41
7.02 2.08 1.7 9.1477e-41
7.08 2.08 1.69 9.1477e-41
7.13 2.08 1.69 9.1477e-41
7.21 2.08 1.66 9.1477e-41
5.66 2.16 0.46 9.1477e-41
5.64 2.16 0.67 9.1477e-41
5.67 2.16 0.73 9.1477e-41
5.68 2.16 0.85 9.1477e-41
5.69 2.16 0.96 9.1477e-41
5.71 2.16 1.06 9.1477e-41
5.73 2.16 1.14 9.1477e-41
5.76 2.16 1.14 3.57e-43
5.78 2.16 1.14 3.57e-43
6.02 2.16 0.74 9.1477e-41
6.08 2.16 0.74 3.57e-43
5.83 2.16 0.74 3.57e-43
6.1 2.16 0.92 9.1477e-41
5.85 2.16 1.61 9.1477e-41
5.89 2.16 1.63 9.1477e-41
5.91 2.16 1.68 9.1477e-41
5.94 2.16 1.71 9.1477e-41
5.99 2.16 1.69 9.1477e-41
6.02 2.16 1.71 9.1477e-41
6.06 2.16 1.72 9.1477e-41
6.11 2.16 1.72 9.1477e-41
6.16 2.16 1.72 9.1477e-41
6.19 2.16 1.74 9.1477e-41
6.24 2.16 1.74 9.1477e-41
6.28 2.16 1.74 9.1477e-41
6.33 2.16 1.73 9.1477e-41
6.38 2.16 1.73 9.1477e-41
6.43 2.16 1.74 9.1477e-41
6.47 2.16 1.74 9.1477e-41
6.53 2.16 1.73 9.1477e-41
6.57 2.16 1.73 9.1477e-41
6.62 2.16 1.74 9.1477e-41
6.67 2.16 1.74 9.1477e-41
6.72 2.16 1.74 9.1477e-41
6.78 2.16 1.73 9.1477e-41
6.84 2.16 1.73 9.1477e-41
6.89 2.16 1.73 9.1477e-41
6.94 2.16 1.73 9.1477e-41
7 2.16 1.72 9.1477e-41
7.06 2.16 1.71 9.1477e-41
7.12 2.16 1.71 9.1477e-41
7.19 2.16 1.68 9.1477e-41
7.25 2.16 1.7 9.1477e-41
5.66 2.24 0.46 9.1477e-41
5.64 2.24 0.67 9.1477e-41
5.67 2.24 0.74 9.1477e-41
5.68 2.24 0.87 9.1477e-41
5.69 2.24 0.96 9.1477e-41
5.71 2.24 1.06 9.1477e-41
5.72 2.24 1.14 9.1477e-41
5.74 2.24 1.23 9.1477e-41
5.76 2.24 1.29 9.1477e-41
5.78 2.24 1.35 9.1477e-41
5.8 2.24 1.41 9.1477e-41
5.83 2.24 1.41 3.57e-43
6.1 2.24 0.92 9.1477e-41
5.85 2.24 1.62 9.1477e-41
5.88 2.24 1.64 9.1477e-41
5.91 2.24 1.68 9.1477e-41
5.94 2.24 1.71 9.1477e-41
5.98 2.24 1.7 9.1477e-41
6.02 2.24 1.73 9.1477e-41
6.06 2.24 1.73 9.1477e-41
6.1 2.24 1.73 9.1477e-41
6.14 2.24 1.75 9.1477e-41
6.19 2.24 1.74 9.1477e-41
6.24 2.24 1.74 9.1477e-41
6.28 2.24 1.74 9.1477e-41
6.32 2.24 1.75 9.1477e-41
6.37 2.24 1.75 9.1477e-41
6.42 2.24 1.75 9.1477e-41
6.47 2.24 1.75 9.1477e-41
6.52 2.24 1.75 9.1477e-41
6.56 2.24 1.75 9.1477e-41
6.61 2.24 1.76 9.1477e-41
6.66 2.24 1.74 9.1477e-41
6.71 2.24 1.75 9.1477e-41
6.77 2.24 1.75 9.1477e-41
6.82 2.24 1.76 9.1477e-41
6.88 2.24 1.74 9.1477e-41
6.93 2.24 1.74 9.1477e-41
6.99 2.24 1.74 9.1477e-41
7.05 2.24 1.73 9.1477e-41
7.11 2.24 1.72 9.1477e-41
7.18 2.24 1.71 9.1477e-41
7.24 2.24 1.69 9.1477e-41
5.66 2.32 0.45 9.1477e-41
5.65 2.32 0.65 9.1477e-41
5.67 2.32 0.73 9.1477e-41
5.68 2.32 0.86 9.1477e-41
5.69 2.32 0.96 9.1477e-41
5.71 2.32 1.06 9.1477e-41
5.72 2.32 1.14 9.1477e-41
5.74 2.32 1.22 9.1477e-41
5.76 2.32 1.29 9.1477e-41
5.78 2.32 1.36 9.1477e-41
5.8 2.32 1.42 9.1477e-41
5.81 2.32 1.49 9.1477e-41
5.84 2.32 1.53 9.1477e-41
5.86 2.32 1.59 9.1477e-41
5.88 2.32 1.65 9.1477e-41
5.9 2.32 1.68 9.1477e-41
5.93 2.32 1.71 9.1477e-41
5.98 2.32 1.72 9.1477e-41
6.02 2.32 1.72 9.1477e-41
6.05 2.32 1.75 9.1477e-41
6.1 2.32 1.74 9.1477e-41
6.14 2.32 1.75 9.1477e-41
6.19 2.32 1.75 9.1477e-41
6.23 2.32 1.75 9.1477e-41
6.27 2.32 1.76 9.1477e-41
6.32 2.32 1.75 9.1477e-41
6.37 2.32 1.76 9.1477e-41
6.41 2.32 1.77 9.1477e-41
6.46 2.32 1.76 9.1477e-41
6.51 2.32 1.76 9.1477e-41
6.56 2.32 1.76 9.1477e-41
6.61 2.32 1.76 9.1477e-41
6.66 2.32 1.75 9.1477e-41
6.7 2.32 1.77 9.1477e-41
6.76 2.32 1.76 9.1477e-41
6.82 2.32 1.76 9.1477e-41
6.86 2.32 1.77 9.1477e-41
6.92 2.32 1.76 9.1477e-41
6.98 2.32 1.75 9.1477e-41
7.04 2.32 1.74 9.1477e-41
7.09 2.32 1.74 9.1477e-41
7.16 2.32 1.72 9.1477e-41
7.24 2.32 1.7 9.1477e-41
5.66 2.4 0.44 9.1477e-41
5.65 2.4 0.66 9.1477e-41
5.67 2.4 0.73 9.1477e-41
5.68 2.4 0.85 9.1477e-41
5.69 2.4 0.97 9.1477e-41
5.71 2.4 1.06 9.1477e-41
5.72 2.4 1.14 9.1477e-41
5.74 2.4 1.22 9.1477e-41
5.77 2.4 1.28 9.1477e-41
5.78 2.4 1.36 9.1477e-41
5.8 2.4 1.42 9.1477e-41
5.82 2.4 1.48 9.1477e-41
5.84 2.4 1.54 9.1477e-41
5.86 2.4 1.59 9.1477e-41
5.88 2.4 1.65 9.1477e-41
5.9 2.4 1.68 9.1477e-41
5.93 2.4 1.71 9.1477e-41
5.97 2.4 1.74 9.1477e-41
6.02 2.4 1.72 9.1477e-41
6.05 2.4 1.75 9.1477e-41
6.09 2.4 1.75 9.1477e-41
6.13 2.4 1.75 9.1477e-41
6.18 2.4 1.75 9.1477e-41
6.22 2.4 1.77 9.1477e-41
6.27 2.4 1.77 9.1477e-41
6.31 2.4 1.77 9.1477e-41
6.36 2.4 1.76 9.1477e-41
6.41 2.4 1.77 9.1477e-41
6.46 2.4 1.76 9.1477e-41
6.5 2.4 1.78 9.1477e-41
6.55 2.4 1.77 9.1477e-41
6.6 2.4 1.77 9.1477e-41
6.65 2.4 1.78 9.1477e-41
6.7 2.4 1.78 9.1477e-41
6.76 2.4 1.77 9.1477e-41
6.81 2.4 1.77 9.1477e-41
6.85 2.4 1.78 9.1477e-41
6.92 2.4 1.76 9.1477e-41
6.98 2.4 1.76 9.1477e-41
7.03 2.4 1.76 9.1477e-41
7.09 2.4 1.74 9.1477e-41
7.16 2.4 1.73 9.1477e-41
7.22 2.4 1.72 9.1477e-41
5.66 2.48 0.45 9.1477e-41
5.64 2.48 0.67 9.1477e-41
5.67 2.48 0.74 9.1477e-41
5.68 2.48 0.85 9.1477e-41
5.7 2.48 0.95 9.1477e-41
5.71 2.48 1.06 9.1477e-41
5.73 2.48 1.06 3.57e-43
5.74 2.48 1.06 3.57e-43
5.77 2.48 1.06 3.57e-43
5.78 2.48 1.06 3.57e-43
5.8 2.48 1.06 3.57e-43
5.82 2.48 1.06 3.57e-43
5.84 2.48 1.54 9.1477e-41
5.85 2.48 1.61 9.1477e-41
5.88 2.48 1.64 9.1477e-41
5.9 2.48 1.69 9.1477e-41
5.93 2.48 1.71 9.1477e-41
5.96 2.48 1.75 9.1477e-41
6.02 2.48 1.73 9.1477e-41
6.05 2.48 1.75 9.1477e-41
6.09 2.48 1.75 9.1477e-41
6.13 2.48 1.75 9.1477e-41
6.17 2.48 1.76 9.1477e-41
6.22 2.48 1.77 9.1477e-41
6.26 2.48 1.78 9.1477e-41
6.31 2.48 1.78 9.1477e-41
6.36 2.48 1.77 9.1477e-41
6.41 2.48 1.76 9.1477e-41
6.45 2.48 1.78 9.1477e-41
6.5 2.48 1.77 9.1477e-41
6.55 2.48 1.78 9.1477e-41
6.59 2.48 1.78 9.1477e-41
6.64 2.48 1.79 9.1477e-41
6.7 2.48 1.78 9.1477e-41
6.75 2.48 1.77 9.1477e-41
6.8 2.48 1.79 9.1477e-41
6.86 2.48 1.77 9.1477e-41
6.91 2.48 1.77 9.1477e-41
6.98 2.48 1.76 9.1477e-41
7.03 2.48 1.76 9.1477e-41
7.08 2.48 1.76 9.1477e-41
7.15 2.48 1.74 9.1477e-41
7.22 2.48 1.73 9.1477e-41
5.66 2.56 0.44 9.1477e-41
5.65 2.56 0.66 9.1477e-41
5.67 2.56 0.73 9.1477e-41
5.68 2.56 0.85 9.1477e-41
5.68 2.56 0.98 9.1477e-41
5.71 2.56 1.06 9.1477e-41
5.74 2.56 1.06 3.57e-43
5.74 2.56 1.06 3.57e-43
5.77 2.56 1.06 3.57e-43
5.78 2.56 1.36 9.1477e-41
6.08 2.56 0.72 9.1477e-41
6.13 2.56 0.72 9.1477e-41
6.19 2.56 0.72 3.57e-43
5.85 2.56 1.62 9.1477e-41
5.87 2.56 1.65 9.1477e-41
5.9 2.56 1.68 9.1477e-41
5.93 2.56 1.72 9.1477e-41
5.96 2.56 1.75 9.1477e-41
6.01 2.56 1.75 9.1477e-41
6.05 2.56 1.75 9.1477e-41
6.09 2.56 1.76 9.1477e-41
6.13 2.56 1.76 9.1477e-41
6.17 2.56 1.76 9.1477e-41
6.22 2.56 1.77 9.1477e-41
6.26 2.56 1.78 9.1477e-41
6.31 2.56 1.78 9.1477e-41
6.36 2.56 1.77 9.1477e-41
6.4 2.56 1.77 9.1477e-41
6.44 2.56 1.79 9.1477e-41
6.49 2.56 1.79 9.1477e-41
6.55 2.56 1.78 9.1477e-41
6.59 2.56 1.78 9.1477e-41
6.64 2.56 1.78 9.1477e-41
6.69 2.56 1.78 9.1477e-41
6.74 2.56 1.78 9.1477e-41
6.8 2.56 1.77 9.1477e-41
6.85 2.56 1.78 9.1477e-41
6.91 2.56 1.78 9.1477e-41
6.96 2.56 1.78 9.1477e-41
7.02 2.56 1.77 9.1477e-41
7.08 2.56 1.76 9.1477e-41
7.15 2.56 1.75 9.1477e-41
7.21 2.56 1.73 9.1477e-41
5.66 2.64 0.44 9.1477e-41
5.64 2.64 0.67 9.1477e-41
5.67 2.64 0.73 9.1477e-41
5.68 2.64 0.87 9.1477e-41
5.69 2.64 0.96 9.1477e-41
5.7 2.64 1.07 9.1477e-41
5.74 2.64 1.07 3.57e-43
5.74 2.64 1.07 3.57e-43
5.77 2.64 1.07 3.57e-43
5.78 2.64 1.07 3.57e-43
6.08 2.64 1.07 3.57e-43
6.13 2.64 1.07 3.57e-43
6.19 2.64 1.07 3.57e-43
5.85 2.64 1.62 9.1477e-41
5.88 2.64 1.65 9.1477e-41
5.9 2.64 1.7 9.1477e-41
5.93 2.64 1.71 9.1477e-41
5.96 2.64 1.76 9.1477e-41
6 2.64 1.76 9.1477e-41
6.05 2.64 1.76 9.1477e-41
6.09 2.64 1.76 9.1477e-41
6.13 2.64 1.76 9.1477e-41
6.17 2.64 1.77 9.1477e-41
6.21 2.64 1.79 9.1477e-41
6.26 2.64 1.78 9.1477e-41
6.3 2.64 1.79 9.1477e-41
6.35 2.64 1.78 9.1477e-41
6.4 2.64 1.79 9.1477e-41
6.44 2.64 1.79 9.1477e-41
6.49 2.64 1.79 9.1477e-41
6.54 2.64 1.79 9.1477e-41
6.59 2.64 1.79 9.1477e-41
6.64 2.64 1.8 9.1477e-41
6.69 2.64 1.78 9.1477e-41
6.74 2.64 1.79 9.1477e-41
6.79 2.64 1.79 9.1477e-41
6.85 2.64 1.79 9.1477e-41
6.89 2.64 1.8 9.1477e-41
6.96 2.64 1.77 9.1477e-41
7.02 2.64 1.77 9.1477e-41
7.08 2.64 1.76 9.1477e-41
7.14 2.64 1.75 9.1477e-41
7.21 2.64 1.73 9.1477e-41
5.66 2.72 0.45 9.1477e-41
5.65 2.72 0.66 9.1477e-41
5.67 2.72 0.73 9.1477e-41
5.68 2.72 0.86 9.1477e-41
5.69 2.72 0.96 9.1477e-41
5.7 2.72 1.07 9.1477e-41
5.74 2.72 1.07 3.57e-43
5.74 2.72 1.07 3.57e-43
5.77 2.72 1.07 3.57e-43
5.78 2.72 1.07 3.57e-43
6.08 2.72 1.07 3.57e-43
6.13 2.72 1.07 3.57e-43
6.19 2.72 1.07 3.57e-43
5.85 2.72 1.62 9.1477e-41
5.87 2.72 1.65 9.1477e-41
5.9 2.72 1.7 9.1477e-41
5.93 2.72 1.72 9.1477e-41
5.96 2.72 1.76 9.1477e-41
6 2.72 1.76 9.1477e-41
6.04 2.72 1.76 9.1477e-41
6.08 2.72 1.77 9.1477e-41
6.12 2.72 1.77 9.1477e-41
6.17 2.72 1.78 9.1477e-41
6.21 2.72 1.78 9.1477e-41
6.26 2.72 1.78 9.1477e-41
6.3 2.72 1.79 9.1477e-41
6.35 2.72 1.79 9.1477e-41
6.39 2.72 1.8 9.1477e-41
6.43 2.72 1.8 9.1477e-41
6.48 2.72 1.8 9.1477e-41
6.54 2.72 1.78 9.1477e-41
6.58 2.72 1.8 9.1477e-41
6.63 2.72 1.8 9.1477e-41
6.69 2.72 1.79 9.1477e-41
6.73 2.72 1.8 9.1477e-41
6.78 2.72 1.8 9.1477e-41
6.84 2.72 1.81 9.1477e-41
6.89 2.72 1.8 9.1477e-41
6.95 2.72 1.79 9.1477e-41
7.01 2.72 1.78 9.1477e-41
7.08 2.72 1.77 9.1477e-41
7.13 2.72 1.76 9.1477e-41
7.21 2.72 1.73 9.1477e-41
5.67 2.8 0.43 9.1477e-41
5.65 2.8 0.65 9.1477e-41
5.67 2.8 0.74 9.1477e-41
5.68 2.8 0.85 9.1477e-41
5.69 2.8 0.96 9.1477e-41
5.71 2.8 1.06 9.1477e-41
5.74 2.8 1.06 3.57e-43
5.74 2.8 1.06 3.57e-43
5.77 2.8 1.06 3.57e-43
5.78 2.8 1.06 3.57e-43
6.08 2.8 1.06 3.57e-43
6.13 2.8 1.06 3.57e-43
6.19 2.8 1.06 3.57e-43
5.85 2.8 1.62 9.1477e-41
5.87 2.8 1.65 9.1477e-41
5.9 2.8 1.7 9.1477e-41
5.93 2.8 1.72 9.1477e-41
5.96 2.8 1.76 9.1477e-41
6 2.8 1.77 9.1477e-41
6.05 2.8 1.76 9.1477e-41
6.08 2.8 1.77 9.1477e-41
6.12 2.8 1.78 9.1477e-41
6.16 2.8 1.79 9.1477e-41
6.21 2.8 1.79 9.1477e-41
6.25 2.8 1.79 9.1477e-41
6.3 2.8 1.79 9.1477e-41
6.35 2.8 1.79 9.1477e-41
6.39 2.8 1.8 9.1477e-41
6.43 2.8 1.8 9.1477e-41
6.48 2.8 1.8 9.1477e-41
6.53 2.8 1.8 9.1477e-41
6.58 2.8 1.8 9.1477e-41
6.64 2.8 1.8 9.1477e-41
6.68 2.8 1.8 9.1477e-41
6.73 2.8 1.8 9.1477e-41
6.78 2.8 1.8 9.1477e-41
6.84 2.8 1.81 9.1477e-41
6.9 2.8 1.79 9.1477e-41
6.95 2.8 1.79 9.1477e-41
7.01 2.8 1.78 9.1477e-41
7.06 2.8 1.78 9.1477e-41
7.12 2.8 1.78 9.1477e-41
7.21 2.8 1.74 9.1477e-41
5.67 2.88 0.43 9.1477e-41
5.65 2.88 0.65 9.1477e-41
5.67 2.88 0.73 9.1477e-41
5.68 2.88 0.86 9.1477e-41
5.69 2.88 0.97 9.1477e-41
5.71 2.88 1.06 9.1477e-41
5.73 2.88 1.06 3.57e-43
5.74 2.88 1.06 3.57e-43
5.77 2.88 1.06 3.57e-43
5.78 2.88 1.06 3.57e-43
6.08 2.88 1.06 3.57e-43
6.13 2.88 1.06 3.57e-43
6.19 2.88 1.06 3.57e-43
5.85 2.88 1.62 9.1477e-41
5.87 2.88 1.65 9.1477e-41
5.9 2.88 1.7 9.1477e-41
5.92 2.88 1.73 9.1477e-41
5.96 2.88 1.76 9.1477e-41
5.99 2.88 1.77 9.1477e-41
6.05 2.88 1.76 9.1477e-41
6.08 2.88 1.78 9.1477e-41
6.12 2.88 1.77 9.1477e-41
6.16 2.88 1.79 9.1477e-41
6.21 2.88 1.79 9.1477e-41
6.25 2.88 1.79 9.1477e-41
6.29 2.88 1.8 9.1477e-41
6.35 2.88 1.79 9.1477e-41
6.39 2.88 1.8 9.1477e-41
6.43 2.88 1.81 9.1477e-41
6.48 2.88 1.81 9.1477e-41
6.53 2.88 1.8 9.1477e-41
6.58 2.88 1.81 9.1477e-41
6.63 2.88 1.81 9.1477e-41
6.68 2.88 1.81 9.1477e-41
6.73 2.88 1.8 9.1477e-41
6.78 2.88 1.8 9.1477e-41
6.84 2.88 1.81 9.1477e-41
6.9 2.88 1.79 9.1477e-41
6.95 2.88 1.8 9.1477e-41
7.01 2.88 1.78 9.1477e-41
7.06 2.88 1.78 9.1477e-41
7.13 2.88 1.77 9.1477e-41
7.19 2.88 1.76 9.1477e-41
5.67 2.96 0.43 9.1477e-41
5.65 2.96 0.65 9.1477e-41
5.67 2.96 0.73 9.1477e-41
5.68 2.96 0.85 9.1477e-41
5.69 2.96 0.97 9.1477e-41
5.71 2.96 1.06 9.1477e-41
5.74 2.96 1.06 3.57e-43
5.74 2.96 1.06 3.57e-43
5.77 2.96 1.06 3.57e-43
5.78 2.96 1.06 3.57e-43
6.08 2.96 0.72 9.1477e-41
5.91 2.96 1.26 9.1477e-41
5.95 2.96 1.26 3.57e-43
5.85 2.96 1.61 9.1477e-41
5.87 2.96 1.65 9.1477e-41
5.9 2.96 1.7 9.1477e-41
5.93 2.96 1.72 9.1477e-41
5.95 2.96 1.77 9.1477e-41
6 2.96 1.77 9.1477e-41
6.04 2.96 1.77 9.1477e-41
6.08 2.96 1.78 9.1477e-41
6.12 2.96 1.78 9.1477e-41
6.16 2.96 1.79 9.1477e-41
6.21 2.96 1.79 9.1477e-41
6.25 2.96 1.8 9.1477e-41
6.3 2.96 1.79 9.1477e-41
6.34 2.96 1.8 9.1477e-41
6.39 2.96 1.81 9.1477e-41
6.44 2.96 1.79 9.1477e-41
6.48 2.96 1.81 9.1477e-41
6.52 2.96 1.81 9.1477e-41
6.58 2.96 1.8 9.1477e-41
6.63 2.96 1.81 9.1477e-41
6.68 2.96 1.81 9.1477e-41
6.73 2.96 1.8 9.1477e-41
6.78 2.96 1.81 9.1477e-41
6.84 2.96 1.8 9.1477e-41
6.89 2.96 1.81 9.1477e-41
6.95 2.96 1.8 9.1477e-41
7 2.96 1.79 9.1477e-41
7.06 2.96 1.78 9.1477e-41
7.13 2.96 1.77 9.1477e-41
7.19 2.96 1.76 9.1477e-41
5.66 3.04 0.44 9.1477e-41
5.65 3.04 0.64 9.1477e-41
5.67 3.04 0.74 9.1477e-41
5.68 3.04 0.85 9.1477e-41
5.69 3.04 0.97 9.1477e-41
5.71 3.04 1.06 9.1477e-41
5.73 3.04 1.06 3.57e-43
5.74 3.04 1.06 3.57e-43
5.77 3.04 1.06 3.57e-43
5.78 3.04 1.06 3.57e-43
6.08 3.04 1.06 3.57e-43
5.91 3.04 1.06 3.57e-43
5.95 3.04 1.06 3.57e-43
5.85 3.04 1.61 9.1477e-41
5.87 3.04 1.66 9.1477e-41
5.9 3.04 1.7 9.1477e-41
5.93 3.04 1.72 9.1477e-41
5.95 3.04 1.77 9.1477e-41
5.99 3.04 1.77 9.1477e-41
6.04 3.04 1.76 9.1477e-41
6.08 3.04 1.78 9.1477e-41
6.12 3.04 1.79 9.1477e-41
6.16 3.04 1.8 9.1477e-41
6.2 3.04 1.8 9.1477e-41
6.25 3.04 1.8 9.1477e-41
6.3 3.04 1.79 9.1477e-41
6.35 3.04 1.79 9.1477e-41
6.39 3.04 1.81 9.1477e-41
6.43 3.04 1.81 9.1477e-41
6.48 3.04 1.81 9.1477e-41
6.52 3.04 1.81 9.1477e-41
6.58 3.04 1.8 9.1477e-41
6.63 3.04 1.81 9.1477e-41
6.68 3.04 1.8 9.1477e-41
6.73 3.04 1.81 9.1477e-41
6.78 3.04 1.81 9.1477e-41
6.84 3.04 1.81 9.1477e-41
6.88 3.04 1.81 9.1477e-41
6.94 3.04 1.81 9.1477e-41
7 3.04 1.79 9.1477e-41
7.06 3.04 1.78 9.1477e-41
7.12 3.04 1.79 9.1477e-41
7.19 3.04 1.76 9.1477e-41
5.65 3.12 0.65 9.1477e-41
5.67 3.12 0.75 9.1477e-41
5.69 3.12 0.84 9.1477e-41
5.7 3.12 0.95 9.1477e-41
5.71 3.12 1.06 9.1477e-41
5.73 3.12 1.06 3.57e-43
5.74 3.12 1.06 3.57e-43
5.77 3.12 1.06 3.57e-43
5.78 3.12 1.06 3.57e-43
6.08 3.12 1.06 3.57e-43
5.91 3.12 1.06 3.57e-43
5.95 3.12 1.06 3.57e-43
5.85 3.12 1.61 9.1477e-41
5.87 3.12 1.66 9.1477e-41
5.9 3.12 1.69 9.1477e-41
5.92 3.12 1.73 9.1477e-41
5.95 3.12 1.77 9.1477e-41
5.99 3.12 1.77 9.1477e-41
6.04 3.12 1.77 9.1477e-41
6.07 3.12 1.79 9.1477e-41
6.12 3.12 1.78 9.1477e-41
6.16 3.12 1.8 9.1477e-41
6.2 3.12 1.8 9.1477e-41
6.25 3.12 1.8 9.1477e-41
6.29 3.12 1.81 9.1477e-41
6.34 3.12 1.8 9.1477e-41
6.39 3.12 1.81 9.1477e-41
6.43 3.12 1.8 9.1477e-41
6.48 3.12 1.81 9.1477e-41
6.52 3.12 1.81 9.1477e-41
6.58 3.12 1.81 9.1477e-41
6.63 3.12 1.81 9.1477e-41
6.68 3.12 1.81 9.1477e-41
6.73 3.12 1.81 9.1477e-41
6.77 3.12 1.81 9.1477e-41
6.84 3.12 1.81 9.1477e-41
6.89 3.12 1.81 9.1477e-41
6.94 3.12 1.81 9.1477e-41
7 3.12 1.79 9.1477e-41
7.06 3.12 1.79 9.1477e-41
7.12 3.12 1.78 9.1477e-41
7.19 3.12 1.76 9.1477e-41
5.65 3.2 0.65 9.1477e-41
5.66 3.2 0.77 9.1477e-41
5.68 3.2 0.85 9.1477e-41
5.69 3.2 0.97 9.1477e-41
5.71 3.2 1.06 9.1477e-41
5.73 3.2 1.06 3.57e-43
5.74 3.2 1.06 3.57e-43
5.77 3.2 1.06 3.57e-43
5.78 3.2 1.06 3.57e-43
6.08 3.2 1.06 3.57e-43
5.91 3.2 1.06 3.57e-43
5.95 3.2 1.06 3.57e-43
5.85 3.2 1.61 9.1477e-41
5.87 3.2 1.66 9.1477e-41
5.9 3.2 1.69 9.1477e-41
5.92 3.2 1.73 9.1477e-41
5.96 3.2 1.76 9.1477e-41
5.99 3.2 1.77 9.1477e-41
6.04 3.2 1.77 9.1477e-41
6.08 3.2 1.78 9.1477e-41
6.12 3.2 1.79 9.1477e-41
6.16 3.2 1.8 9.1477e-41
6.2 3.2 1.8 9.1477e-41
6.25 3.2 1.8 9.1477e-41
6.29 3.2 1.8 9.1477e-41
6.34 3.2 1.8 9.1477e-41
6.39 3.2 1.81 9.1477e-41
6.43 3.2 1.8 9.1477e-41
6.47 3.2 1.81 9.1477e-41
6.52 3.2 1.81 9.1477e-41
6.58 3.2 1.81 9.1477e-41
6.62 3.2 1.82 9.1477e-41
6.68 3.2 1.81 9.1477e-41
6.72 3.2 1.82 9.1477e-41
6.78 3.2 1.81 9.1477e-41
6.83 3.2 1.81 9.1477e-41
6.89 3.2 1.81 9.1477e-41
6.94 3.2 1.81 9.1477e-41
7 3.2 1.8 9.1477e-41
7.06 3.2 1.79 9.1477e-41
7.12 3.2 1.78 9.1477e-41
7.19 3.2 1.76 9.1477e-41
5.65 3.28 0.64 9.1477e-41
5.66 3.28 0.77 9.1477e-41
5.68 3.28 0.86 9.1477e-41
5.7 3.28 0.95 9.1477e-41
5.71 3.28 1.06 9.1477e-41
5.72 3.28 1.16 9.1477e-41
5.75 3.28 1.16 3.57e-43
5.77 3.28 1.16 3.57e-43
5.78 3.28 1.16 3.57e-43
6.08 3.28 1.16 3.57e-43
5.91 3.28 1.16 3.57e-43
5.95 3.28 1.16 3.57e-43
5.85 3.28 1.61 9.1477e-41
5.87 3.28 1.66 9.1477e-41
5.9 3.28 1.69 9.1477e-41
5.93 3.28 1.72 9.1477e-41
5.95 3.28 1.77 9.1477e-41
6 3.28 1.77 9.1477e-41
6.04 3.28 1.77 9.1477e-41
6.07 3.28 1.79 9.1477e-41
6.12 3.28 1.79 9.1477e-41
6.16 3.28 1.8 9.1477e-41
6.2 3.28 1.81 9.1477e-41
6.24 3.28 1.81 9.1477e-41
6.29 3.28 1.8 9.1477e-41
6.33 3.28 1.81 9.1477e-41
6.39 3.28 1.81 9.1477e-41
6.43 3.28 1.81 9.1477e-41
6.48 3.28 1.81 9.1477e-41
6.52 3.28 1.82 9.1477e-41
6.58 3.28 1.81 9.1477e-41
6.63 3.28 1.81 9.1477e-41
6.67 3.28 1.82 9.1477e-41
6.72 3.28 1.82 9.1477e-41
6.78 3.28 1.81 9.1477e-41
6.83 3.28 1.81 9.1477e-41
6.89 3.28 1.81 9.1477e-41
6.94 3.28 1.81 9.1477e-41
7 3.28 1.8 9.1477e-41
7.06 3.28 1.79 9.1477e-41
7.12 3.28 1.79 9.1477e-41
7.19 3.28 1.76 9.1477e-41
5.67 3.36 0.57 9.1477e-41
5.66 3.36 0.77 9.1477e-41
5.68 3.36 0.87 9.1477e-41
5.7 3.36 0.94 9.1477e-41
5.71 3.36 1.06 9.1477e-41
5.71 3.36 1.17 9.1477e-41
5.75 3.36 1.17 3.57e-43
5.77 3.36 1.17 3.57e-43
5.78 3.36 1.17 3.57e-43
6.08 3.36 1.17 3.57e-43
5.91 3.36 1.17 3.57e-43
5.95 3.36 1.17 3.57e-43
5.85 3.36 1.61 9.1477e-41
5.87 3.36 1.66 9.1477e-41
5.9 3.36 1.69 9.1477e-41
5.93 3.36 1.71 9.1477e-41
5.95 3.36 1.77 9.1477e-41
5.99 3.36 1.77 9.1477e-41
6.04 3.36 1.77 9.1477e-41
6.08 3.36 1.78 9.1477e-41
6.12 3.36 1.79 9.1477e-41
6.15 3.36 1.81 9.1477e-41
6.2 3.36 1.8 9.1477e-41
6.24 3.36 1.81 9.1477e-41
6.29 3.36 1.8 9.1477e-41
6.34 3.36 1.8 9.1477e-41
6.39 3.36 1.81 9.1477e-41
6.43 3.36 1.81 9.1477e-41
6.47 3.36 1.81 9.1477e-41
6.53 3.36 1.8 9.1477e-41
6.58 3.36 1.81 9.1477e-41
6.62 3.36 1.82 9.1477e-41
6.67 3.36 1.82 9.1477e-41
6.73 3.36 1.81 9.1477e-41
6.78 3.36 1.81 9.1477e-41
6.83 3.36 1.81 9.1477e-41
6.88 3.36 1.81 9.1477e-41
6.94 3.36 1.81 9.1477e-41
6.99 3.36 1.81 9.1477e-41
7.06 3.36 1.79 9.1477e-41
7.13 3.36 1.77 9.1477e-41
7.19 3.36 1.76 9.1477e-41
5.69 3.44 0.54 9.1477e-41
5.66 3.44 0.79 9.1477e-41
5.68 3.44 0.87 9.1477e-41
5.69 3.44 0.97 9.1477e-41
5.71 3.44 1.06 9.1477e-41
5.72 3.44 1.15 9.1477e-41
5.75 3.44 1.15 3.57e-43
5.77 3.44 1.15 3.57e-43
5.78 3.44 1.15 3.57e-43
6.08 3.44 1.15 3.57e-43
5.91 3.44 1.15 3.57e-43
5.95 3.44 1.15 3.57e-43
5.85 3.44 1.61 9.1477e-41
5.87 3.44 1.65 9.1477e-41
5.9 3.44 1.7 9.1477e-41
5.93 3.44 1.72 9.1477e-41
5.95 3.44 1.77 9.1477e-41
5.99 3.44 1.77 9.1477e-41
6.04 3.44 1.76 9.1477e-41
6.08 3.44 1.78 9.1477e-41
6.12 3.44 1.79 9.1477e-41
6.16 3.44 1.8 9.1477e-41
6.2 3.44 1.8 9.1477e-41
6.25 3.44 1.8 9.1477e-41
6.3 3.44 1.79 9.1477e-41
6.34 3.44 1.8 9.1477e-41
6.38 3.44 1.82 9.1477e-41
6.43 3.44 1.8 9.1477e-41
6.47 3.44 1.81 9.1477e-41
6.53 3.44 1.8 9.1477e-41
6.58 3.44 1.81 9.1477e-41
6.63 3.44 1.8 9.1477e-41
6.67 3.44 1.82 9.1477e-41
6.73 3.44 1.81 9.1477e-41
6.78 3.44 1.81 9.1477e-41
6.83 3.44 1.81 9.1477e-41
6.88 3.44 1.81 9.1477e-41
6.95 3.44 1.8 9.1477e-41
6.99 3.44 1.81 9.1477e-41
7.06 3.44 1.79 9.1477e-41
7.13 3.44 1.77 9.1477e-41
7.19 3.44 1.76 9.1477e-41
5.68 3.52 0.54 9.1477e-41
5.66 3.52 0.79 9.1477e-41
5.68 3.52 0.87 9.1477e-41
5.7 3.52 0.94 9.1477e-41
5.71 3.52 1.05 9.1477e-41
5.72 3.52 1.14 9.1477e-41
5.74 3.52 1.14 3.57e-43
5.77 3.52 1.14 3.57e-43
5.78 3.52 1.14 3.57e-43
6.08 3.52 1.14 3.57e-43
5.91 3.52 1.14 3.57e-43
5.95 3.52 1.14 3.57e-43
5.85 3.52 1.61 9.1477e-41
5.87 3.52 1.65 9.1477e-41
5.9 3.52 1.69 9.1477e-41
5.93 3.52 1.72 9.1477e-41
5.96 3.52 1.76 9.1477e-41
6 3.52 1.77 9.1477e-41
6.04 3.52 1.76 9.1477e-41
6.08 3.52 1.78 9.1477e-41
6.12 3.52 1.78 9.1477e-41
6.16 3.52 1.79 9.1477e-41
6.21 3.52 1.79 9.1477e-41
6.25 3.52 1.8 9.1477e-41
6.3 3.52 1.79 9.1477e-41
6.34 3.52 1.8 9.1477e-41
6.38 3.52 1.82 9.1477e-41
6.43 3.52 1.81 9.1477e-41
6.48 3.52 1.81 9.1477e-41
6.53 3.52 1.8 9.1477e-41
6.58 3.52 1.8 9.1477e-41
6.63 3.52 1.81 9.1477e-41
6.68 3.52 1.81 9.1477e-41
6.73 3.52 1.81 9.1477e-41
6.78 3.52 1.81 9.1477e-41
6.83 3.52 1.81 9.1477e-41
6.89 3.52 1.81 9.1477e-41
6.95 3.52 1.8 9.1477e-41
7 3.52 1.8 9.1477e-41
7.06 3.52 1.79 9.1477e-41
7.12 3.52 1.79 9.1477e-41
7.19 3.52 1.76 9.1477e-41
5.67 3.6 0.57 9.1477e-41
5.66 3.6 0.77 9.1477e-41
5.68 3.6 0.85 9.1477e-41
5.7 3.6 0.93 9.1477e-41
5.71 3.6 1.05 9.1477e-41
5.73 3.6 1.14 9.1477e-41
5.75 3.6 1.14 3.57e-43
5.77 3.6 1.14 3.57e-43
5.78 3.6 1.14 3.57e-43
6.08 3.6 1.14 3.57e-43
5.91 3.6 1.14 3.57e-43
5.95 3.6 1.14 3.57e-43
5.85 3.6 1.61 9.1477e-41
5.88 3.6 1.65 9.1477e-41
5.9 3.6 1.69 9.1477e-41
5.93 3.6 1.71 9.1477e-41
5.95 3.6 1.77 9.1477e-41
6 3.6 1.77 9.1477e-41
6.04 3.6 1.76 9.1477e-41
6.08 3.6 1.78 9.1477e-41
6.12 3.6 1.78 9.1477e-41
6.16 3.6 1.79 9.1477e-41
6.2 3.6 1.8 9.1477e-41
6.25 3.6 1.8 9.1477e-41
6.3 3.6 1.79 9.1477e-41
6.34 3.6 1.8 9.1477e-41
6.39 3.6 1.81 9.1477e-41
6.43 3.6 1.81 9.1477e-41
6.48 3.6 1.81 9.1477e-41
6.53 3.6 1.8 9.1477e-41
6.58 3.6 1.81 9.1477e-41
6.63 3.6 1.81 9.1477e-41
6.68 3.6 1.81 9.1477e-41
6.73 3.6 1.81 9.1477e-41
6.78 3.6 1.8 9.1477e-41
6.83 3.6 1.81 9.1477e-41
6.89 3.6 1.81 9.1477e-41
6.95 3.6 1.8 9.1477e-41
7 3.6 1.79 9.1477e-41
7.06 3.6 1.78 9.1477e-41
7.12 3.6 1.78 9.1477e-41
7.19 3.6 1.76 9.1477e-41
5.67 3.68 0.42 9.1477e-41
5.65 3.68 0.64 9.1477e-41
5.67 3.68 0.75 9.1477e-41
5.69 3.68 0.85 9.1477e-41
5.7 3.68 0.94 9.1477e-41
5.72 3.68 1.04 9.1477e-41
5.74 3.68 1.11 9.1477e-41
5.74 3.68 1.11 3.57e-43
5.77 3.68 1.11 3.57e-43
5.78 3.68 1.11 3.57e-43
6.08 3.68 1.11 3.57e-43
5.91 3.68 1.11 3.57e-43
5.95 3.68 1.25 9.1477e-41
5.85 3.68 1.6 9.1477e-41
5.88 3.68 1.64 9.1477e-41
5.9 3.68 1.68 9.1477e-41
5.93 3.68 1.72 9.1477e-41
5.96 3.68 1.76 9.1477e-41
5.99 3.68 1.77 9.1477e-41
6.04 3.68 1.76 9.1477e-41
6.08 3.68 1.78 9.1477e-41
6.12 3.68 1.77 9.1477e-41
6.16 3.68 1.79 9.1477e-41
6.21 3.68 1.79 9.1477e-41
6.25 3.68 1.8 9.1477e-41
6.3 3.68 1.79 9.1477e-41
6.35 3.68 1.79 9.1477e-41
6.39 3.68 1.81 9.1477e-41
6.43 3.68 1.8 9.1477e-41
6.48 3.68 1.81 9.1477e-41
6.54 3.68 1.79 9.1477e-41
6.58 3.68 1.81 9.1477e-41
6.63 3.68 1.8 9.1477e-41
6.68 3.68 1.8 9.1477e-41
6.73 3.68 1.81 9.1477e-41
6.78 3.68 1.8 9.1477e-41
6.84 3.68 1.81 9.1477e-41
6.89 3.68 1.81 9.1477e-41
6.95 3.68 1.8 9.1477e-41
7 3.68 1.79 9.1477e-41
7.06 3.68 1.78 9.1477e-41
7.13 3.68 1.77 9.1477e-41
7.19 3.68 1.76 9.1477e-41
5.66 3.76 0.61 9.1477e-41
5.68 3.76 0.72 9.1477e-41
5.69 3.76 0.83 9.1477e-41
5.71 3.76 0.93 9.1477e-41
5.72 3.76 1.02 9.1477e-41
5.73 3.76 1.12 9.1477e-41
5.75 3.76 1.12 3.57e-43
5.77 3.76 1.12 3.57e-43
5.78 3.76 1.12 3.57e-43
6.08 3.76 1.12 3.57e-43
5.91 3.76 1.26 9.1477e-41
5.83 3.76 1.55 9.1477e-41
5.86 3.76 1.58 9.1477e-41
5.88 3.76 1.64 9.1477e-41
5.9 3.76 1.68 9.1477e-41
5.93 3.76 1.72 9.1477e-41
5.96 3.76 1.75 9.1477e-41
6 3.76 1.77 9.1477e-41
6.04 3.76 1.76 9.1477e-41
6.08 3.76 1.77 9.1477e-41
6.12 3.76 1.77 9.1477e-41
6.16 3.76 1.79 9.1477e-41
6.21 3.76 1.79 9.1477e-41
6.26 3.76 1.78 9.1477e-41
6.3 3.76 1.79 9.1477e-41
6.34 3.76 1.8 9.1477e-41
6.39 3.76 1.81 9.1477e-41
6.43 3.76 1.8 9.1477e-41
6.48 3.76 1.8 9.1477e-41
6.54 3.76 1.79 9.1477e-41
6.58 3.76 1.8 9.1477e-41
6.63 3.76 1.8 9.1477e-41
6.68 3.76 1.81 9.1477e-41
6.73 3.76 1.8 9.1477e-41
6.78 3.76 1.8 9.1477e-41
6.84 3.76 1.81 9.1477e-41
6.89 3.76 1.8 9.1477e-41
6.95 3.76 1.8 9.1477e-41
7 3.76 1.79 9.1477e-41
7.06 3.76 1.78 9.1477e-41
7.13 3.76 1.76 9.1477e-41
7.19 3.76 1.76 9.1477e-41
5.67 3.84 0.58 9.1477e-41
5.69 3.84 0.69 9.1477e-41
5.7 3.84 0.8 9.1477e-41
5.71 3.84 0.91 9.1477e-41
5.72 3.84 1.02 9.1477e-41
5.73 3.84 1.12 9.1477e-41
5.75 3.84 1.19 9.1477e-41
5.77 3.84 1.27 9.1477e-41
5.79 3.84 1.34 9.1477e-41
5.81 3.84 1.4 9.1477e-41
5.83 3.84 1.46 9.1477e-41
5.84 3.84 1.53 9.1477e-41
5.87 3.84 1.58 9.1477e-41
5.89 3.84 1.63 9.1477e-41
5.91 3.84 1.67 9.1477e-41
5.94 3.84 1.71 9.1477e-41
5.96 3.84 1.75 9.1477e-41
6.01 3.84 1.75 9.1477e-41
6.04 3.84 1.76 9.1477e-41
6.09 3.84 1.76 9.1477e-41
6.12 3.84 1.77 9.1477e-41
6.16 3.84 1.78 9.1477e-41
6.21 3.84 1.79 9.1477e-41
6.26 3.84 1.78 9.1477e-41
6.3 3.84 1.79 9.1477e-41
6.35 3.84 1.79 9.1477e-41
6.39 3.84 1.8 9.1477e-41
6.44 3.84 1.79 9.1477e-41
6.49 3.84 1.79 9.1477e-41
6.54 3.84 1.79 9.1477e-41
6.59 3.84 1.79 9.1477e-41
6.63 3.84 1.8 9.1477e-41
6.68 3.84 1.8 9.1477e-41
6.74 3.84 1.78 9.1477e-41
6.78 3.84 1.8 9.1477e-41
6.84 3.84 1.81 9.1477e-41
6.9 3.84 1.79 9.1477e-41
6.95 3.84 1.79 9.1477e-41
7.01 3.84 1.78 9.1477e-41
7.07 3.84 1.78 9.1477e-41
7.14 3.84 1.75 9.1477e-41
7.19 3.84 1.76 9.1477e-41
5.69 3.92 0.5 9.1477e-41
5.7 3.92 0.64 9.1477e-41
5.71 3.92 0.77 9.1477e-41
5.72 3.92 0.89 9.1477e-41
5.73 3.92 0.99 9.1477e-41
5.75 3.92 1.08 9.1477e-41
5.75 3.92 1.19 9.1477e-41
5.78 3.92 1.25 9.1477e-41
5.79 3.92 1.33 9.1477e-41
5.81 3.92 1.39 9.1477e-41
5.83 3.92 1.44 9.1477e-41
5.85 3.92 1.5 9.1477e-41
5.88 3.92 1.55 9.1477e-41
5.9 3.92 1.59 9.1477e-41
5.93 3.92 1.62 9.1477e-41
5.96 3.92 1.66 9.1477e-41
5.99 3.92 1.69 9.1477e-41
6.03 3.92 1.7 9.1477e-41
6.06 3.92 1.73 9.1477e-41
6.1 3.92 1.74 9.1477e-41
6.14 3.92 1.76 9.1477e-41
6.18 3.92 1.76 9.1477e-41
6.23 3.92 1.76 9.1477e-41
6.27 3.92 1.77 9.1477e-41
6.32 3.92 1.76 9.1477e-41
6.36 3.92 1.77 9.1477e-41
6.4 3.92 1.77 9.1477e-41
6.44 3.92 1.79 9.1477e-41
6.5 3.92 1.77 9.1477e-41
6.54 3.92 1.78 9.1477e-41
6.59 3.92 1.79 9.1477e-41
6.64 3.92 1.79 9.1477e-41
6.69 3.92 1.78 9.1477e-41
6.74 3.92 1.78 9.1477e-41
6.8 3.92 1.78 9.1477e-41
6.85 3.92 1.79 9.1477e-41
6.91 3.92 1.78 9.1477e-41
6.96 3.92 1.77 9.1477e-41
7.02 3.92 1.77 9.1477e-41
7.09 3.92 1.75 9.1477e-41
7.14 3.92 1.75 9.1477e-41
7.21 3.92 1.74 9.1477e-41
5.71 4 0.45 9.1477e-41
5.71 4 0.61 9.1477e-41
5.75 4 0.65 9.1477e-41
5.79 4 0.69 9.1477e-41
5.77 4 0.89 9.1477e-41
5.8 4 0.94 9.1477e-41
5.82 4 1.01 9.1477e-41
5.82 4 1.14 9.1477e-41
5.84 4 1.2 9.1477e-41
5.87 4 1.24 9.1477e-41
5.9 4 1.28 9.1477e-41
5.95 4 1.26 9.1477e-41
6 4 1.26 9.1477e-41
6.04 4 1.28 9.1477e-41
6.08 4 1.31 9.1477e-41
6.11 4 1.32 9.1477e-41
6.15 4 1.35 9.1477e-41
6.19 4 1.38 9.1477e-41
6.24 4 1.36 9.1477e-41
6.29 4 1.37 9.1477e-41
