# .PCD v.7 - Point Cloud Data file format
VERSION .7
FIELDS x y z rgb
SIZE 4 4 4 4
TYPE F F F F
WIDTH 671
HEIGHT 1
POINTS 671
DATA ascii
3.05 0 0.75 9.1477e-41
3.1 0 0.78 9.1477e-41
3.14 0 0.79 9.1477e-41
3.19 0 0.78 9.1477e-41
3.24 0 0.84 9.1477e-41
3.29 0 0.87 9.1477e-41
3.33 0 0.86 9.1477e-41
3.38 0 0.88 9.1477e-41
3.42 0 0.88 9.1477e-41
3.46 0 0.89 9.1477e-41
3.51 0 0.89 9.1477e-41
3.55 0 0.89 9.1477e-41
3.59 0 0.9 9.1477e-41
3.63 0 0.9 9.1477e-41
3.68 0 0.9 9.1477e-41
3.72 0 0.89 9.1477e-41
3.76 0 0.89 9.1477e-41
3.8 0 0.89 9.1477e-41
3.84 0 0.88 9.1477e-41
3.89 0 0.88 9.1477e-41
3.93 0 0.88 9.1477e-41
3.97 0 0.88 9.1477e-41
4.01 0 0.87 9.1477e-41
4.05 0 0.86 9.1477e-41
4.09 0 0.86 9.1477e-41
4.18 0 0.83 9.1477e-41
4.22 0 0.81 9.1477e-41
4.27 0 0.75 9.1477e-41
4.31 0 0.73 9.1477e-41
4.35 0 0.73 9.1477e-41
4.4 0 0.71 9.1477e-41
2.97 0.25 0.8 9.1477e-41
3.05 0.25 0.96 9.1477e-41
3.1 0.25 0.98 9.1477e-41
3.14 0.25 0.98 9.1477e-41
3.18 0.25 0.98 9.1477e-41
3.22 0.25 0.98 9.1477e-41
3.27 0.25 0.98 9.1477e-41
3.31 0.25 0.99 9.1477e-41
3.35 0.25 0.98 9.1477e-41
3.4 0.25 1 9.1477e-41
3.44 0.25 1 9.1477e-41
3.48 0.25 1 9.1477e-41
3.52 0.25 1 9.1477e-41
3.56 0.25 1 9.1477e-41
3.6 0.25 1 9.1477e-41
3.64 0.25 1 9.1477e-41
3.69 0.25 0.99 9.1477e-41
3.73 0.25 1 9.1477e-41
3.77 0.25 1 9.1477e-41
3.81 0.25 0.98 9.1477e-41
3.85 0.25 0.98 9.1477e-41
3.89 0.25 0.99 9.1477e-41
3.93 0.25 0.98 9.1477e-41
3.97 0.25 0.98 9.1477e-41
4.01 0.25 0.98 9.1477e-41
4.05 0.25 0.98 9.1477e-41
4.09 0.25 0.97 9.1477e-41
4.18 0.25 0.96 9.1477e-41
4.22 0.25 0.95 9.1477e-41
4.26 0.25 0.94 9.1477e-41
4.3 0.25 0.94 9.1477e-41
4.34 0.25 0.94 9.1477e-41
4.39 0.25 0.94 3.57e-43
4.48 0.25 0.76 9.1477e-41
2.9 0.5 0.88 9.1477e-41
2.98 0.5 1.03 9.1477e-41
3.03 0.5 1.05 9.1477e-41
3.07 0.5 1.05 9.1477e-41
3.11 0.5 1.06 9.1477e-41
3.15 0.5 1.05 9.1477e-41
3.2 0.5 1.06 9.1477e-41
3.24 0.5 1.05 9.1477e-41
3.28 0.5 1.07 9.1477e-41
3.32 0.5 1.07 9.1477e-41
3.36 0.5 1.06 9.1477e-41
3.41 0.5 1.07 9.1477e-41
3.45 0.5 1.07 9.1477e-41
3.49 0.5 1.06 9.1477e-41
3.53 0.5 1.06 9.1477e-41
3.57 0.5 1.06 9.1477e-41
3.61 0.5 1.07 9.1477e-41
3.65 0.5 1.07 9.1477e-41
3.69 0.5 1.06 9.1477e-41
3.73 0.5 1.06 9.1477e-41
3.77 0.5 1.06 9.1477e-41
3.81 0.5 1.06 9.1477e-41
3.85 0.5 1.05 9.1477e-41
3.89 0.5 1.05 9.1477e-41
3.93 0.5 1.04 9.1477e-41
3.97 0.5 1.05 9.1477e-41
4.01 0.5 1.04 9.1477e-41
4.05 0.5 1.05 9.1477e-41
4.09 0.5 1.05 9.1477e-41
4.18 0.5 1.04 9.1477e-41
4.22 0.5 1.04 9.1477e-41
4.26 0.5 1.02 9.1477e-41
4.3 0.5 1.02 9.1477e-41
4.34 0.5 1.02 9.1477e-41
4.38 0.5 1 9.1477e-41
4.42 0.5 1.01 9.1477e-41
4.46 0.5 1 9.1477e-41
4.51 0.5 0.97 9.1477e-41
4.56 0.5 0.89 9.1477e-41
2.95 0.75 1.08 9.1477e-41
3 0.75 1.11 9.1477e-41
3.04 0.75 1.11 9.1477e-41
3.08 0.75 1.1 9.1477e-41
3.12 0.75 1.1 9.1477e-41
3.15 0.75 1.02 9.1477e-41
3.19 0.75 1.03 9.1477e-41
3.23 0.75 1.03 9.1477e-41
3.28 0.75 1.05 9.1477e-41
3.32 0.75 1.05 9.1477e-41
3.36 0.75 1.05 9.1477e-41
3.4 0.75 1.06 9.1477e-41
3.45 0.75 1.05 9.1477e-41
3.49 0.75 1.05 9.1477e-41
3.53 0.75 1.06 9.1477e-41
3.57 0.75 1.06 9.1477e-41
3.61 0.75 1.05 9.1477e-41
3.65 0.75 1.06 9.1477e-41
3.69 0.75 1.06 9.1477e-41
3.73 0.75 1.09 9.1477e-41
3.77 0.75 1.06 9.1477e-41
3.81 0.75 1.04 9.1477e-41
3.85 0.75 1.04 9.1477e-41
3.89 0.75 1.04 9.1477e-41
3.93 0.75 1.05 9.1477e-41
3.97 0.75 1.03 9.1477e-41
4.01 0.75 1.04 9.1477e-41
4.05 0.75 1.02 9.1477e-41
4.09 0.75 1.02 9.1477e-41
4.18 0.75 1.01 9.1477e-41
4.22 0.75 1 9.1477e-41
4.26 0.75 1.06 9.1477e-41
4.3 0.75 1.06 9.1477e-41
4.34 0.75 1.08 9.1477e-41
4.38 0.75 1.06 9.1477e-41
4.42 0.75 1.07 9.1477e-41
4.46 0.75 1.06 9.1477e-41
4.5 0.75 1.05 9.1477e-41
4.55 0.75 1.01 9.1477e-41
2.98 1 1.19 9.1477e-41
3.02 1 1.19 3.57e-43
3.04 1 1.19 3.57e-43
3.08 1 1.19 3.57e-43
3.12 1 1.19 3.57e-43
3.15 1 1.19 3.57e-43
3.19 1 1.19 3.57e-43
3.23 1 1.19 3.57e-43
3.28 1 1.19 3.57e-43
3.32 1 1.19 3.57e-43
3.36 1 1.19 3.57e-43
3.4 1 1.19 3.57e-43
3.45 1 1.19 3.57e-43
3.49 1 1.19 3.57e-43
3.53 1 1.19 3.57e-43
3.57 1 1.19 3.57e-43
3.61 1 1.19 3.57e-43
3.65 1 1.19 3.57e-43
3.69 1 1.19 3.57e-43
3.73 1 1.19 3.57e-43
3.77 1 1.19 3.57e-43
3.81 1 1.19 3.57e-43
3.85 1 1.04 9.1477e-41
3.9 1 1.22 9.1477e-41
3.94 1 1.22 3.57e-43
3.97 1 1.22 3.57e-43
4.01 1 1.22 3.57e-43
4.05 1 1.22 3.57e-43
4.09 1 1.22 3.57e-43
4.14 1 1.22 3.57e-43
4.18 1 1.22 3.57e-43
4.22 1 1.22 3.57e-43
4.26 1 1.22 3.57e-43
4.3 1 1.22 3.57e-43
4.34 1 1.08 9.1477e-41
4.37 1 1.13 9.1477e-41
4.41 1 1.14 9.1477e-41
4.45 1 1.12 9.1477e-41
4.49 1 1.14 9.1477e-41
4.54 1 1.09 9.1477e-41
2.98 1.25 1.37 9.1477e-41
3.02 1.25 1.38 9.1477e-41
3.06 1.25 1.37 9.1477e-41
3.05 1.25 1.16 9.1477e-41
3.09 1.25 1.15 9.1477e-41
3.13 1.25 1.16 9.1477e-41
3.18 1.25 1.16 9.1477e-41
3.22 1.25 1.17 9.1477e-41
3.26 1.25 1.15 9.1477e-41
3.3 1.25 1.15 9.1477e-41
3.34 1.25 1.16 9.1477e-41
3.38 1.25 1.16 9.1477e-41
3.42 1.25 1.16 9.1477e-41
3.46 1.25 1.17 9.1477e-41
3.5 1.25 1.17 3.57e-43
3.53 1.25 1.17 3.57e-43
3.57 1.25 1.17 3.57e-43
3.61 1.25 1.17 3.57e-43
3.65 1.25 1.17 3.57e-43
3.69 1.25 1.17 3.57e-43
3.73 1.25 1.17 3.57e-43
3.77 1.25 1.17 3.57e-43
3.81 1.25 1.17 3.57e-43
3.85 1.25 1.17 3.57e-43
3.9 1.25 1.22 9.1477e-41
3.94 1.25 1.22 3.57e-43
3.97 1.25 1.22 3.57e-43
4.01 1.25 1.22 3.57e-43
4.05 1.25 1.22 3.57e-43
4.09 1.25 1.22 3.57e-43
4.14 1.25 1.22 3.57e-43
4.18 1.25 1.22 3.57e-43
4.22 1.25 1.22 3.57e-43
4.26 1.25 1.22 3.57e-43
4.3 1.25 1.22 3.57e-43
4.34 1.25 1.22 3.57e-43
4.37 1.25 1.22 3.57e-43
4.41 1.25 1.14 9.1477e-41
4.44 1.25 1.32 9.1477e-41
4.48 1.25 1.32 9.1477e-41
4.52 1.25 1.22 9.1477e-41
4.6 1.25 0.87 9.1477e-41
3 1.5 1.45 9.1477e-41
3.06 1.5 1.45 3.57e-43
3.06 1.5 1.37 9.1477e-41
3.03 1.5 1.37 3.57e-43
3.09 1.5 1.37 3.57e-43
3.13 1.5 1.37 3.57e-43
3.18 1.5 1.16 9.1477e-41
3.08 1.5 0.44 9.1477e-41
3.12 1.5 0.4 9.1477e-41
3.17 1.5 0.45 9.1477e-41
3.23 1.5 0.49 9.1477e-41
3.27 1.5 0.49 9.1477e-41
3.3 1.5 0.49 3.57e-43
3.46 1.5 0.49 3.57e-43
3.5 1.5 0.49 3.57e-43
3.53 1.5 1.06 9.1477e-41
3.63 1.5 1.06 3.57e-43
3.61 1.5 1.06 3.57e-43
3.65 1.5 1.06 3.57e-43
3.69 1.5 1.06 3.57e-43
3.73 1.5 1.06 3.57e-43
3.77 1.5 1.06 3.57e-43
3.81 1.5 1.06 3.57e-43
3.85 1.5 1.06 3.57e-43
3.9 1.5 1.22 9.1477e-41
3.95 1.5 1.46 9.1477e-41
3.98 1.5 1.46 9.1477e-41
4.02 1.5 1.46 9.1477e-41
4.06 1.5 1.46 3.57e-43
4.09 1.5 1.46 3.57e-43
4.14 1.5 1.46 3.57e-43
4.18 1.5 1.46 3.57e-43
4.22 1.5 1.46 3.57e-43
4.26 1.5 1.06 9.1477e-41
4.29 1.5 1.11 9.1477e-41
4.34 1.5 1.11 3.57e-43
4.37 1.5 1.11 3.57e-43
4.41 1.5 1.14 9.1477e-41
4.42 1.5 1.5 9.1477e-41
4.46 1.5 1.48 9.1477e-41
4.51 1.5 1.36 9.1477e-41
4.6 1.5 0.91 9.1477e-41
3.05 1.75 1.65 9.1477e-41
3.09 1.75 1.66 9.1477e-41
3.13 1.75 1.67 9.1477e-41
3.17 1.75 1.67 9.1477e-41
3.21 1.75 1.67 9.1477e-41
3.24 1.75 1.66 9.1477e-41
3.28 1.75 1.68 9.1477e-41
3.32 1.75 1.68 9.1477e-41
3.36 1.75 1.69 9.1477e-41
3.39 1.75 1.69 9.1477e-41
3.43 1.75 1.69 9.1477e-41
3.46 1.75 1.68 9.1477e-41
3.5 1.75 1.69 9.1477e-41
3.53 1.75 1.68 9.1477e-41
3.57 1.75 1.69 9.1477e-41
3.61 1.75 1.68 9.1477e-41
3.64 1.75 1.68 9.1477e-41
3.68 1.75 1.69 9.1477e-41
3.71 1.75 1.68 9.1477e-41
3.75 1.75 1.68 9.1477e-41
3.78 1.75 1.69 9.1477e-41
3.82 1.75 1.68 9.1477e-41
3.85 1.75 1.67 9.1477e-41
3.89 1.75 1.68 9.1477e-41
3.92 1.75 1.68 9.1477e-41
3.96 1.75 1.68 9.1477e-41
3.99 1.75 1.68 9.1477e-41
4.03 1.75 1.67 9.1477e-41
4.06 1.75 1.67 9.1477e-41
4.09 1.75 1.66 9.1477e-41
4.16 1.75 1.67 9.1477e-41
4.2 1.75 1.65 9.1477e-41
4.24 1.75 1.65 9.1477e-41
4.27 1.75 1.65 9.1477e-41
4.31 1.75 1.64 9.1477e-41
4.34 1.75 1.63 9.1477e-41
4.38 1.75 1.62 9.1477e-41
4.41 1.75 1.62 9.1477e-41
4.45 1.75 1.6 9.1477e-41
4.49 1.75 1.52 9.1477e-41
4.59 1.75 0.95 9.1477e-41
3.07 2 1.71 9.1477e-41
3.11 2 1.73 9.1477e-41
3.14 2 1.72 9.1477e-41
3.19 2 1.74 9.1477e-41
3.22 2 1.74 9.1477e-41
3.26 2 1.73 9.1477e-41
3.29 2 1.74 9.1477e-41
3.33 2 1.74 9.1477e-41
3.37 2 1.75 9.1477e-41
3.4 2 1.75 9.1477e-41
3.44 2 1.74 9.1477e-41
3.47 2 1.75 9.1477e-41
3.51 2 1.75 9.1477e-41
3.54 2 1.74 9.1477e-41
3.58 2 1.75 9.1477e-41
3.61 2 1.74 9.1477e-41
3.65 2 1.75 9.1477e-41
3.68 2 1.75 9.1477e-41
3.72 2 1.74 9.1477e-41
3.75 2 1.74 9.1477e-41
3.79 2 1.75 9.1477e-41
3.82 2 1.73 9.1477e-41
3.86 2 1.75 9.1477e-41
3.89 2 1.73 9.1477e-41
3.92 2 1.75 9.1477e-41
3.96 2 1.73 9.1477e-41
3.99 2 1.73 9.1477e-41
4.03 2 1.74 9.1477e-41
4.06 2 1.73 9.1477e-41
4.09 2 1.73 9.1477e-41
4.16 2 1.73 9.1477e-41
4.2 2 1.73 9.1477e-41
4.23 2 1.71 9.1477e-41
4.27 2 1.71 9.1477e-41
4.3 2 1.69 9.1477e-41
4.34 2 1.7 9.1477e-41
4.37 2 1.68 9.1477e-41
4.41 2 1.68 9.1477e-41
4.45 2 1.65 9.1477e-41
4.49 2 1.59 9.1477e-41
4.58 2 1.04 9.1477e-41
3.08 2.25 1.74 9.1477e-41
3.12 2.25 1.76 9.1477e-41
3.15 2.25 1.76 9.1477e-41
3.19 2.25 1.77 9.1477e-41
3.23 2.25 1.77 9.1477e-41
3.27 2.25 1.78 9.1477e-41
3.3 2.25 1.77 9.1477e-41
3.34 2.25 1.78 9.1477e-41
3.37 2.25 1.78 9.1477e-41
3.41 2.25 1.78 9.1477e-41
3.44 2.25 1.78 9.1477e-41
3.48 2.25 1.78 9.1477e-41
3.51 2.25 1.78 9.1477e-41
3.55 2.25 1.77 9.1477e-41
3.58 2.25 1.78 9.1477e-41
3.62 2.25 1.78 9.1477e-41
3.65 2.25 1.78 9.1477e-41
3.69 2.25 1.79 9.1477e-41
3.72 2.25 1.78 9.1477e-41
3.75 2.25 1.78 9.1477e-41
3.79 2.25 1.78 9.1477e-41
3.82 2.25 1.77 9.1477e-41
3.86 2.25 1.77 9.1477e-41
3.89 2.25 1.77 9.1477e-41
3.92 2.25 1.78 9.1477e-41
3.96 2.25 1.77 9.1477e-41
3.99 2.25 1.77 9.1477e-41
4.03 2.25 1.77 9.1477e-41
4.06 2.25 1.77 9.1477e-41
4.09 2.25 1.76 9.1477e-41
4.16 2.25 1.76 9.1477e-41
4.2 2.25 1.76 9.1477e-41
4.23 2.25 1.75 9.1477e-41
4.27 2.25 1.74 9.1477e-41
4.3 2.25 1.74 9.1477e-41
4.34 2.25 1.73 9.1477e-41
4.37 2.25 1.72 9.1477e-41
4.41 2.25 1.72 9.1477e-41
4.45 2.25 1.67 9.1477e-41
4.49 2.25 1.62 9.1477e-41
4.54 2.25 1.42 9.1477e-41
3.08 2.5 1.76 9.1477e-41
3.12 2.5 1.77 9.1477e-41
3.16 2.5 1.79 9.1477e-41
3.2 2.5 1.79 9.1477e-41
3.23 2.5 1.79 9.1477e-41
3.27 2.5 1.79 9.1477e-41
3.31 2.5 1.79 9.1477e-41
3.34 2.5 1.8 9.1477e-41
3.38 2.5 1.81 9.1477e-41
3.41 2.5 1.8 9.1477e-41
3.45 2.5 1.8 9.1477e-41
3.48 2.5 1.8 9.1477e-41
3.52 2.5 1.81 9.1477e-41
3.55 2.5 1.81 9.1477e-41
3.59 2.5 1.81 9.1477e-41
3.62 2.5 1.8 9.1477e-41
3.65 2.5 1.81 9.1477e-41
3.69 2.5 1.8 9.1477e-41
3.72 2.5 1.79 9.1477e-41
3.76 2.5 1.8 9.1477e-41
3.79 2.5 1.8 9.1477e-41
3.82 2.5 1.8 9.1477e-41
3.86 2.5 1.79 9.1477e-41
3.89 2.5 1.81 9.1477e-41
3.93 2.5 1.79 9.1477e-41
3.96 2.5 1.79 9.1477e-41
3.99 2.5 1.8 9.1477e-41
4.03 2.5 1.79 9.1477e-41
4.06 2.5 1.78 9.1477e-41
4.09 2.5 1.79 9.1477e-41
4.16 2.5 1.78 9.1477e-41
4.2 2.5 1.78 9.1477e-41
4.23 2.5 1.76 9.1477e-41
4.27 2.5 1.77 9.1477e-41
4.3 2.5 1.76 9.1477e-41
4.34 2.5 1.75 9.1477e-41
4.37 2.5 1.74 9.1477e-41
4.4 2.5 1.75 9.1477e-41
4.44 2.5 1.69 9.1477e-41
4.48 2.5 1.66 9.1477e-41
4.57 2.5 1.13 9.1477e-41
3.09 2.75 1.78 9.1477e-41
3.13 2.75 1.79 9.1477e-41
3.16 2.75 1.79 9.1477e-41
3.2 2.75 1.81 9.1477e-41
3.24 2.75 1.81 9.1477e-41
3.27 2.75 1.81 9.1477e-41
3.31 2.75 1.81 9.1477e-41
3.35 2.75 1.82 9.1477e-41
3.38 2.75 1.82 9.1477e-41
3.41 2.75 1.81 9.1477e-41
3.45 2.75 1.82 9.1477e-41
3.48 2.75 1.81 9.1477e-41
3.52 2.75 1.82 9.1477e-41
3.55 2.75 1.81 9.1477e-41
3.59 2.75 1.82 9.1477e-41
3.62 2.75 1.82 9.1477e-41
3.66 2.75 1.82 9.1477e-41
3.69 2.75 1.82 9.1477e-41
3.72 2.75 1.81 9.1477e-41
3.76 2.75 1.82 9.1477e-41
3.79 2.75 1.81 9.1477e-41
3.83 2.75 1.82 9.1477e-41
3.86 2.75 1.81 9.1477e-41
3.89 2.75 1.81 9.1477e-41
3.93 2.75 1.81 9.1477e-41
3.96 2.75 1.8 9.1477e-41
3.99 2.75 1.8 9.1477e-41
4.03 2.75 1.81 9.1477e-41
4.06 2.75 1.81 9.1477e-41
4.09 2.75 1.81 9.1477e-41
4.16 2.75 1.79 9.1477e-41
4.2 2.75 1.8 9.1477e-41
4.23 2.75 1.79 9.1477e-41
4.27 2.75 1.78 9.1477e-41
4.3 2.75 1.78 9.1477e-41
4.33 2.75 1.76 9.1477e-41
4.37 2.75 1.75 9.1477e-41
4.4 2.75 1.76 9.1477e-41
4.44 2.75 1.71 9.1477e-41
4.48 2.75 1.67 9.1477e-41
4.57 2.75 1.12 9.1477e-41
3.09 3 1.77 9.1477e-41
3.13 3 1.81 9.1477e-41
3.16 3 1.8 9.1477e-41
3.2 3 1.81 9.1477e-41
3.24 3 1.81 9.1477e-41
3.27 3 1.81 9.1477e-41
3.31 3 1.82 9.1477e-41
3.35 3 1.83 9.1477e-41
3.38 3 1.83 9.1477e-41
3.41 3 1.81 9.1477e-41
3.45 3 1.83 9.1477e-41
3.49 3 1.83 9.1477e-41
3.52 3 1.83 9.1477e-41
3.56 3 1.83 9.1477e-41
3.59 3 1.83 9.1477e-41
3.62 3 1.82 9.1477e-41
3.66 3 1.83 9.1477e-41
3.69 3 1.83 9.1477e-41
3.72 3 1.82 9.1477e-41
3.76 3 1.83 9.1477e-41
3.79 3 1.83 9.1477e-41
3.83 3 1.82 9.1477e-41
3.86 3 1.82 9.1477e-41
3.89 3 1.83 9.1477e-41
3.93 3 1.83 9.1477e-41
3.96 3 1.81 9.1477e-41
3.99 3 1.82 9.1477e-41
4.03 3 1.82 9.1477e-41
4.06 3 1.82 9.1477e-41
4.09 3 1.81 9.1477e-41
4.16 3 1.8 9.1477e-41
4.2 3 1.81 9.1477e-41
4.23 3 1.8 9.1477e-41
4.26 3 1.79 9.1477e-41
4.3 3 1.77 9.1477e-41
4.33 3 1.77 9.1477e-41
4.37 3 1.77 9.1477e-41
4.4 3 1.77 9.1477e-41
4.44 3 1.72 9.1477e-41
4.48 3 1.67 9.1477e-41
4.56 3 1.21 9.1477e-41
3.04 3.25 1.73 9.1477e-41
3.09 3.25 1.78 9.1477e-41
3.13 3.25 1.81 9.1477e-41
3.17 3.25 1.8 9.1477e-41
3.2 3.25 1.81 9.1477e-41
3.24 3.25 1.82 9.1477e-41
3.27 3.25 1.81 9.1477e-41
3.31 3.25 1.81 9.1477e-41
3.35 3.25 1.83 9.1477e-41
3.38 3.25 1.82 9.1477e-41
3.42 3.25 1.82 9.1477e-41
3.45 3.25 1.83 9.1477e-41
3.48 3.25 1.82 9.1477e-41
3.52 3.25 1.83 9.1477e-41
3.55 3.25 1.82 9.1477e-41
3.59 3.25 1.83 9.1477e-41
3.62 3.25 1.83 9.1477e-41
3.66 3.25 1.83 9.1477e-41
3.69 3.25 1.83 9.1477e-41
3.72 3.25 1.82 9.1477e-41
3.76 3.25 1.83 9.1477e-41
3.79 3.25 1.83 9.1477e-41
3.83 3.25 1.83 9.1477e-41
3.86 3.25 1.82 9.1477e-41
3.89 3.25 1.82 9.1477e-41
3.93 3.25 1.82 9.1477e-41
3.96 3.25 1.81 9.1477e-41
3.99 3.25 1.82 9.1477e-41
4.03 3.25 1.81 9.1477e-41
4.06 3.25 1.8 9.1477e-41
4.09 3.25 1.82 9.1477e-41
4.16 3.25 1.81 9.1477e-41
4.2 3.25 1.81 9.1477e-41
4.23 3.25 1.8 9.1477e-41
4.26 3.25 1.8 9.1477e-41
4.3 3.25 1.78 9.1477e-41
4.33 3.25 1.77 9.1477e-41
4.37 3.25 1.78 9.1477e-41
4.4 3.25 1.76 9.1477e-41
4.44 3.25 1.7 9.1477e-41
4.48 3.25 1.67 9.1477e-41
4.57 3.25 1.15 9.1477e-41
3.08 3.5 1.75 9.1477e-41
3.13 3.5 1.79 9.1477e-41
3.16 3.5 1.8 9.1477e-41
3.2 3.5 1.81 9.1477e-41
3.24 3.5 1.82 9.1477e-41
3.27 3.5 1.81 9.1477e-41
3.31 3.5 1.82 9.1477e-41
3.35 3.5 1.83 9.1477e-41
3.38 3.5 1.82 9.1477e-41
3.42 3.5 1.82 9.1477e-41
3.45 3.5 1.82 9.1477e-41
3.49 3.5 1.83 9.1477e-41
3.52 3.5 1.82 9.1477e-41
3.55 3.5 1.82 9.1477e-41
3.59 3.5 1.83 9.1477e-41
3.62 3.5 1.82 9.1477e-41
3.66 3.5 1.83 9.1477e-41
3.69 3.5 1.83 9.1477e-41
3.73 3.5 1.83 9.1477e-41
3.76 3.5 1.83 9.1477e-41
3.79 3.5 1.83 9.1477e-41
3.83 3.5 1.82 9.1477e-41
3.86 3.5 1.82 9.1477e-41
3.89 3.5 1.82 9.1477e-41
3.93 3.5 1.82 9.1477e-41
3.96 3.5 1.82 9.1477e-41
3.99 3.5 1.82 9.1477e-41
4.03 3.5 1.81 9.1477e-41
4.06 3.5 1.81 9.1477e-41
4.09 3.5 1.81 9.1477e-41
4.16 3.5 1.8 9.1477e-41
4.2 3.5 1.8 9.1477e-41
4.23 3.5 1.79 9.1477e-41
4.27 3.5 1.78 9.1477e-41
4.3 3.5 1.79 9.1477e-41
4.33 3.5 1.77 9.1477e-41
4.37 3.5 1.78 9.1477e-41
4.4 3.5 1.76 9.1477e-41
4.44 3.5 1.7 9.1477e-41
4.48 3.5 1.63 9.1477e-41
3.08 3.75 1.74 9.1477e-41
3.13 3.75 1.79 9.1477e-41
3.16 3.75 1.8 9.1477e-41
3.2 3.75 1.79 9.1477e-41
3.24 3.75 1.81 9.1477e-41
3.27 3.75 1.8 9.1477e-41
3.31 3.75 1.8 9.1477e-41
3.35 3.75 1.82 9.1477e-41
3.38 3.75 1.8 9.1477e-41
3.42 3.75 1.82 9.1477e-41
3.45 3.75 1.81 9.1477e-41
3.48 3.75 1.81 9.1477e-41
3.52 3.75 1.82 9.1477e-41
3.55 3.75 1.82 9.1477e-41
3.59 3.75 1.83 9.1477e-41
3.62 3.75 1.81 9.1477e-41
3.65 3.75 1.81 9.1477e-41
3.69 3.75 1.82 9.1477e-41
3.72 3.75 1.82 9.1477e-41
3.76 3.75 1.81 9.1477e-41
3.79 3.75 1.81 9.1477e-41
3.82 3.75 1.8 9.1477e-41
3.86 3.75 1.81 9.1477e-41
3.89 3.75 1.82 9.1477e-41
3.93 3.75 1.82 9.1477e-41
3.96 3.75 1.81 9.1477e-41
3.99 3.75 1.8 9.1477e-41
4.03 3.75 1.8 9.1477e-41
4.06 3.75 1.81 9.1477e-41
4.09 3.75 1.81 9.1477e-41
4.16 3.75 1.79 9.1477e-41
4.2 3.75 1.79 9.1477e-41
4.23 3.75 1.78 9.1477e-41
4.27 3.75 1.77 9.1477e-41
4.3 3.75 1.77 9.1477e-41
4.33 3.75 1.76 9.1477e-41
4.37 3.75 1.76 9.1477e-41
4.4 3.75 1.74 9.1477e-41
4.44 3.75 1.68 9.1477e-41
4.49 3.75 1.6 9.1477e-41
2.92 4 0.59 9.1477e-41
2.98 4 0.59 3.57e-43
3.27 4 1.8 9.1477e-41
3.16 4 1.09 9.1477e-41
3.21 4 1.12 9.1477e-41
3.26 4 1.15 9.1477e-41
3.3 4 1.15 9.1477e-41
3.34 4 1.15 9.1477e-41
3.38 4 1.17 9.1477e-41
3.42 4 1.15 9.1477e-41
3.46 4 1.17 9.1477e-41
3.5 4 1.16 9.1477e-41
3.54 4 1.18 9.1477e-41
3.59 4 1.2 9.1477e-41
3.63 4 1.22 9.1477e-41
3.67 4 1.23 9.1477e-41
3.72 4 1.33 9.1477e-41
3.75 4 1.26 9.1477e-41
3.79 4 1.29 9.1477e-41
3.83 4 1.29 9.1477e-41
3.87 4 1.29 9.1477e-41
3.9 4 1.29 9.1477e-41
3.94 4 1.29 9.1477e-41
3.98 4 1.26 9.1477e-41
4.02 4 1.26 9.1477e-41
4.06 4 1.24 9.1477e-41
4.09 4 1.21 9.1477e-41
4.17 4 1.16 9.1477e-41
4.21 4 1.11 9.1477e-41
4.25 4 1.13 9.1477e-41
4.29 4 1.15 9.1477e-41
4.33 4 1.17 9.1477e-41
4.37 4 1.2 9.1477e-41
4.41 4 1.2 9.1477e-41
4.45 4 1.16 9.1477e-41
4.49 4 1.11 9.1477e-41
