# .PCD v.7 - Point Cloud Data file format
VERSION .7
FIELDS x y z rgb
SIZE 4 4 4 4
TYPE F F F F
WIDTH 1890
HEIGHT 1
POINTS 1890
DATA ascii
1.37 0.49 1.06 9.1477e-41
1.43 0.49 1.05 9.1477e-41
1.48 0.49 1.04 9.1477e-41
1.53 0.49 1.04 9.1477e-41
1.58 0.49 1.03 9.1477e-41
1.63 0.49 1.03 9.1477e-41
1.68 0.49 1.03 9.1477e-41
1.73 0.49 1.02 9.1477e-41
1.77 0.49 1.01 9.1477e-41
1.82 0.49 1.01 9.1477e-41
1.86 0.49 1 9.1477e-41
1.91 0.49 1 9.1477e-41
1.96 0.49 0.98 9.1477e-41
1.98 0.49 0.92 9.1477e-41
2 0.49 0.85 9.1477e-41
2.05 0.49 0.85 9.1477e-41
2.07 0.49 0.79 9.1477e-41
2.09 0.49 0.72 9.1477e-41
2.1 0.49 0.62 9.1477e-41
2.1 0.49 0.47 9.1477e-41
0.55 0.56 1.06 9.1477e-41
0.61 0.56 1.05 9.1477e-41
0.69 0.56 1.07 9.1477e-41
0.74 0.56 1.06 9.1477e-41
0.81 0.56 1.07 9.1477e-41
0.87 0.56 1.07 9.1477e-41
0.93 0.56 1.07 9.1477e-41
0.99 0.56 1.07 9.1477e-41
1.05 0.56 1.08 9.1477e-41
1.1 0.56 1.07 9.1477e-41
1.17 0.56 1.09 9.1477e-41
1.22 0.56 1.07 9.1477e-41
1.28 0.56 1.08 9.1477e-41
1.33 0.56 1.07 9.1477e-41
1.38 0.56 1.07 9.1477e-41
1.44 0.56 1.07 9.1477e-41
1.49 0.56 1.07 9.1477e-41
1.54 0.56 1.07 9.1477e-41
1.59 0.56 1.06 9.1477e-41
1.64 0.56 1.06 9.1477e-41
1.69 0.56 1.05 9.1477e-41
1.73 0.56 1.04 9.1477e-41
1.78 0.56 1.04 9.1477e-41
1.83 0.56 1.04 9.1477e-41
1.88 0.56 1.04 9.1477e-41
1.92 0.56 1.02 9.1477e-41
1.97 0.56 1.02 9.1477e-41
1.99 0.56 0.94 9.1477e-41
2.03 0.56 0.92 9.1477e-41
2.06 0.56 0.88 9.1477e-41
2.09 0.56 0.83 9.1477e-41
2.11 0.56 0.76 9.1477e-41
2.12 0.56 0.67 9.1477e-41
2.08 0.56 0.42 9.1477e-41
0.55 0.63 1.06 9.1477e-41
0.64 0.63 1.09 9.1477e-41
0.7 0.63 1.08 9.1477e-41
0.77 0.63 1.1 9.1477e-41
0.83 0.63 1.09 9.1477e-41
0.89 0.63 1.1 9.1477e-41
0.95 0.63 1.09 9.1477e-41
1.01 0.63 1.1 9.1477e-41
1.07 0.63 1.11 9.1477e-41
1.12 0.63 1.1 9.1477e-41
1.18 0.63 1.1 9.1477e-41
1.24 0.63 1.1 9.1477e-41
1.29 0.63 1.1 9.1477e-41
1.34 0.63 1.09 9.1477e-41
1.4 0.63 1.1 9.1477e-41
1.45 0.63 1.09 9.1477e-41
1.5 0.63 1.09 9.1477e-41
1.55 0.63 1.08 9.1477e-41
1.6 0.63 1.08 9.1477e-41
1.65 0.63 1.07 9.1477e-41
1.7 0.63 1.07 9.1477e-41
1.75 0.63 1.07 9.1477e-41
1.79 0.63 1.06 9.1477e-41
1.85 0.63 1.06 9.1477e-41
1.89 0.63 1.04 9.1477e-41
1.94 0.63 1.04 9.1477e-41
1.98 0.63 1.04 9.1477e-41
2.02 0.63 1.02 9.1477e-41
2.05 0.63 0.97 9.1477e-41
2.07 0.63 0.92 9.1477e-41
2.1 0.63 0.86 9.1477e-41
2.12 0.63 0.79 9.1477e-41
2.13 0.63 0.7 9.1477e-41
2.1 0.63 0.48 9.1477e-41
0.58 0.7 1.1 9.1477e-41
0.65 0.7 1.11 9.1477e-41
0.71 0.7 1.1 9.1477e-41
0.78 0.7 1.11 9.1477e-41
0.84 0.7 1.11 9.1477e-41
0.91 0.7 1.12 9.1477e-41
0.96 0.7 1.12 9.1477e-41
1.03 0.7 1.12 9.1477e-41
1.08 0.7 1.12 9.1477e-41
1.14 0.7 1.12 9.1477e-41
1.19 0.7 1.12 9.1477e-41
1.25 0.7 1.12 9.1477e-41
1.3 0.7 1.11 9.1477e-41
1.36 0.7 1.12 9.1477e-41
1.41 0.7 1.12 9.1477e-41
1.46 0.7 1.1 9.1477e-41
1.51 0.7 1.11 9.1477e-41
1.56 0.7 1.1 9.1477e-41
1.61 0.7 1.11 9.1477e-41
1.66 0.7 1.1 9.1477e-41
1.71 0.7 1.1 9.1477e-41
1.76 0.7 1.09 9.1477e-41
1.81 0.7 1.08 9.1477e-41
1.85 0.7 1.08 9.1477e-41
1.9 0.7 1.08 9.1477e-41
1.95 0.7 1.07 9.1477e-41
1.99 0.7 1.05 9.1477e-41
2.03 0.7 1.04 9.1477e-41
2.06 0.7 0.99 9.1477e-41
2.09 0.7 0.94 9.1477e-41
2.11 0.7 0.88 9.1477e-41
2.13 0.7 0.82 9.1477e-41
2.14 0.7 0.72 9.1477e-41
2.12 0.7 0.53 9.1477e-41
0.54 0.77 1.12 9.1477e-41
0.6 0.77 1.12 9.1477e-41
0.67 0.77 1.13 9.1477e-41
0.73 0.77 1.13 9.1477e-41
0.79 0.77 1.13 9.1477e-41
0.85 0.77 1.13 9.1477e-41
0.92 0.77 1.14 9.1477e-41
0.97 0.77 1.13 9.1477e-41
1.04 0.77 1.14 9.1477e-41
1.09 0.77 1.14 9.1477e-41
1.15 0.77 1.14 9.1477e-41
1.2 0.77 1.14 9.1477e-41
1.26 0.77 1.14 9.1477e-41
1.31 0.77 1.13 9.1477e-41
1.37 0.77 1.13 9.1477e-41
1.42 0.77 1.13 9.1477e-41
1.47 0.77 1.13 9.1477e-41
1.51 0.77 1.11 9.1477e-41
1.57 0.77 1.13 9.1477e-41
1.62 0.77 1.11 9.1477e-41
1.67 0.77 1.11 9.1477e-41
1.72 0.77 1.11 9.1477e-41
1.77 0.77 1.1 9.1477e-41
1.81 0.77 1.1 9.1477e-41
1.86 0.77 1.1 9.1477e-41
1.91 0.77 1.1 9.1477e-41
1.95 0.77 1.08 9.1477e-41
2 0.77 1.08 9.1477e-41
2.04 0.77 1.05 9.1477e-41
2.07 0.77 1.02 9.1477e-41
2.09 0.77 0.95 9.1477e-41
2.12 0.77 0.91 9.1477e-41
2.14 0.77 0.83 9.1477e-41
2.15 0.77 0.73 9.1477e-41
2.11 0.77 0.51 9.1477e-41
0.55 0.84 1.14 9.1477e-41
0.61 0.84 1.13 9.1477e-41
0.67 0.84 1.13 9.1477e-41
0.73 0.84 1.13 9.1477e-41
0.79 0.84 1.12 9.1477e-41
0.81 0.84 1.07 9.1477e-41
0.87 0.84 1.06 9.1477e-41
0.92 0.84 1.06 9.1477e-41
1 0.84 1.08 9.1477e-41
1.04 0.84 1.06 9.1477e-41
1.1 0.84 1.07 9.1477e-41
1.16 0.84 1.07 9.1477e-41
1.22 0.84 1.08 9.1477e-41
1.27 0.84 1.08 3.57e-43
1.37 0.84 1.08 3.57e-43
1.42 0.84 1.13 9.1477e-41
1.46 0.84 1.1 9.1477e-41
1.5 0.84 1.1 9.1477e-41
1.57 0.84 1.12 9.1477e-41
1.62 0.84 1.12 9.1477e-41
1.68 0.84 1.13 9.1477e-41
1.72 0.84 1.12 9.1477e-41
1.78 0.84 1.12 9.1477e-41
1.82 0.84 1.12 9.1477e-41
1.87 0.84 1.12 9.1477e-41
1.92 0.84 1.11 9.1477e-41
1.97 0.84 1.11 9.1477e-41
2.01 0.84 1.1 9.1477e-41
2.04 0.84 1.06 9.1477e-41
2.07 0.84 1.02 9.1477e-41
2.1 0.84 0.97 9.1477e-41
2.12 0.84 0.91 9.1477e-41
2.14 0.84 0.84 9.1477e-41
2.15 0.84 0.73 9.1477e-41
2.11 0.84 0.51 9.1477e-41
0.55 0.91 1.14 9.1477e-41
0.59 0.91 1.11 9.1477e-41
0.62 0.91 1.07 9.1477e-41
0.69 0.91 1.07 3.57e-43
0.79 0.91 1.07 3.57e-43
0.81 0.91 1.07 3.57e-43
0.87 0.91 1.07 3.57e-43
0.92 0.91 1.07 3.57e-43
1 0.91 1.07 3.57e-43
1.04 0.91 1.07 3.57e-43
1.1 0.91 1.07 3.57e-43
1.16 0.91 1.07 3.57e-43
1.22 0.91 1.07 3.57e-43
1.27 0.91 1.06 9.1477e-41
1.37 0.91 1.06 3.57e-43
1.42 0.91 1.13 9.1477e-41
1.47 0.91 1.12 9.1477e-41
1.51 0.91 1.11 9.1477e-41
1.56 0.91 1.1 9.1477e-41
1.61 0.91 1.1 9.1477e-41
1.65 0.91 1.07 9.1477e-41
1.7 0.91 1.07 9.1477e-41
1.75 0.91 1.07 9.1477e-41
1.81 0.91 1.09 9.1477e-41
1.88 0.91 1.13 9.1477e-41
1.93 0.91 1.13 9.1477e-41
1.97 0.91 1.12 9.1477e-41
2.02 0.91 1.12 9.1477e-41
2.05 0.91 1.09 9.1477e-41
2.08 0.91 1.03 9.1477e-41
2.1 0.91 0.98 9.1477e-41
2.12 0.91 0.92 9.1477e-41
2.14 0.91 0.84 9.1477e-41
2.15 0.91 0.73 9.1477e-41
2.12 0.91 0.52 9.1477e-41
0.52 0.98 1.18 9.1477e-41
0.55 0.98 1.18 3.57e-43
0.59 0.98 1.18 3.57e-43
0.62 0.98 1.07 9.1477e-41
0.75 0.98 1.16 9.1477e-41
0.82 0.98 1.16 3.57e-43
0.81 0.98 1.16 3.57e-43
0.87 0.98 1.16 3.57e-43
0.92 0.98 1.16 3.57e-43
1 0.98 1.16 3.57e-43
1.04 0.98 1.16 3.57e-43
1.1 0.98 1.16 3.57e-43
1.16 0.98 1.16 3.57e-43
1.22 0.98 1.16 3.57e-43
1.27 0.98 1.16 3.57e-43
1.37 0.98 1.16 3.57e-43
1.42 0.98 1.16 3.57e-43
1.47 0.98 1.16 3.57e-43
1.51 0.98 1.16 3.57e-43
1.56 0.98 1.16 3.57e-43
1.61 0.98 1.16 3.57e-43
1.65 0.98 1.16 3.57e-43
1.7 0.98 1.16 3.57e-43
1.75 0.98 1.16 3.57e-43
1.81 0.98 1.09 9.1477e-41
1.85 0.98 1.07 9.1477e-41
1.9 0.98 1.07 9.1477e-41
1.98 0.98 1.14 9.1477e-41
2.02 0.98 1.13 9.1477e-41
2.06 0.98 1.1 9.1477e-41
2.09 0.98 1.05 9.1477e-41
2.11 0.98 0.99 9.1477e-41
2.13 0.98 0.93 9.1477e-41
2.14 0.98 0.84 9.1477e-41
2.15 0.98 0.74 9.1477e-41
2.11 0.98 0.5 9.1477e-41
0.52 1.05 1.18 9.1477e-41
0.57 1.05 1.18 3.57e-43
0.59 1.05 1.18 3.57e-43
0.62 1.05 1.18 3.57e-43
0.75 1.05 1.18 3.57e-43
0.82 1.05 1.18 3.57e-43
0.81 1.05 1.18 3.57e-43
0.87 1.05 1.18 3.57e-43
0.92 1.05 1.18 3.57e-43
1 1.05 1.18 3.57e-43
1.04 1.05 1.18 3.57e-43
1.1 1.05 1.18 3.57e-43
1.16 1.05 1.18 3.57e-43
1.22 1.05 1.18 3.57e-43
1.27 1.05 1.18 3.57e-43
1.37 1.05 1.18 3.57e-43
1.42 1.05 1.18 3.57e-43
1.47 1.05 1.18 3.57e-43
1.51 1.05 1.18 3.57e-43
1.56 1.05 1.18 3.57e-43
1.61 1.05 1.18 3.57e-43
1.65 1.05 1.18 3.57e-43
1.7 1.05 1.18 3.57e-43
1.75 1.05 1.18 3.57e-43
1.81 1.05 1.18 3.57e-43
1.85 1.05 1.07 9.1477e-41
1.93 1.05 1.13 9.1477e-41
1.98 1.05 1.13 9.1477e-41
2.03 1.05 1.15 9.1477e-41
2.07 1.05 1.13 9.1477e-41
2.09 1.05 1.06 9.1477e-41
2.1 1.05 0.98 9.1477e-41
2.12 1.05 0.91 9.1477e-41
2.14 1.05 0.84 9.1477e-41
2.15 1.05 0.74 9.1477e-41
2.11 1.05 0.51 9.1477e-41
0.52 1.12 1.26 9.1477e-41
0.55 1.12 1.26 3.57e-43
0.57 1.12 1.26 3.57e-43
0.59 1.12 1.26 3.57e-43
0.62 1.12 1.26 3.57e-43
0.75 1.12 1.26 3.57e-43
0.82 1.12 1.26 3.57e-43
0.81 1.12 1.26 3.57e-43
0.87 1.12 1.26 3.57e-43
0.92 1.12 1.26 3.57e-43
1 1.12 1.26 3.57e-43
1.04 1.12 1.26 3.57e-43
1.1 1.12 1.26 3.57e-43
1.16 1.12 1.26 3.57e-43
1.22 1.12 1.26 3.57e-43
1.27 1.12 1.06 9.1477e-41
1.45 1.12 1.06 3.57e-43
1.42 1.12 1.06 3.57e-43
1.47 1.12 1.06 3.57e-43
1.51 1.12 1.06 3.57e-43
1.56 1.12 1.06 3.57e-43
1.61 1.12 1.06 3.57e-43
1.65 1.12 1.06 3.57e-43
1.7 1.12 1.06 3.57e-43
1.75 1.12 1.06 3.57e-43
1.81 1.12 1.09 9.1477e-41
1.91 1.12 1.2 9.1477e-41
1.95 1.12 1.18 9.1477e-41
2.01 1.12 1.2 9.1477e-41
2.04 1.12 1.17 9.1477e-41
2.07 1.12 1.12 9.1477e-41
2.08 1.12 1.03 9.1477e-41
2.1 1.12 0.98 9.1477e-41
2.12 1.12 0.9 9.1477e-41
2.14 1.12 0.83 9.1477e-41
2.15 1.12 0.73 9.1477e-41
2.13 1.12 0.57 9.1477e-41
1.92 1.19 1.32 3.57e-43
1.93 1.19 1.24 9.1477e-41
1.99 1.19 1.25 9.1477e-41
2.02 1.19 1.23 9.1477e-41
2.05 1.19 1.2 9.1477e-41
2.08 1.19 1.15 9.1477e-41
2.07 1.19 1.03 9.1477e-41
2.1 1.19 0.97 9.1477e-41
2.12 1.19 0.91 9.1477e-41
2.13 1.19 0.82 9.1477e-41
2.15 1.19 0.73 9.1477e-41
2.14 1.19 0.58 9.1477e-41
0.54 1.26 1.36 9.1477e-41
0.59 1.26 1.35 9.1477e-41
0.66 1.26 1.35 3.57e-43
0.57 1.26 1.35 3.57e-43
0.59 1.26 1.35 3.57e-43
0.62 1.26 1.35 3.57e-43
0.75 1.26 1.35 3.57e-43
0.82 1.26 1.35 3.57e-43
0.81 1.26 1.35 3.57e-43
0.87 1.26 1.35 3.57e-43
0.92 1.26 1.35 3.57e-43
1 1.26 1.35 3.57e-43
1.04 1.26 1.35 3.57e-43
1.1 1.26 1.35 3.57e-43
1.16 1.26 1.35 3.57e-43
1.22 1.26 1.35 3.57e-43
1.27 1.26 1.35 3.57e-43
1.45 1.26 1.35 3.57e-43
1.42 1.26 1.35 3.57e-43
1.47 1.26 1.35 3.57e-43
1.51 1.26 1.35 3.57e-43
1.56 1.26 1.35 3.57e-43
1.61 1.26 1.35 3.57e-43
1.65 1.26 1.35 3.57e-43
1.7 1.26 1.35 3.57e-43
1.75 1.26 1.07 9.1477e-41
1.92 1.26 1.32 9.1477e-41
1.96 1.26 1.31 9.1477e-41
2.01 1.26 1.31 9.1477e-41
2.03 1.26 1.25 9.1477e-41
2.07 1.26 1.25 3.57e-43
2.08 1.26 1.15 9.1477e-41
2.08 1.26 1.03 9.1477e-41
2.1 1.26 0.98 9.1477e-41
2.12 1.26 0.92 9.1477e-41
2.13 1.26 0.81 9.1477e-41
2.13 1.26 0.7 9.1477e-41
2.14 1.26 0.59 9.1477e-41
2.12 1.26 0.4 9.1477e-41
1.84 1.33 1.25 3.57e-43
1.94 1.33 1.36 9.1477e-41
2 1.33 1.37 9.1477e-41
2.02 1.33 1.33 9.1477e-41
2.05 1.33 1.33 3.57e-43
2.07 1.33 1.23 9.1477e-41
2.05 1.33 1.07 9.1477e-41
2.08 1.33 1.04 9.1477e-41
2.11 1.33 0.99 9.1477e-41
2.13 1.33 0.93 9.1477e-41
2.13 1.33 0.82 9.1477e-41
2.13 1.33 0.7 9.1477e-41
2.14 1.33 0.59 9.1477e-41
2.12 1.33 0.4 9.1477e-41
0.36 1.4 1.3 9.1477e-41
0.57 1.4 1.47 9.1477e-41
0.61 1.4 1.47 3.57e-43
0.59 1.4 1.47 3.57e-43
0.66 1.4 1.47 3.57e-43
0.57 1.4 1.16 9.1477e-41
0.66 1.4 1.19 9.1477e-41
0.69 1.4 1.19 3.57e-43
0.75 1.4 1.19 3.57e-43
0.82 1.4 1.16 9.1477e-41
0.89 1.4 1.16 3.57e-43
0.87 1.4 1.06 9.1477e-41
1.01 1.4 1.06 3.57e-43
1 1.4 1.06 3.57e-43
1.04 1.4 1.06 3.57e-43
1.1 1.4 1.06 3.57e-43
1.16 1.4 1.06 3.57e-43
1.22 1.4 1.06 3.57e-43
1.27 1.4 1.06 3.57e-43
1.45 1.4 1.27 9.1477e-41
1.46 1.4 1.2 9.1477e-41
1.53 1.4 1.22 9.1477e-41
1.58 1.4 1.24 9.1477e-41
1.64 1.4 1.24 9.1477e-41
1.68 1.4 1.23 9.1477e-41
1.72 1.4 1.22 9.1477e-41
1.76 1.4 1.2 9.1477e-41
1.84 1.4 1.25 9.1477e-41
1.98 1.4 1.42 9.1477e-41
2 1.4 1.39 9.1477e-41
2.03 1.4 1.39 3.57e-43
2.05 1.4 1.39 3.57e-43
2.07 1.4 1.23 9.1477e-41
2.08 1.4 1.14 9.1477e-41
2.09 1.4 1.06 9.1477e-41
2.11 1.4 1.01 9.1477e-41
2.13 1.4 0.93 9.1477e-41
2.13 1.4 0.82 9.1477e-41
2.13 1.4 0.7 9.1477e-41
2.15 1.4 0.61 9.1477e-41
0.56 1.47 1.53 9.1477e-41
0.59 1.47 1.53 3.57e-43
0.61 1.47 1.53 3.57e-43
0.59 1.47 1.35 9.1477e-41
0.8 1.47 1.35 3.57e-43
0.57 1.47 1.16 9.1477e-41
0.56 1.47 1.16 3.57e-43
0.69 1.47 1.16 3.57e-43
0.75 1.47 1.16 3.57e-43
0.82 1.47 1.16 3.57e-43
0.89 1.47 1.16 3.57e-43
0.87 1.47 1.16 3.57e-43
1.01 1.47 1.16 3.57e-43
1 1.47 1.16 3.57e-43
1.04 1.47 1.16 3.57e-43
1.1 1.47 1.16 3.57e-43
1.16 1.47 1.16 3.57e-43
1.22 1.47 1.16 3.57e-43
1.27 1.47 1.16 3.57e-43
1.45 1.47 1.16 3.57e-43
1.46 1.47 1.16 3.57e-43
1.53 1.47 1.16 3.57e-43
1.58 1.47 1.16 3.57e-43
1.64 1.47 1.16 3.57e-43
1.68 1.47 1.16 3.57e-43
1.72 1.47 1.16 3.57e-43
1.76 1.47 1.2 9.1477e-41
1.96 1.47 1.48 9.1477e-41
1.99 1.47 1.46 9.1477e-41
2.02 1.47 1.42 9.1477e-41
2.05 1.47 1.42 3.57e-43
2.05 1.47 1.29 9.1477e-41
2.04 1.47 1.16 9.1477e-41
2.08 1.47 1.15 9.1477e-41
2.15 1.47 1.19 9.1477e-41
2.22 1.47 1.25 9.1477e-41
2.26 1.47 1.25 3.57e-43
2.13 1.47 0.82 9.1477e-41
2.13 1.47 0.69 9.1477e-41
2.15 1.47 0.6 9.1477e-41
2.13 1.47 0.41 9.1477e-41
0.58 1.54 1.56 9.1477e-41
0.62 1.54 1.56 3.57e-43
0.61 1.54 1.56 3.57e-43
0.59 1.54 1.56 3.57e-43
0.8 1.54 1.56 3.57e-43
0.57 1.54 1.16 9.1477e-41
0.56 1.54 1.07 9.1477e-41
1.01 1.54 1.07 3.57e-43
0.75 1.54 1.07 3.57e-43
0.82 1.54 1.07 3.57e-43
0.89 1.54 1.07 3.57e-43
0.87 1.54 1.07 3.57e-43
1.01 1.54 1.07 3.57e-43
1 1.54 1.07 3.57e-43
1.04 1.54 1.07 3.57e-43
1.1 1.54 1.07 3.57e-43
1.16 1.54 1.07 3.57e-43
1.22 1.54 1.07 3.57e-43
1.27 1.54 1.07 3.57e-43
1.45 1.54 1.07 3.57e-43
1.46 1.54 1.07 3.57e-43
1.53 1.54 1.07 3.57e-43
1.58 1.54 1.07 3.57e-43
1.64 1.54 1.07 3.57e-43
1.68 1.54 1.07 3.57e-43
1.72 1.54 1.22 9.1477e-41
1.94 1.54 1.54 9.1477e-41
1.97 1.54 1.51 9.1477e-41
2 1.54 1.48 9.1477e-41
2.03 1.54 1.48 3.57e-43
2.05 1.54 1.48 3.57e-43
2.05 1.54 1.48 3.57e-43
2.04 1.54 1.48 3.57e-43
2.08 1.54 1.15 9.1477e-41
2.09 1.54 1.06 9.1477e-41
2.12 1.54 1.02 9.1477e-41
2.15 1.54 0.98 9.1477e-41
2.18 1.54 0.95 9.1477e-41
2.14 1.54 0.71 9.1477e-41
2.15 1.54 0.6 9.1477e-41
2.13 1.54 0.42 9.1477e-41
0.61 1.61 1.59 9.1477e-41
0.69 1.61 1.62 9.1477e-41
0.76 1.61 1.63 9.1477e-41
0.82 1.61 1.63 9.1477e-41
0.88 1.61 1.64 9.1477e-41
0.94 1.61 1.63 9.1477e-41
1 1.61 1.64 9.1477e-41
1.05 1.61 1.63 9.1477e-41
1.11 1.61 1.64 9.1477e-41
1.16 1.61 1.64 9.1477e-41
1.21 1.61 1.64 9.1477e-41
1.27 1.61 1.64 9.1477e-41
1.31 1.61 1.63 9.1477e-41
1.36 1.61 1.62 9.1477e-41
1.41 1.61 1.62 9.1477e-41
1.46 1.61 1.62 9.1477e-41
1.51 1.61 1.62 3.57e-43
1.22 1.61 1.62 3.57e-43
1.27 1.61 1.06 9.1477e-41
1.6 1.61 1.53 9.1477e-41
1.65 1.61 1.52 9.1477e-41
1.74 1.61 1.59 9.1477e-41
1.78 1.61 1.58 9.1477e-41
1.82 1.61 1.57 9.1477e-41
1.86 1.61 1.57 3.57e-43
1.72 1.61 1.22 9.1477e-41
1.96 1.61 1.57 9.1477e-41
1.99 1.61 1.54 9.1477e-41
2.02 1.61 1.54 3.57e-43
2.03 1.61 1.45 9.1477e-41
1.83 1.61 1.45 3.57e-43
2.05 1.61 1.45 3.57e-43
2.04 1.61 1.45 3.57e-43
2.08 1.61 1.15 9.1477e-41
2.09 1.61 1.07 9.1477e-41
2.11 1.61 1.01 9.1477e-41
2.14 1.61 0.94 9.1477e-41
2.14 1.61 0.84 9.1477e-41
2.13 1.61 0.7 9.1477e-41
2.16 1.61 0.63 9.1477e-41
2.12 1.61 0.4 9.1477e-41
0.6 1.68 1.65 9.1477e-41
0.65 1.68 1.64 9.1477e-41
0.73 1.68 1.67 9.1477e-41
0.79 1.68 1.66 9.1477e-41
0.85 1.68 1.66 9.1477e-41
0.91 1.68 1.68 9.1477e-41
0.97 1.68 1.68 9.1477e-41
1.03 1.68 1.68 9.1477e-41
1.08 1.68 1.67 9.1477e-41
1.14 1.68 1.68 9.1477e-41
1.19 1.68 1.67 9.1477e-41
1.24 1.68 1.68 9.1477e-41
1.3 1.68 1.68 9.1477e-41
1.34 1.68 1.66 9.1477e-41
1.39 1.68 1.67 9.1477e-41
1.44 1.68 1.66 9.1477e-41
1.49 1.68 1.67 9.1477e-41
1.54 1.68 1.66 9.1477e-41
1.58 1.68 1.66 9.1477e-41
1.63 1.68 1.66 9.1477e-41
1.68 1.68 1.65 9.1477e-41
1.72 1.68 1.64 9.1477e-41
1.76 1.68 1.63 9.1477e-41
1.81 1.68 1.63 9.1477e-41
1.85 1.68 1.63 9.1477e-41
1.89 1.68 1.61 9.1477e-41
1.94 1.68 1.61 9.1477e-41
1.97 1.68 1.59 9.1477e-41
2 1.68 1.56 9.1477e-41
2.02 1.68 1.56 3.57e-43
2.03 1.68 1.45 9.1477e-41
1.82 1.68 1.45 3.57e-43
2.05 1.68 1.45 3.57e-43
2.04 1.68 1.16 9.1477e-41
2.07 1.68 1.12 9.1477e-41
2.09 1.68 1.07 9.1477e-41
2.12 1.68 1.02 9.1477e-41
2.14 1.68 0.94 9.1477e-41
2.14 1.68 0.83 9.1477e-41
2.14 1.68 0.72 9.1477e-41
2.15 1.68 0.61 9.1477e-41
0.62 1.75 1.68 9.1477e-41
0.69 1.75 1.69 9.1477e-41
0.75 1.75 1.69 9.1477e-41
0.83 1.75 1.71 9.1477e-41
0.88 1.75 1.7 9.1477e-41
0.95 1.75 1.72 9.1477e-41
1 1.75 1.71 9.1477e-41
1.06 1.75 1.72 9.1477e-41
1.11 1.75 1.71 9.1477e-41
1.16 1.75 1.7 9.1477e-41
1.21 1.75 1.7 9.1477e-41
1.26 1.75 1.7 9.1477e-41
1.32 1.75 1.71 9.1477e-41
1.36 1.75 1.7 9.1477e-41
1.41 1.75 1.7 9.1477e-41
1.46 1.75 1.69 9.1477e-41
1.51 1.75 1.7 9.1477e-41
1.56 1.75 1.69 9.1477e-41
1.6 1.75 1.68 9.1477e-41
1.65 1.75 1.68 9.1477e-41
1.69 1.75 1.68 9.1477e-41
1.74 1.75 1.68 9.1477e-41
1.79 1.75 1.67 9.1477e-41
1.83 1.75 1.67 9.1477e-41
1.86 1.75 1.64 9.1477e-41
1.91 1.75 1.65 9.1477e-41
1.95 1.75 1.65 9.1477e-41
1.98 1.75 1.61 9.1477e-41
2.01 1.75 1.61 3.57e-43
2.02 1.75 1.61 3.57e-43
2.03 1.75 1.45 9.1477e-41
1.83 1.75 1.45 3.57e-43
2.05 1.75 1.45 3.57e-43
2.04 1.75 1.16 9.1477e-41
2.07 1.75 1.12 9.1477e-41
2.1 1.75 1.09 9.1477e-41
2.13 1.75 1.04 9.1477e-41
2.14 1.75 0.95 9.1477e-41
2.14 1.75 0.84 9.1477e-41
2.14 1.75 0.72 9.1477e-41
2.15 1.75 0.61 9.1477e-41
2.13 1.75 0.42 9.1477e-41
0.64 1.82 1.7 9.1477e-41
0.71 1.82 1.71 9.1477e-41
0.78 1.82 1.72 9.1477e-41
0.84 1.82 1.73 9.1477e-41
0.9 1.82 1.73 9.1477e-41
0.96 1.82 1.73 9.1477e-41
1.01 1.82 1.73 9.1477e-41
1.08 1.82 1.74 9.1477e-41
1.12 1.82 1.73 9.1477e-41
1.17 1.82 1.73 9.1477e-41
1.22 1.82 1.72 9.1477e-41
1.28 1.82 1.73 9.1477e-41
1.33 1.82 1.73 9.1477e-41
1.39 1.82 1.74 9.1477e-41
1.43 1.82 1.72 9.1477e-41
1.48 1.82 1.72 9.1477e-41
1.53 1.82 1.72 9.1477e-41
1.58 1.82 1.72 9.1477e-41
1.63 1.82 1.72 9.1477e-41
1.67 1.82 1.71 9.1477e-41
1.72 1.82 1.71 9.1477e-41
1.76 1.82 1.7 9.1477e-41
1.8 1.82 1.7 9.1477e-41
1.84 1.82 1.69 9.1477e-41
1.88 1.82 1.68 9.1477e-41
1.92 1.82 1.68 9.1477e-41
1.96 1.82 1.67 9.1477e-41
1.99 1.82 1.63 9.1477e-41
2.01 1.82 1.63 3.57e-43
2.02 1.82 1.51 9.1477e-41
1.83 1.82 1.51 3.57e-43
1.83 1.82 1.51 3.57e-43
2.05 1.82 1.51 3.57e-43
2.04 1.82 1.16 9.1477e-41
2.07 1.82 1.12 9.1477e-41
2.1 1.82 1.08 9.1477e-41
2.12 1.82 1.03 9.1477e-41
2.14 1.82 0.95 9.1477e-41
2.14 1.82 0.84 9.1477e-41
2.14 1.82 0.71 9.1477e-41
2.15 1.82 0.61 9.1477e-41
2.12 1.82 0.4 9.1477e-41
0.66 1.89 1.72 9.1477e-41
0.74 1.89 1.74 9.1477e-41
0.8 1.89 1.75 9.1477e-41
0.86 1.89 1.75 9.1477e-41
0.91 1.89 1.74 9.1477e-41
0.98 1.89 1.75 9.1477e-41
1.04 1.89 1.76 9.1477e-41
1.09 1.89 1.76 9.1477e-41
1.14 1.89 1.75 9.1477e-41
1.2 1.89 1.76 9.1477e-41
1.25 1.89 1.76 9.1477e-41
1.3 1.89 1.75 9.1477e-41
1.34 1.89 1.74 9.1477e-41
1.4 1.89 1.75 9.1477e-41
1.44 1.89 1.75 9.1477e-41
1.5 1.89 1.76 9.1477e-41
1.55 1.89 1.75 9.1477e-41
1.59 1.89 1.74 9.1477e-41
1.64 1.89 1.75 9.1477e-41
1.68 1.89 1.73 9.1477e-41
1.72 1.89 1.72 9.1477e-41
1.77 1.89 1.72 9.1477e-41
1.81 1.89 1.72 9.1477e-41
1.85 1.89 1.71 9.1477e-41
1.89 1.89 1.7 9.1477e-41
1.93 1.89 1.69 9.1477e-41
1.97 1.89 1.68 9.1477e-41
1.99 1.89 1.64 9.1477e-41
2.02 1.89 1.64 3.57e-43
2.02 1.89 1.51 9.1477e-41
1.83 1.89 1.51 3.57e-43
1.83 1.89 1.51 3.57e-43
2.05 1.89 1.51 3.57e-43
2.04 1.89 1.16 9.1477e-41
2.07 1.89 1.13 9.1477e-41
2.1 1.89 1.09 9.1477e-41
2.13 1.89 1.04 9.1477e-41
2.14 1.89 0.95 9.1477e-41
2.14 1.89 0.84 9.1477e-41
2.14 1.89 0.71 9.1477e-41
2.14 1.89 0.59 9.1477e-41
2.12 1.89 0.4 9.1477e-41
0.62 1.96 1.75 9.1477e-41
0.67 1.96 1.74 9.1477e-41
0.75 1.96 1.76 9.1477e-41
0.81 1.96 1.76 9.1477e-41
0.88 1.96 1.77 9.1477e-41
0.93 1.96 1.77 9.1477e-41
0.99 1.96 1.78 9.1477e-41
1.04 1.96 1.77 9.1477e-41
1.11 1.96 1.78 9.1477e-41
1.15 1.96 1.77 9.1477e-41
1.2 1.96 1.77 9.1477e-41
1.26 1.96 1.78 9.1477e-41
1.31 1.96 1.77 9.1477e-41
1.36 1.96 1.78 9.1477e-41
1.4 1.96 1.76 9.1477e-41
1.46 1.96 1.76 9.1477e-41
1.5 1.96 1.76 9.1477e-41
1.55 1.96 1.75 9.1477e-41
1.6 1.96 1.75 9.1477e-41
1.65 1.96 1.76 9.1477e-41
1.69 1.96 1.75 9.1477e-41
1.73 1.96 1.74 9.1477e-41
1.78 1.96 1.75 9.1477e-41
1.82 1.96 1.73 9.1477e-41
1.86 1.96 1.72 9.1477e-41
1.9 1.96 1.71 9.1477e-41
1.94 1.96 1.71 9.1477e-41
1.97 1.96 1.68 9.1477e-41
1.99 1.96 1.64 9.1477e-41
1.99 1.96 1.64 3.57e-43
2.02 1.96 1.64 3.57e-43
1.83 1.96 1.64 3.57e-43
1.83 1.96 1.64 3.57e-43
2.05 1.96 1.64 3.57e-43
2.04 1.96 1.16 9.1477e-41
2.08 1.96 1.15 9.1477e-41
2.11 1.96 1.1 9.1477e-41
2.13 1.96 1.04 9.1477e-41
2.14 1.96 0.95 9.1477e-41
2.15 1.96 0.86 9.1477e-41
2.14 1.96 0.71 9.1477e-41
2.15 1.96 0.61 9.1477e-41
2.12 1.96 0.4 9.1477e-41
0.63 2.03 1.76 9.1477e-41
0.69 2.03 1.76 9.1477e-41
0.77 2.03 1.78 9.1477e-41
0.82 2.03 1.78 9.1477e-41
0.88 2.03 1.78 9.1477e-41
0.94 2.03 1.78 9.1477e-41
1 2.03 1.79 9.1477e-41
1.06 2.03 1.79 9.1477e-41
1.11 2.03 1.78 9.1477e-41
1.16 2.03 1.79 9.1477e-41
1.22 2.03 1.78 9.1477e-41
1.27 2.03 1.78 9.1477e-41
1.32 2.03 1.78 9.1477e-41
1.37 2.03 1.78 9.1477e-41
1.42 2.03 1.79 9.1477e-41
1.47 2.03 1.78 9.1477e-41
1.52 2.03 1.78 9.1477e-41
1.56 2.03 1.78 9.1477e-41
1.61 2.03 1.77 9.1477e-41
1.66 2.03 1.77 9.1477e-41
1.7 2.03 1.77 9.1477e-41
1.74 2.03 1.75 9.1477e-41
1.79 2.03 1.75 9.1477e-41
1.83 2.03 1.75 9.1477e-41
1.86 2.03 1.73 9.1477e-41
1.91 2.03 1.73 9.1477e-41
1.95 2.03 1.72 9.1477e-41
1.97 2.03 1.68 9.1477e-41
1.99 2.03 1.68 3.57e-43
1.99 2.03 1.68 3.57e-43
2.02 2.03 1.68 3.57e-43
1.83 2.03 1.68 3.57e-43
1.83 2.03 1.68 3.57e-43
2.05 2.03 1.68 3.57e-43
2.04 2.03 1.16 9.1477e-41
2.09 2.03 1.16 9.1477e-41
2.12 2.03 1.13 9.1477e-41
2.13 2.03 1.04 9.1477e-41
2.14 2.03 0.94 9.1477e-41
2.14 2.03 0.84 9.1477e-41
2.14 2.03 0.71 9.1477e-41
2.15 2.03 0.6 9.1477e-41
2.12 2.03 0.4 9.1477e-41
0.64 2.1 1.77 9.1477e-41
0.71 2.1 1.78 9.1477e-41
0.78 2.1 1.79 9.1477e-41
0.84 2.1 1.79 9.1477e-41
0.88 2.1 1.78 9.1477e-41
0.95 2.1 1.8 9.1477e-41
1.01 2.1 1.8 9.1477e-41
1.07 2.1 1.8 9.1477e-41
1.12 2.1 1.8 9.1477e-41
1.17 2.1 1.79 9.1477e-41
1.23 2.1 1.8 9.1477e-41
1.27 2.1 1.79 9.1477e-41
1.33 2.1 1.8 9.1477e-41
1.38 2.1 1.79 9.1477e-41
1.43 2.1 1.8 9.1477e-41
1.47 2.1 1.79 9.1477e-41
1.52 2.1 1.79 9.1477e-41
1.57 2.1 1.79 9.1477e-41
1.61 2.1 1.78 9.1477e-41
1.66 2.1 1.78 9.1477e-41
1.71 2.1 1.78 9.1477e-41
1.75 2.1 1.77 9.1477e-41
1.8 2.1 1.77 9.1477e-41
1.83 2.1 1.75 9.1477e-41
1.88 2.1 1.76 9.1477e-41
1.92 2.1 1.75 9.1477e-41
1.95 2.1 1.73 9.1477e-41
1.98 2.1 1.69 9.1477e-41
1.99 2.1 1.69 3.57e-43
1.99 2.1 1.69 3.57e-43
2.02 2.1 1.69 3.57e-43
1.83 2.1 1.69 3.57e-43
1.83 2.1 1.69 3.57e-43
2.05 2.1 1.29 9.1477e-41
2.07 2.1 1.23 9.1477e-41
2.1 2.1 1.19 9.1477e-41
2.13 2.1 1.14 9.1477e-41
2.13 2.1 1.04 9.1477e-41
2.14 2.1 0.96 9.1477e-41
2.14 2.1 0.84 9.1477e-41
2.15 2.1 0.73 9.1477e-41
2.14 2.1 0.59 9.1477e-41
2.13 2.1 0.42 9.1477e-41
0.64 2.17 1.77 9.1477e-41
0.72 2.17 1.79 9.1477e-41
0.78 2.17 1.79 9.1477e-41
0.84 2.17 1.8 9.1477e-41
0.9 2.17 1.8 9.1477e-41
0.97 2.17 1.81 9.1477e-41
1.01 2.17 1.8 9.1477e-41
1.07 2.17 1.81 9.1477e-41
1.12 2.17 1.8 9.1477e-41
1.18 2.17 1.8 9.1477e-41
1.23 2.17 1.81 9.1477e-41
1.29 2.17 1.82 9.1477e-41
1.34 2.17 1.81 9.1477e-41
1.38 2.17 1.8 9.1477e-41
1.44 2.17 1.81 9.1477e-41
1.48 2.17 1.8 9.1477e-41
1.53 2.17 1.81 9.1477e-41
1.58 2.17 1.8 9.1477e-41
1.62 2.17 1.8 9.1477e-41
1.67 2.17 1.79 9.1477e-41
1.71 2.17 1.78 9.1477e-41
1.75 2.17 1.77 9.1477e-41
1.8 2.17 1.77 9.1477e-41
1.84 2.17 1.77 9.1477e-41
1.87 2.17 1.75 9.1477e-41
1.92 2.17 1.75 9.1477e-41
1.96 2.17 1.74 9.1477e-41
1.98 2.17 1.7 9.1477e-41
2 2.17 1.7 3.57e-43
1.99 2.17 1.55 9.1477e-41
2.02 2.17 1.52 9.1477e-41
2.04 2.17 1.46 9.1477e-41
2.06 2.17 1.41 9.1477e-41
2.08 2.17 1.35 9.1477e-41
2.09 2.17 1.28 9.1477e-41
2.11 2.17 1.22 9.1477e-41
2.13 2.17 1.14 9.1477e-41
2.13 2.17 1.05 9.1477e-41
2.14 2.17 0.96 9.1477e-41
2.15 2.17 0.85 9.1477e-41
2.15 2.17 0.73 9.1477e-41
2.14 2.17 0.59 9.1477e-41
2.13 2.17 0.42 9.1477e-41
0.64 2.24 1.77 9.1477e-41
0.73 2.24 1.8 9.1477e-41
0.79 2.24 1.8 9.1477e-41
0.85 2.24 1.81 9.1477e-41
0.91 2.24 1.82 9.1477e-41
0.97 2.24 1.81 9.1477e-41
1.03 2.24 1.82 9.1477e-41
1.08 2.24 1.81 9.1477e-41
1.14 2.24 1.82 9.1477e-41
1.19 2.24 1.82 9.1477e-41
1.24 2.24 1.82 9.1477e-41
1.29 2.24 1.82 9.1477e-41
1.34 2.24 1.82 9.1477e-41
1.39 2.24 1.81 9.1477e-41
1.44 2.24 1.81 9.1477e-41
1.48 2.24 1.8 9.1477e-41
1.53 2.24 1.81 9.1477e-41
1.58 2.24 1.8 9.1477e-41
1.63 2.24 1.8 9.1477e-41
1.67 2.24 1.8 9.1477e-41
1.71 2.24 1.79 9.1477e-41
1.76 2.24 1.78 9.1477e-41
1.81 2.24 1.79 9.1477e-41
1.85 2.24 1.78 9.1477e-41
1.88 2.24 1.76 9.1477e-41
1.93 2.24 1.77 9.1477e-41
1.95 2.24 1.73 9.1477e-41
1.98 2.24 1.7 9.1477e-41
2 2.24 1.66 9.1477e-41
2.02 2.24 1.6 9.1477e-41
2.04 2.24 1.55 9.1477e-41
2.05 2.24 1.48 9.1477e-41
2.07 2.24 1.43 9.1477e-41
2.08 2.24 1.36 9.1477e-41
2.09 2.24 1.28 9.1477e-41
2.11 2.24 1.21 9.1477e-41
2.13 2.24 1.14 9.1477e-41
2.13 2.24 1.05 9.1477e-41
2.14 2.24 0.95 9.1477e-41
2.15 2.24 0.85 9.1477e-41
2.15 2.24 0.73 9.1477e-41
2.14 2.24 0.59 9.1477e-41
2.14 2.24 0.45 9.1477e-41
0.66 2.31 1.79 9.1477e-41
0.73 2.31 1.8 9.1477e-41
0.8 2.31 1.81 9.1477e-41
0.86 2.31 1.82 9.1477e-41
0.92 2.31 1.82 9.1477e-41
0.97 2.31 1.82 9.1477e-41
1.03 2.31 1.82 9.1477e-41
1.08 2.31 1.82 9.1477e-41
1.14 2.31 1.82 9.1477e-41
1.19 2.31 1.83 9.1477e-41
1.25 2.31 1.82 9.1477e-41
1.3 2.31 1.82 9.1477e-41
1.35 2.31 1.82 9.1477e-41
1.4 2.31 1.82 9.1477e-41
1.44 2.31 1.82 9.1477e-41
1.49 2.31 1.81 9.1477e-41
1.54 2.31 1.81 9.1477e-41
1.58 2.31 1.81 9.1477e-41
1.63 2.31 1.81 9.1477e-41
1.68 2.31 1.81 9.1477e-41
1.72 2.31 1.8 9.1477e-41
1.77 2.31 1.8 9.1477e-41
1.81 2.31 1.8 9.1477e-41
1.85 2.31 1.79 9.1477e-41
1.89 2.31 1.78 9.1477e-41
1.93 2.31 1.77 9.1477e-41
1.96 2.31 1.74 9.1477e-41
1.98 2.31 1.7 9.1477e-41
2 2.31 1.66 9.1477e-41
2.02 2.31 1.59 9.1477e-41
2.03 2.31 1.54 9.1477e-41
2.05 2.31 1.49 9.1477e-41
2.07 2.31 1.42 9.1477e-41
2.08 2.31 1.36 9.1477e-41
2.1 2.31 1.29 9.1477e-41
2.11 2.31 1.22 9.1477e-41
2.12 2.31 1.14 9.1477e-41
2.13 2.31 1.05 9.1477e-41
2.14 2.31 0.95 9.1477e-41
2.15 2.31 0.85 9.1477e-41
2.15 2.31 0.73 9.1477e-41
2.14 2.31 0.58 9.1477e-41
2.14 2.31 0.45 9.1477e-41
0.66 2.38 1.8 9.1477e-41
0.74 2.38 1.82 9.1477e-41
0.8 2.38 1.82 9.1477e-41
0.86 2.38 1.82 9.1477e-41
0.91 2.38 1.82 9.1477e-41
0.97 2.38 1.82 9.1477e-41
1.03 2.38 1.82 9.1477e-41
1.1 2.38 1.84 9.1477e-41
1.15 2.38 1.84 9.1477e-41
1.19 2.38 1.83 9.1477e-41
1.25 2.38 1.83 9.1477e-41
1.3 2.38 1.83 9.1477e-41
1.35 2.38 1.83 9.1477e-41
1.4 2.38 1.82 9.1477e-41
1.46 2.38 1.83 9.1477e-41
1.5 2.38 1.83 9.1477e-41
1.54 2.38 1.81 9.1477e-41
1.6 2.38 1.83 9.1477e-41
1.63 2.38 1.81 9.1477e-41
1.68 2.38 1.82 9.1477e-41
1.72 2.38 1.8 9.1477e-41
1.77 2.38 1.8 9.1477e-41
1.81 2.38 1.8 9.1477e-41
1.85 2.38 1.78 9.1477e-41
1.89 2.38 1.78 9.1477e-41
1.93 2.38 1.77 9.1477e-41
1.96 2.38 1.74 9.1477e-41
1.98 2.38 1.7 9.1477e-41
2 2.38 1.7 3.57e-43
2.02 2.38 1.7 3.57e-43
2.03 2.38 1.7 3.57e-43
2.05 2.38 1.7 3.57e-43
2.07 2.38 1.7 3.57e-43
2.08 2.38 1.7 3.57e-43
2.1 2.38 1.29 9.1477e-41
2.1 2.38 1.19 9.1477e-41
2.13 2.38 1.14 9.1477e-41
2.13 2.38 1.05 9.1477e-41
2.14 2.38 0.96 9.1477e-41
2.15 2.38 0.86 9.1477e-41
2.15 2.38 0.73 9.1477e-41
2.14 2.38 0.59 9.1477e-41
2.14 2.38 0.45 9.1477e-41
0.67 2.45 1.8 9.1477e-41
0.74 2.45 1.82 9.1477e-41
0.81 2.45 1.83 9.1477e-41
0.87 2.45 1.83 9.1477e-41
0.93 2.45 1.83 9.1477e-41
0.99 2.45 1.84 9.1477e-41
1.04 2.45 1.83 9.1477e-41
1.1 2.45 1.84 9.1477e-41
1.15 2.45 1.84 9.1477e-41
1.2 2.45 1.83 9.1477e-41
1.25 2.45 1.83 9.1477e-41
1.3 2.45 1.83 9.1477e-41
1.36 2.45 1.84 9.1477e-41
1.4 2.45 1.83 9.1477e-41
1.46 2.45 1.83 9.1477e-41
1.5 2.45 1.83 9.1477e-41
1.55 2.45 1.82 9.1477e-41
1.6 2.45 1.83 9.1477e-41
1.63 2.45 1.81 9.1477e-41
1.69 2.45 1.82 9.1477e-41
1.72 2.45 1.8 9.1477e-41
1.77 2.45 1.81 9.1477e-41
1.82 2.45 1.81 9.1477e-41
1.85 2.45 1.79 9.1477e-41
1.9 2.45 1.8 9.1477e-41
1.93 2.45 1.77 9.1477e-41
1.96 2.45 1.75 9.1477e-41
1.98 2.45 1.7 9.1477e-41
2.01 2.45 1.7 3.57e-43
2.02 2.45 1.7 3.57e-43
2.03 2.45 1.7 3.57e-43
2.05 2.45 1.7 3.57e-43
2.07 2.45 1.7 3.57e-43
2.08 2.45 1.7 3.57e-43
2.1 2.45 1.7 3.57e-43
2.1 2.45 1.19 9.1477e-41
2.12 2.45 1.13 9.1477e-41
2.13 2.45 1.04 9.1477e-41
2.14 2.45 0.96 9.1477e-41
2.15 2.45 0.85 9.1477e-41
2.15 2.45 0.73 9.1477e-41
2.14 2.45 0.58 9.1477e-41
2.14 2.45 0.44 9.1477e-41
0.67 2.52 1.8 9.1477e-41
0.75 2.52 1.83 9.1477e-41
0.81 2.52 1.83 9.1477e-41
0.87 2.52 1.84 9.1477e-41
0.93 2.52 1.84 9.1477e-41
0.99 2.52 1.84 9.1477e-41
1.04 2.52 1.84 9.1477e-41
1.1 2.52 1.84 9.1477e-41
1.15 2.52 1.84 9.1477e-41
1.21 2.52 1.84 9.1477e-41
1.26 2.52 1.85 9.1477e-41
1.3 2.52 1.83 9.1477e-41
1.36 2.52 1.84 9.1477e-41
1.41 2.52 1.84 9.1477e-41
1.46 2.52 1.83 9.1477e-41
1.51 2.52 1.84 9.1477e-41
1.55 2.52 1.83 9.1477e-41
1.6 2.52 1.83 9.1477e-41
1.64 2.52 1.82 9.1477e-41
1.68 2.52 1.82 9.1477e-41
1.73 2.52 1.81 9.1477e-41
1.77 2.52 1.81 9.1477e-41
1.82 2.52 1.81 9.1477e-41
1.86 2.52 1.8 9.1477e-41
1.9 2.52 1.79 9.1477e-41
1.93 2.52 1.77 9.1477e-41
1.96 2.52 1.75 9.1477e-41
1.98 2.52 1.7 9.1477e-41
2.01 2.52 1.7 3.57e-43
2.02 2.52 1.7 3.57e-43
2.03 2.52 1.7 3.57e-43
2.05 2.52 1.7 3.57e-43
2.07 2.52 1.7 3.57e-43
2.08 2.52 1.7 3.57e-43
2.1 2.52 1.7 3.57e-43
2.1 2.52 1.19 9.1477e-41
2.12 2.52 1.13 9.1477e-41
2.14 2.52 1.06 9.1477e-41
2.14 2.52 0.96 9.1477e-41
2.15 2.52 0.86 9.1477e-41
2.15 2.52 0.73 9.1477e-41
2.14 2.52 0.58 9.1477e-41
2.14 2.52 0.44 9.1477e-41
0.68 2.59 1.81 9.1477e-41
0.75 2.59 1.83 9.1477e-41
0.82 2.59 1.83 9.1477e-41
0.87 2.59 1.84 9.1477e-41
0.93 2.59 1.84 9.1477e-41
1 2.59 1.85 9.1477e-41
1.04 2.59 1.84 9.1477e-41
1.1 2.59 1.85 9.1477e-41
1.16 2.59 1.85 9.1477e-41
1.21 2.59 1.85 9.1477e-41
1.26 2.59 1.84 9.1477e-41
1.31 2.59 1.84 9.1477e-41
1.37 2.59 1.85 9.1477e-41
1.4 2.59 1.83 9.1477e-41
1.46 2.59 1.84 9.1477e-41
1.51 2.59 1.84 9.1477e-41
1.55 2.59 1.83 9.1477e-41
1.6 2.59 1.83 9.1477e-41
1.64 2.59 1.83 9.1477e-41
1.68 2.59 1.82 9.1477e-41
1.73 2.59 1.82 9.1477e-41
1.78 2.59 1.83 9.1477e-41
1.82 2.59 1.81 9.1477e-41
1.86 2.59 1.8 9.1477e-41
1.9 2.59 1.8 9.1477e-41
1.94 2.59 1.78 9.1477e-41
1.96 2.59 1.75 9.1477e-41
1.99 2.59 1.71 9.1477e-41
2.01 2.59 1.71 3.57e-43
2.02 2.59 1.71 3.57e-43
2.03 2.59 1.71 3.57e-43
2.05 2.59 1.71 3.57e-43
2.07 2.59 1.71 3.57e-43
2.08 2.59 1.71 3.57e-43
2.1 2.59 1.71 3.57e-43
2.1 2.59 1.19 9.1477e-41
2.12 2.59 1.14 9.1477e-41
2.13 2.59 1.05 9.1477e-41
2.15 2.59 0.97 9.1477e-41
2.15 2.59 0.85 9.1477e-41
2.15 2.59 0.73 9.1477e-41
2.13 2.59 0.57 9.1477e-41
2.13 2.59 0.43 9.1477e-41
0.68 2.66 1.81 9.1477e-41
0.76 2.66 1.83 9.1477e-41
0.82 2.66 1.83 9.1477e-41
0.87 2.66 1.84 9.1477e-41
0.94 2.66 1.85 9.1477e-41
0.99 2.66 1.84 9.1477e-41
1.05 2.66 1.85 9.1477e-41
1.1 2.66 1.85 9.1477e-41
1.16 2.66 1.85 9.1477e-41
1.21 2.66 1.85 9.1477e-41
1.26 2.66 1.85 9.1477e-41
1.31 2.66 1.85 9.1477e-41
1.37 2.66 1.86 9.1477e-41
1.41 2.66 1.84 9.1477e-41
1.46 2.66 1.84 9.1477e-41
1.51 2.66 1.84 9.1477e-41
1.56 2.66 1.84 9.1477e-41
1.61 2.66 1.84 9.1477e-41
1.64 2.66 1.83 9.1477e-41
1.69 2.66 1.83 9.1477e-41
1.73 2.66 1.82 9.1477e-41
1.78 2.66 1.83 9.1477e-41
1.82 2.66 1.81 9.1477e-41
1.86 2.66 1.8 9.1477e-41
1.91 2.66 1.81 9.1477e-41
1.93 2.66 1.77 9.1477e-41
1.97 2.66 1.76 9.1477e-41
1.98 2.66 1.69 9.1477e-41
2 2.66 1.69 3.57e-43
2.02 2.66 1.69 3.57e-43
2.03 2.66 1.69 3.57e-43
2.05 2.66 1.69 3.57e-43
2.07 2.66 1.69 3.57e-43
2.08 2.66 1.69 3.57e-43
2.1 2.66 1.69 3.57e-43
2.1 2.66 1.19 9.1477e-41
2.12 2.66 1.14 9.1477e-41
2.13 2.66 1.05 9.1477e-41
2.14 2.66 0.96 9.1477e-41
2.14 2.66 0.84 9.1477e-41
2.15 2.66 0.73 9.1477e-41
2.13 2.66 0.57 9.1477e-41
2.13 2.66 0.41 9.1477e-41
0.64 2.73 1.84 9.1477e-41
0.68 2.73 1.82 9.1477e-41
0.77 2.73 1.85 9.1477e-41
0.82 2.73 1.84 9.1477e-41
0.89 2.73 1.85 9.1477e-41
0.95 2.73 1.86 9.1477e-41
0.99 2.73 1.84 9.1477e-41
1.06 2.73 1.86 9.1477e-41
1.11 2.73 1.85 9.1477e-41
1.16 2.73 1.85 9.1477e-41
1.22 2.73 1.86 9.1477e-41
1.26 2.73 1.85 9.1477e-41
1.32 2.73 1.86 9.1477e-41
1.37 2.73 1.85 9.1477e-41
1.42 2.73 1.85 9.1477e-41
1.47 2.73 1.85 9.1477e-41
1.51 2.73 1.84 9.1477e-41
1.55 2.73 1.83 9.1477e-41
1.6 2.73 1.83 9.1477e-41
1.65 2.73 1.84 9.1477e-41
1.69 2.73 1.83 9.1477e-41
1.74 2.73 1.83 9.1477e-41
1.78 2.73 1.83 9.1477e-41
1.82 2.73 1.81 9.1477e-41
1.86 2.73 1.8 9.1477e-41
1.91 2.73 1.82 9.1477e-41
1.94 2.73 1.78 9.1477e-41
1.97 2.73 1.76 9.1477e-41
1.99 2.73 1.71 9.1477e-41
2 2.73 1.71 3.57e-43
2.02 2.73 1.59 9.1477e-41
1.81 2.73 1.59 3.57e-43
2.05 2.73 1.59 3.57e-43
2.07 2.73 1.59 3.57e-43
2.08 2.73 1.59 3.57e-43
2.1 2.73 1.59 3.57e-43
2.1 2.73 1.19 9.1477e-41
2.12 2.73 1.13 9.1477e-41
2.13 2.73 1.05 9.1477e-41
2.14 2.73 0.95 9.1477e-41
2.15 2.73 0.85 9.1477e-41
2.15 2.73 0.74 9.1477e-41
2.13 2.73 0.57 9.1477e-41
2.12 2.73 0.4 9.1477e-41
0.68 2.8 1.82 9.1477e-41
0.76 2.8 1.84 9.1477e-41
0.82 2.8 1.84 9.1477e-41
0.89 2.8 1.85 9.1477e-41
0.94 2.8 1.85 9.1477e-41
1.01 2.8 1.86 9.1477e-41
1.06 2.8 1.86 9.1477e-41
1.11 2.8 1.85 9.1477e-41
1.17 2.8 1.86 9.1477e-41
1.21 2.8 1.85 9.1477e-41
1.27 2.8 1.86 9.1477e-41
1.31 2.8 1.85 9.1477e-41
1.37 2.8 1.86 9.1477e-41
1.42 2.8 1.85 9.1477e-41
1.46 2.8 1.84 9.1477e-41
1.51 2.8 1.84 9.1477e-41
1.56 2.8 1.84 9.1477e-41
1.61 2.8 1.84 9.1477e-41
1.65 2.8 1.84 9.1477e-41
1.69 2.8 1.83 9.1477e-41
1.74 2.8 1.84 9.1477e-41
1.78 2.8 1.83 9.1477e-41
1.83 2.8 1.82 9.1477e-41
1.87 2.8 1.81 9.1477e-41
1.91 2.8 1.81 9.1477e-41
1.94 2.8 1.78 9.1477e-41
1.97 2.8 1.76 9.1477e-41
1.99 2.8 1.76 3.57e-43
2 2.8 1.76 3.57e-43
2.02 2.8 1.76 3.57e-43
1.81 2.8 1.76 3.57e-43
2.05 2.8 1.76 3.57e-43
2.07 2.8 1.76 3.57e-43
2.08 2.8 1.76 3.57e-43
2.1 2.8 1.76 3.57e-43
2.1 2.8 1.19 9.1477e-41
2.12 2.8 1.13 9.1477e-41
2.13 2.8 1.04 9.1477e-41
2.14 2.8 0.96 9.1477e-41
2.15 2.8 0.85 9.1477e-41
2.15 2.8 0.74 9.1477e-41
2.13 2.8 0.57 9.1477e-41
2.12 2.8 0.4 9.1477e-41
0.69 2.87 1.83 9.1477e-41
0.76 2.87 1.84 9.1477e-41
0.83 2.87 1.85 9.1477e-41
0.88 2.87 1.84 9.1477e-41
0.95 2.87 1.86 9.1477e-41
1.01 2.87 1.86 9.1477e-41
1.06 2.87 1.86 9.1477e-41
1.12 2.87 1.86 9.1477e-41
1.17 2.87 1.87 9.1477e-41
1.22 2.87 1.86 9.1477e-41
1.28 2.87 1.86 9.1477e-41
1.32 2.87 1.86 9.1477e-41
1.37 2.87 1.86 9.1477e-41
1.42 2.87 1.86 9.1477e-41
1.47 2.87 1.85 9.1477e-41
1.51 2.87 1.84 9.1477e-41
1.57 2.87 1.86 9.1477e-41
1.6 2.87 1.83 9.1477e-41
1.66 2.87 1.85 9.1477e-41
1.7 2.87 1.84 9.1477e-41
1.74 2.87 1.83 9.1477e-41
1.79 2.87 1.83 9.1477e-41
1.82 2.87 1.81 9.1477e-41
1.87 2.87 1.82 9.1477e-41
1.91 2.87 1.81 9.1477e-41
1.94 2.87 1.78 9.1477e-41
1.97 2.87 1.76 9.1477e-41
1.99 2.87 1.76 3.57e-43
2 2.87 1.76 3.57e-43
2.02 2.87 1.76 3.57e-43
1.81 2.87 1.76 3.57e-43
2.05 2.87 1.76 3.57e-43
2.07 2.87 1.76 3.57e-43
2.08 2.87 1.76 3.57e-43
2.1 2.87 1.29 9.1477e-41
2.09 2.87 1.17 9.1477e-41
2.12 2.87 1.14 9.1477e-41
2.13 2.87 1.05 9.1477e-41
2.14 2.87 0.95 9.1477e-41
2.14 2.87 0.84 9.1477e-41
2.15 2.87 0.74 9.1477e-41
2.13 2.87 0.57 9.1477e-41
0.68 2.94 1.82 9.1477e-41
0.76 2.94 1.84 9.1477e-41
0.83 2.94 1.86 9.1477e-41
0.88 2.94 1.84 9.1477e-41
0.95 2.94 1.86 9.1477e-41
1.01 2.94 1.86 9.1477e-41
1.06 2.94 1.86 9.1477e-41
1.12 2.94 1.86 9.1477e-41
1.17 2.94 1.87 9.1477e-41
1.22 2.94 1.86 9.1477e-41
1.27 2.94 1.86 9.1477e-41
1.32 2.94 1.86 9.1477e-41
1.38 2.94 1.86 9.1477e-41
1.42 2.94 1.86 9.1477e-41
1.47 2.94 1.86 9.1477e-41
1.52 2.94 1.85 9.1477e-41
1.56 2.94 1.85 9.1477e-41
1.61 2.94 1.84 9.1477e-41
1.65 2.94 1.84 9.1477e-41
1.69 2.94 1.83 9.1477e-41
1.74 2.94 1.83 9.1477e-41
1.79 2.94 1.83 9.1477e-41
1.82 2.94 1.81 9.1477e-41
1.87 2.94 1.81 9.1477e-41
1.91 2.94 1.82 9.1477e-41
1.93 2.94 1.77 9.1477e-41
1.97 2.94 1.76 9.1477e-41
1.99 2.94 1.76 3.57e-43
2 2.94 1.76 3.57e-43
2.02 2.94 1.76 3.57e-43
1.81 2.94 1.76 3.57e-43
2.05 2.94 1.76 3.57e-43
2.07 2.94 1.76 3.57e-43
2.08 2.94 1.76 3.57e-43
2.1 2.94 1.29 9.1477e-41
2.09 2.94 1.17 9.1477e-41
2.12 2.94 1.13 9.1477e-41
2.13 2.94 1.04 9.1477e-41
2.14 2.94 0.96 9.1477e-41
2.14 2.94 0.84 9.1477e-41
2.16 2.94 0.75 9.1477e-41
2.16 2.94 0.63 9.1477e-41
2.13 2.94 0.41 9.1477e-41
0.69 3.01 1.83 9.1477e-41
0.76 3.01 1.84 9.1477e-41
0.83 3.01 1.86 9.1477e-41
0.89 3.01 1.86 9.1477e-41
0.95 3.01 1.86 9.1477e-41
1.01 3.01 1.86 9.1477e-41
1.06 3.01 1.86 9.1477e-41
1.12 3.01 1.86 9.1477e-41
1.17 3.01 1.87 9.1477e-41
1.22 3.01 1.86 9.1477e-41
1.27 3.01 1.86 9.1477e-41
1.33 3.01 1.86 9.1477e-41
1.38 3.01 1.86 9.1477e-41
1.42 3.01 1.86 9.1477e-41
1.47 3.01 1.86 9.1477e-41
1.52 3.01 1.85 9.1477e-41
1.57 3.01 1.86 9.1477e-41
1.61 3.01 1.85 9.1477e-41
1.66 3.01 1.85 9.1477e-41
1.7 3.01 1.84 9.1477e-41
1.74 3.01 1.83 9.1477e-41
1.79 3.01 1.84 9.1477e-41
1.83 3.01 1.82 9.1477e-41
1.87 3.01 1.82 9.1477e-41
1.91 3.01 1.81 9.1477e-41
1.94 3.01 1.78 9.1477e-41
1.97 3.01 1.76 9.1477e-41
1.98 3.01 1.76 3.57e-43
2 3.01 1.76 3.57e-43
2.02 3.01 1.76 3.57e-43
1.81 3.01 1.76 3.57e-43
2.05 3.01 1.76 3.57e-43
2.07 3.01 1.76 3.57e-43
2.08 3.01 1.76 3.57e-43
2.1 3.01 1.29 9.1477e-41
2.09 3.01 1.18 9.1477e-41
2.11 3.01 1.12 9.1477e-41
2.13 3.01 1.04 9.1477e-41
2.14 3.01 0.95 9.1477e-41
2.14 3.01 0.84 9.1477e-41
2.16 3.01 0.75 9.1477e-41
2.16 3.01 0.63 9.1477e-41
0.68 3.08 1.82 9.1477e-41
0.77 3.08 1.85 9.1477e-41
0.83 3.08 1.85 9.1477e-41
0.89 3.08 1.86 9.1477e-41
0.95 3.08 1.86 9.1477e-41
1 3.08 1.85 9.1477e-41
1.06 3.08 1.86 9.1477e-41
1.12 3.08 1.87 9.1477e-41
1.17 3.08 1.87 9.1477e-41
1.22 3.08 1.87 9.1477e-41
1.27 3.08 1.86 9.1477e-41
1.33 3.08 1.86 9.1477e-41
1.37 3.08 1.86 9.1477e-41
1.43 3.08 1.87 9.1477e-41
1.47 3.08 1.85 9.1477e-41
1.52 3.08 1.86 9.1477e-41
1.56 3.08 1.85 9.1477e-41
1.62 3.08 1.86 9.1477e-41
1.65 3.08 1.84 9.1477e-41
1.71 3.08 1.85 9.1477e-41
1.74 3.08 1.84 9.1477e-41
1.78 3.08 1.83 9.1477e-41
1.83 3.08 1.82 9.1477e-41
1.87 3.08 1.82 9.1477e-41
1.91 3.08 1.81 9.1477e-41
1.94 3.08 1.78 9.1477e-41
1.97 3.08 1.76 9.1477e-41
1.99 3.08 1.76 3.57e-43
2 3.08 1.76 3.57e-43
2.02 3.08 1.76 3.57e-43
1.81 3.08 1.76 3.57e-43
2.05 3.08 1.76 3.57e-43
2.07 3.08 1.76 3.57e-43
2.08 3.08 1.76 3.57e-43
2.1 3.08 1.29 9.1477e-41
2.09 3.08 1.17 9.1477e-41
2.12 3.08 1.13 9.1477e-41
2.13 3.08 1.04 9.1477e-41
2.14 3.08 0.94 9.1477e-41
2.14 3.08 0.84 9.1477e-41
2.16 3.08 0.76 9.1477e-41
2.16 3.08 0.63 9.1477e-41
0.68 3.15 1.82 9.1477e-41
0.77 3.15 1.85 9.1477e-41
0.83 3.15 1.85 9.1477e-41
0.89 3.15 1.85 9.1477e-41
0.95 3.15 1.86 9.1477e-41
1.01 3.15 1.86 9.1477e-41
1.06 3.15 1.86 9.1477e-41
1.12 3.15 1.86 9.1477e-41
1.17 3.15 1.86 9.1477e-41
1.22 3.15 1.87 9.1477e-41
1.27 3.15 1.86 9.1477e-41
1.33 3.15 1.87 9.1477e-41
1.37 3.15 1.86 9.1477e-41
1.42 3.15 1.86 9.1477e-41
1.47 3.15 1.85 9.1477e-41
1.52 3.15 1.86 9.1477e-41
1.57 3.15 1.86 9.1477e-41
1.61 3.15 1.85 9.1477e-41
1.66 3.15 1.85 9.1477e-41
1.7 3.15 1.84 9.1477e-41
1.75 3.15 1.85 9.1477e-41
1.78 3.15 1.83 9.1477e-41
1.83 3.15 1.82 9.1477e-41
1.87 3.15 1.81 9.1477e-41
1.91 3.15 1.81 9.1477e-41
1.94 3.15 1.78 9.1477e-41
1.97 3.15 1.76 9.1477e-41
1.98 3.15 1.76 3.57e-43
2 3.15 1.76 3.57e-43
2.02 3.15 1.76 3.57e-43
1.81 3.15 1.76 3.57e-43
2.05 3.15 1.76 3.57e-43
2.07 3.15 1.76 3.57e-43
2.08 3.15 1.76 3.57e-43
2.1 3.15 1.29 9.1477e-41
2.09 3.15 1.18 9.1477e-41
2.11 3.15 1.12 9.1477e-41
2.13 3.15 1.04 9.1477e-41
2.14 3.15 0.95 9.1477e-41
2.15 3.15 0.86 9.1477e-41
2.16 3.15 0.77 9.1477e-41
2.12 3.15 0.54 9.1477e-41
2.12 3.15 0.4 9.1477e-41
0.69 3.22 1.83 9.1477e-41
0.76 3.22 1.84 9.1477e-41
0.83 3.22 1.85 9.1477e-41
0.89 3.22 1.85 9.1477e-41
0.95 3.22 1.86 9.1477e-41
1.01 3.22 1.87 9.1477e-41
1.06 3.22 1.86 9.1477e-41
1.12 3.22 1.86 9.1477e-41
1.17 3.22 1.86 9.1477e-41
1.22 3.22 1.86 9.1477e-41
1.28 3.22 1.86 9.1477e-41
1.32 3.22 1.86 9.1477e-41
1.38 3.22 1.86 9.1477e-41
1.42 3.22 1.86 9.1477e-41
1.47 3.22 1.85 9.1477e-41
1.52 3.22 1.86 9.1477e-41
1.57 3.22 1.86 9.1477e-41
1.61 3.22 1.84 9.1477e-41
1.66 3.22 1.85 9.1477e-41
1.7 3.22 1.84 9.1477e-41
1.74 3.22 1.84 9.1477e-41
1.79 3.22 1.83 9.1477e-41
1.83 3.22 1.82 9.1477e-41
1.87 3.22 1.82 9.1477e-41
1.91 3.22 1.81 9.1477e-41
1.93 3.22 1.77 9.1477e-41
1.97 3.22 1.76 9.1477e-41
1.98 3.22 1.76 3.57e-43
2 3.22 1.76 3.57e-43
2.02 3.22 1.76 3.57e-43
1.81 3.22 1.76 3.57e-43
2.05 3.22 1.76 3.57e-43
2.07 3.22 1.76 3.57e-43
2.08 3.22 1.76 3.57e-43
2.1 3.22 1.29 9.1477e-41
2.09 3.22 1.18 9.1477e-41
2.11 3.22 1.12 9.1477e-41
2.13 3.22 1.05 9.1477e-41
2.14 3.22 0.95 9.1477e-41
2.15 3.22 0.87 9.1477e-41
2.16 3.22 0.77 9.1477e-41
2.12 3.22 0.53 9.1477e-41
0.68 3.29 1.82 9.1477e-41
0.78 3.29 1.86 9.1477e-41
0.83 3.29 1.85 9.1477e-41
0.89 3.29 1.85 9.1477e-41
0.95 3.29 1.86 9.1477e-41
1.01 3.29 1.86 9.1477e-41
1.07 3.29 1.87 9.1477e-41
1.12 3.29 1.86 9.1477e-41
1.17 3.29 1.86 9.1477e-41
1.22 3.29 1.87 9.1477e-41
1.27 3.29 1.86 9.1477e-41
1.33 3.29 1.86 9.1477e-41
1.37 3.29 1.86 9.1477e-41
1.42 3.29 1.86 9.1477e-41
1.47 3.29 1.86 9.1477e-41
1.52 3.29 1.85 9.1477e-41
1.57 3.29 1.86 9.1477e-41
1.61 3.29 1.85 9.1477e-41
1.66 3.29 1.85 9.1477e-41
1.7 3.29 1.84 9.1477e-41
1.74 3.29 1.84 9.1477e-41
1.79 3.29 1.83 9.1477e-41
1.83 3.29 1.82 9.1477e-41
1.87 3.29 1.82 9.1477e-41
1.9 3.29 1.8 9.1477e-41
1.94 3.29 1.78 9.1477e-41
1.96 3.29 1.75 9.1477e-41
1.99 3.29 1.75 3.57e-43
2 3.29 1.75 3.57e-43
2.02 3.29 1.75 3.57e-43
1.81 3.29 1.75 3.57e-43
2.05 3.29 1.75 3.57e-43
2.07 3.29 1.75 3.57e-43
2.08 3.29 1.75 3.57e-43
2.1 3.29 1.29 9.1477e-41
2.09 3.29 1.18 9.1477e-41
2.11 3.29 1.12 9.1477e-41
2.13 3.29 1.04 9.1477e-41
2.14 3.29 0.95 9.1477e-41
2.15 3.29 0.86 9.1477e-41
2.16 3.29 0.76 9.1477e-41
2.12 3.29 0.53 9.1477e-41
0.69 3.36 1.83 9.1477e-41
0.76 3.36 1.84 9.1477e-41
0.83 3.36 1.85 9.1477e-41
0.89 3.36 1.85 9.1477e-41
0.95 3.36 1.86 9.1477e-41
1.01 3.36 1.86 9.1477e-41
1.06 3.36 1.86 9.1477e-41
1.12 3.36 1.86 9.1477e-41
1.17 3.36 1.87 9.1477e-41
1.22 3.36 1.87 9.1477e-41
1.27 3.36 1.86 9.1477e-41
1.32 3.36 1.86 9.1477e-41
1.37 3.36 1.86 9.1477e-41
1.42 3.36 1.86 9.1477e-41
1.47 3.36 1.86 9.1477e-41
1.52 3.36 1.85 9.1477e-41
1.57 3.36 1.86 9.1477e-41
1.61 3.36 1.85 9.1477e-41
1.65 3.36 1.84 9.1477e-41
1.7 3.36 1.84 9.1477e-41
1.74 3.36 1.83 9.1477e-41
1.78 3.36 1.83 9.1477e-41
1.82 3.36 1.81 9.1477e-41
1.87 3.36 1.81 9.1477e-41
1.91 3.36 1.81 9.1477e-41
1.93 3.36 1.77 9.1477e-41
1.96 3.36 1.75 9.1477e-41
1.98 3.36 1.75 3.57e-43
2 3.36 1.75 3.57e-43
2.02 3.36 1.75 3.57e-43
1.81 3.36 1.75 3.57e-43
2.05 3.36 1.75 3.57e-43
2.07 3.36 1.75 3.57e-43
2.08 3.36 1.75 3.57e-43
2.1 3.36 1.29 9.1477e-41
2.09 3.36 1.18 9.1477e-41
2.11 3.36 1.1 9.1477e-41
2.13 3.36 1.04 9.1477e-41
2.14 3.36 0.94 9.1477e-41
2.15 3.36 0.86 9.1477e-41
2.16 3.36 0.76 9.1477e-41
2.13 3.36 0.55 9.1477e-41
0.69 3.43 1.83 9.1477e-41
0.76 3.43 1.84 9.1477e-41
0.83 3.43 1.85 9.1477e-41
0.89 3.43 1.85 9.1477e-41
0.94 3.43 1.85 9.1477e-41
1.01 3.43 1.86 9.1477e-41
1.06 3.43 1.86 9.1477e-41
1.12 3.43 1.86 9.1477e-41
1.17 3.43 1.86 9.1477e-41
1.22 3.43 1.86 9.1477e-41
1.28 3.43 1.86 9.1477e-41
1.32 3.43 1.86 9.1477e-41
1.37 3.43 1.86 9.1477e-41
1.42 3.43 1.85 9.1477e-41
1.47 3.43 1.85 9.1477e-41
1.52 3.43 1.85 9.1477e-41
1.57 3.43 1.86 9.1477e-41
1.61 3.43 1.85 9.1477e-41
1.65 3.43 1.84 9.1477e-41
1.69 3.43 1.83 9.1477e-41
1.74 3.43 1.83 9.1477e-41
1.78 3.43 1.83 9.1477e-41
1.82 3.43 1.81 9.1477e-41
1.88 3.43 1.83 9.1477e-41
1.92 3.43 1.83 9.1477e-41
1.91 3.43 1.73 9.1477e-41
1.98 3.43 1.77 9.1477e-41
1.98 3.43 1.69 9.1477e-41
2 3.43 1.69 3.57e-43
2.02 3.43 1.69 3.57e-43
1.81 3.43 1.69 3.57e-43
2.05 3.43 1.69 3.57e-43
2.07 3.43 1.69 3.57e-43
2.08 3.43 1.69 3.57e-43
2.1 3.43 1.29 9.1477e-41
2.1 3.43 1.19 9.1477e-41
2.11 3.43 1.11 9.1477e-41
2.13 3.43 1.04 9.1477e-41
2.14 3.43 0.95 9.1477e-41
2.15 3.43 0.85 9.1477e-41
2.16 3.43 0.76 9.1477e-41
2.12 3.43 0.53 9.1477e-41
0.69 3.5 1.83 9.1477e-41
0.76 3.5 1.84 9.1477e-41
0.82 3.5 1.84 9.1477e-41
0.88 3.5 1.84 9.1477e-41
0.95 3.5 1.86 9.1477e-41
0.99 3.5 1.84 9.1477e-41
1.05 3.5 1.85 9.1477e-41
1.11 3.5 1.85 9.1477e-41
1.16 3.5 1.85 9.1477e-41
1.22 3.5 1.87 9.1477e-41
1.27 3.5 1.86 9.1477e-41
1.32 3.5 1.86 9.1477e-41
1.37 3.5 1.86 9.1477e-41
1.42 3.5 1.86 9.1477e-41
1.47 3.5 1.85 9.1477e-41
1.52 3.5 1.85 9.1477e-41
1.56 3.5 1.85 9.1477e-41
1.61 3.5 1.85 9.1477e-41
1.66 3.5 1.85 9.1477e-41
1.7 3.5 1.84 9.1477e-41
1.74 3.5 1.84 9.1477e-41
1.78 3.5 1.82 9.1477e-41
1.82 3.5 1.81 9.1477e-41
1.87 3.5 1.82 9.1477e-41
1.94 3.5 1.86 9.1477e-41
1.9 3.5 1.72 9.1477e-41
1.99 3.5 1.8 9.1477e-41
1.97 3.5 1.68 9.1477e-41
2 3.5 1.68 3.57e-43
2.02 3.5 1.68 3.57e-43
1.81 3.5 1.68 3.57e-43
2.05 3.5 1.68 3.57e-43
2.07 3.5 1.68 3.57e-43
2.08 3.5 1.68 3.57e-43
2.1 3.5 1.29 9.1477e-41
2.09 3.5 1.18 9.1477e-41
2.11 3.5 1.12 9.1477e-41
2.12 3.5 1.02 9.1477e-41
2.13 3.5 0.94 9.1477e-41
2.14 3.5 0.84 9.1477e-41
2.16 3.5 0.75 9.1477e-41
2.12 3.5 0.54 9.1477e-41
0.68 3.57 1.82 9.1477e-41
0.76 3.57 1.83 9.1477e-41
0.82 3.57 1.84 9.1477e-41
0.88 3.57 1.84 9.1477e-41
0.94 3.57 1.85 9.1477e-41
1.01 3.57 1.86 9.1477e-41
1.06 3.57 1.86 9.1477e-41
1.11 3.57 1.85 9.1477e-41
1.17 3.57 1.86 9.1477e-41
1.22 3.57 1.86 9.1477e-41
1.26 3.57 1.85 9.1477e-41
1.32 3.57 1.86 9.1477e-41
1.37 3.57 1.85 9.1477e-41
1.42 3.57 1.85 9.1477e-41
1.47 3.57 1.85 9.1477e-41
1.51 3.57 1.84 9.1477e-41
1.56 3.57 1.84 9.1477e-41
1.6 3.57 1.83 9.1477e-41
1.65 3.57 1.84 9.1477e-41
1.69 3.57 1.83 9.1477e-41
1.74 3.57 1.83 9.1477e-41
1.78 3.57 1.83 9.1477e-41
1.83 3.57 1.82 9.1477e-41
1.87 3.57 1.82 9.1477e-41
1.93 3.57 1.85 9.1477e-41
1.9 3.57 1.71 9.1477e-41
1.98 3.57 1.78 9.1477e-41
1.97 3.57 1.68 9.1477e-41
1.99 3.57 1.63 9.1477e-41
2.02 3.57 1.63 3.57e-43
1.81 3.57 1.63 3.57e-43
2.05 3.57 1.63 3.57e-43
2.07 3.57 1.63 3.57e-43
2.08 3.57 1.63 3.57e-43
2.1 3.57 1.29 9.1477e-41
2.09 3.57 1.18 9.1477e-41
2.1 3.57 1.09 9.1477e-41
2.11 3.57 1.01 9.1477e-41
2.12 3.57 0.92 9.1477e-41
2.14 3.57 0.83 9.1477e-41
2.15 3.57 0.73 9.1477e-41
2.14 3.57 0.59 9.1477e-41
0.68 3.64 1.82 9.1477e-41
0.74 3.64 1.82 9.1477e-41
0.81 3.64 1.83 9.1477e-41
0.87 3.64 1.84 9.1477e-41
0.93 3.64 1.84 9.1477e-41
0.99 3.64 1.84 9.1477e-41
1.04 3.64 1.84 9.1477e-41
1.1 3.64 1.85 9.1477e-41
1.16 3.64 1.85 9.1477e-41
1.21 3.64 1.84 9.1477e-41
1.26 3.64 1.84 9.1477e-41
1.31 3.64 1.85 9.1477e-41
1.36 3.64 1.84 9.1477e-41
1.42 3.64 1.85 9.1477e-41
1.46 3.64 1.84 9.1477e-41
1.51 3.64 1.84 9.1477e-41
1.56 3.64 1.84 9.1477e-41
1.6 3.64 1.83 9.1477e-41
1.65 3.64 1.84 9.1477e-41
1.69 3.64 1.83 9.1477e-41
1.73 3.64 1.82 9.1477e-41
1.78 3.64 1.82 9.1477e-41
1.82 3.64 1.81 9.1477e-41
1.87 3.64 1.81 9.1477e-41
1.92 3.64 1.83 9.1477e-41
1.91 3.64 1.74 9.1477e-41
1.97 3.64 1.76 9.1477e-41
1.97 3.64 1.68 9.1477e-41
2 3.64 1.65 9.1477e-41
2.01 3.64 1.59 9.1477e-41
2.04 3.64 1.55 9.1477e-41
2.05 3.64 1.55 3.57e-43
2.07 3.64 1.55 3.57e-43
2.08 3.64 1.55 3.57e-43
2.1 3.64 1.29 9.1477e-41
2.09 3.64 1.18 9.1477e-41
2.1 3.64 1.09 9.1477e-41
2.11 3.64 1 9.1477e-41
2.12 3.64 0.91 9.1477e-41
2.13 3.64 0.81 9.1477e-41
2.14 3.64 0.72 9.1477e-41
2.14 3.64 0.58 9.1477e-41
0.78 3.71 1.79 9.1477e-41
0.85 3.71 1.81 9.1477e-41
0.92 3.71 1.82 9.1477e-41
0.98 3.71 1.83 9.1477e-41
1.03 3.71 1.82 9.1477e-41
1.1 3.71 1.84 9.1477e-41
1.15 3.71 1.84 9.1477e-41
1.21 3.71 1.84 9.1477e-41
1.26 3.71 1.84 9.1477e-41
1.3 3.71 1.83 9.1477e-41
1.36 3.71 1.84 9.1477e-41
1.41 3.71 1.84 9.1477e-41
1.45 3.71 1.83 9.1477e-41
1.5 3.71 1.83 9.1477e-41
1.55 3.71 1.82 9.1477e-41
1.6 3.71 1.83 9.1477e-41
1.63 3.71 1.81 9.1477e-41
1.69 3.71 1.82 9.1477e-41
1.73 3.71 1.81 9.1477e-41
1.77 3.71 1.81 9.1477e-41
1.82 3.71 1.81 9.1477e-41
1.86 3.71 1.8 9.1477e-41
1.89 3.71 1.78 9.1477e-41
1.92 3.71 1.76 9.1477e-41
1.95 3.71 1.73 9.1477e-41
1.97 3.71 1.68 9.1477e-41
1.99 3.71 1.63 9.1477e-41
2.02 3.71 1.59 9.1477e-41
2.02 3.71 1.52 9.1477e-41
2.04 3.71 1.46 9.1477e-41
2.06 3.71 1.41 9.1477e-41
2.07 3.71 1.33 9.1477e-41
2.08 3.71 1.26 9.1477e-41
2.09 3.71 1.18 9.1477e-41
2.11 3.71 1.1 9.1477e-41
2.11 3.71 1 9.1477e-41
2.11 3.71 0.89 9.1477e-41
2.12 3.71 0.79 9.1477e-41
2.13 3.71 0.68 9.1477e-41
2.12 3.71 0.53 9.1477e-41
0.68 3.78 1.38 9.1477e-41
0.75 3.78 1.4 9.1477e-41
0.86 3.78 1.45 9.1477e-41
0.95 3.78 1.51 9.1477e-41
1.04 3.78 1.54 9.1477e-41
1.1 3.78 1.56 9.1477e-41
1.19 3.78 1.6 9.1477e-41
1.25 3.78 1.61 9.1477e-41
1.28 3.78 1.58 9.1477e-41
1.34 3.78 1.59 9.1477e-41
1.39 3.78 1.59 9.1477e-41
1.44 3.78 1.59 9.1477e-41
1.48 3.78 1.58 9.1477e-41
1.54 3.78 1.59 9.1477e-41
1.59 3.78 1.58 9.1477e-41
1.63 3.78 1.57 9.1477e-41
1.67 3.78 1.57 9.1477e-41
1.71 3.78 1.54 9.1477e-41
1.75 3.78 1.52 9.1477e-41
1.8 3.78 1.53 9.1477e-41
1.89 3.78 1.61 9.1477e-41
1.93 3.78 1.6 9.1477e-41
1.96 3.78 1.58 9.1477e-41
1.98 3.78 1.53 9.1477e-41
2.01 3.78 1.49 9.1477e-41
2.03 3.78 1.44 9.1477e-41
2.05 3.78 1.38 9.1477e-41
2.06 3.78 1.32 9.1477e-41
2.08 3.78 1.24 9.1477e-41
2.08 3.78 1.14 9.1477e-41
2.09 3.78 1.05 9.1477e-41
2.1 3.78 0.97 9.1477e-41
2.09 3.78 0.84 9.1477e-41
2.1 3.78 0.73 9.1477e-41
2.1 3.78 0.62 9.1477e-41
2.08 3.78 0.44 9.1477e-41
0.95 3.85 1.19 9.1477e-41
1.02 3.85 1.2 9.1477e-41
1.13 3.85 1.28 9.1477e-41
1.16 3.85 1.24 9.1477e-41
1.2 3.85 1.22 9.1477e-41
1.26 3.85 1.22 9.1477e-41
1.32 3.85 1.23 9.1477e-41
1.37 3.85 1.22 9.1477e-41
1.41 3.85 1.2 9.1477e-41
1.46 3.85 1.2 9.1477e-41
1.52 3.85 1.21 9.1477e-41
1.56 3.85 1.2 9.1477e-41
1.61 3.85 1.2 9.1477e-41
1.66 3.85 1.19 9.1477e-41
1.71 3.85 1.19 9.1477e-41
1.76 3.85 1.19 9.1477e-41
1.8 3.85 1.18 9.1477e-41
