# .PCD v.7 - Point Cloud Data file format
VERSION .7
FIELDS x y z rgb
SIZE 4 4 4 4
TYPE F F F F
WIDTH 639
HEIGHT 1
POINTS 639
DATA ascii
0.87 0 0.81 9.1477e-41
0.96 0 0.84 9.1477e-41
1.06 0 0.91 9.1477e-41
1.12 0 0.91 9.1477e-41
1.18 0 0.92 9.1477e-41
1.24 0 0.92 9.1477e-41
1.3 0 0.94 9.1477e-41
1.36 0 0.93 9.1477e-41
1.41 0 0.93 9.1477e-41
1.47 0 0.94 9.1477e-41
1.52 0 0.93 9.1477e-41
1.57 0 0.93 9.1477e-41
1.62 0 0.92 9.1477e-41
1.68 0 0.93 9.1477e-41
1.73 0 0.92 9.1477e-41
1.77 0 0.9 9.1477e-41
1.82 0 0.9 9.1477e-41
1.86 0 0.88 9.1477e-41
1.91 0 0.87 9.1477e-41
1.96 0 0.88 9.1477e-41
2.01 0 0.87 9.1477e-41
2.02 0 0.79 9.1477e-41
2.07 0 0.8 9.1477e-41
2.12 0 0.79 9.1477e-41
2.16 0 0.76 9.1477e-41
2.19 0 0.71 9.1477e-41
2.22 0 0.66 9.1477e-41
2.25 0 0.6 9.1477e-41
0.73 0.25 0.87 9.1477e-41
0.89 0.25 1.02 9.1477e-41
0.95 0.25 1.01 9.1477e-41
1 0.25 1.01 9.1477e-41
1.08 0.25 1.03 9.1477e-41
1.13 0.25 1.03 9.1477e-41
1.19 0.25 1.02 9.1477e-41
1.25 0.25 1.03 9.1477e-41
1.3 0.25 1.03 9.1477e-41
1.36 0.25 1.03 9.1477e-41
1.42 0.25 1.03 9.1477e-41
1.46 0.25 1.02 9.1477e-41
1.52 0.25 1.03 9.1477e-41
1.57 0.25 1.03 9.1477e-41
1.62 0.25 1.02 9.1477e-41
1.68 0.25 1.04 9.1477e-41
1.73 0.25 1.02 9.1477e-41
1.77 0.25 1.02 9.1477e-41
1.82 0.25 1.02 9.1477e-41
1.87 0.25 1.01 9.1477e-41
1.92 0.25 1.02 9.1477e-41
1.96 0.25 1 9.1477e-41
2.01 0.25 1 9.1477e-41
2.06 0.25 0.99 9.1477e-41
2.1 0.25 0.97 9.1477e-41
2.14 0.25 0.96 9.1477e-41
2.19 0.25 0.96 3.57e-43
2.16 0.25 0.76 9.1477e-41
2.23 0.25 0.81 9.1477e-41
2.27 0.25 0.79 9.1477e-41
2.31 0.25 0.77 9.1477e-41
2.33 0.25 0.69 9.1477e-41
2.34 0.25 0.59 9.1477e-41
0.82 0.5 1.08 9.1477e-41
0.88 0.5 1.08 9.1477e-41
0.94 0.5 1.08 9.1477e-41
1.01 0.5 1.1 9.1477e-41
1.06 0.5 1.09 9.1477e-41
1.12 0.5 1.1 9.1477e-41
1.18 0.5 1.1 9.1477e-41
1.24 0.5 1.1 9.1477e-41
1.29 0.5 1.1 9.1477e-41
1.34 0.5 1.1 9.1477e-41
1.4 0.5 1.1 9.1477e-41
1.46 0.5 1.1 9.1477e-41
1.5 0.5 1.1 9.1477e-41
1.56 0.5 1.11 9.1477e-41
1.61 0.5 1.1 9.1477e-41
1.66 0.5 1.09 9.1477e-41
1.71 0.5 1.1 9.1477e-41
1.76 0.5 1.09 9.1477e-41
1.81 0.5 1.09 9.1477e-41
1.85 0.5 1.07 9.1477e-41
1.9 0.5 1.08 9.1477e-41
1.95 0.5 1.08 9.1477e-41
2 0.5 1.07 9.1477e-41
2.05 0.5 1.07 9.1477e-41
2.09 0.5 1.05 9.1477e-41
2.13 0.5 1.05 9.1477e-41
2.18 0.5 1.05 9.1477e-41
2.23 0.5 1.05 9.1477e-41
2.27 0.5 1.04 9.1477e-41
2.3 0.5 1 9.1477e-41
2.33 0.5 0.95 9.1477e-41
2.35 0.5 0.89 9.1477e-41
2.38 0.5 0.82 9.1477e-41
2.4 0.5 0.75 9.1477e-41
2.38 0.5 0.54 9.1477e-41
0.8 0.75 1.14 9.1477e-41
0.85 0.75 1.13 9.1477e-41
0.87 0.75 1.07 9.1477e-41
0.91 0.75 1.04 9.1477e-41
0.99 0.75 1.07 9.1477e-41
1.05 0.75 1.07 9.1477e-41
1.1 0.75 1.07 3.57e-43
1.18 0.75 1.07 3.57e-43
1.24 0.75 1.07 3.57e-43
1.29 0.75 1.07 3.57e-43
1.34 0.75 1.07 3.57e-43
1.4 0.75 1.07 3.57e-43
1.46 0.75 1.07 3.57e-43
1.5 0.75 1.07 3.57e-43
1.56 0.75 1.07 3.57e-43
1.61 0.75 1.07 3.57e-43
1.66 0.75 1.07 3.57e-43
1.71 0.75 1.1 9.1477e-41
1.77 0.75 1.1 9.1477e-41
1.81 0.75 1.09 9.1477e-41
1.85 0.75 1.08 9.1477e-41
1.9 0.75 1.07 9.1477e-41
1.94 0.75 1.06 9.1477e-41
1.99 0.75 1.05 9.1477e-41
2.07 0.75 1.12 9.1477e-41
2.12 0.75 1.13 9.1477e-41
2.16 0.75 1.13 9.1477e-41
2.2 0.75 1.11 9.1477e-41
2.25 0.75 1.11 9.1477e-41
2.3 0.75 1.11 9.1477e-41
2.32 0.75 1.05 9.1477e-41
2.35 0.75 1.01 9.1477e-41
2.37 0.75 0.94 9.1477e-41
2.4 0.75 0.88 9.1477e-41
2.41 0.75 0.77 9.1477e-41
2.37 0.75 0.52 9.1477e-41
0.77 1 1.27 9.1477e-41
0.82 1 1.25 9.1477e-41
0.84 1 1.25 3.57e-43
0.85 1 1.25 3.57e-43
0.87 1 1.25 3.57e-43
0.91 1 1.25 3.57e-43
0.99 1 1.25 3.57e-43
1.05 1 1.25 3.57e-43
1.1 1 1.25 3.57e-43
1.18 1 1.25 3.57e-43
1.24 1 1.25 3.57e-43
1.29 1 1.25 3.57e-43
1.34 1 1.25 3.57e-43
1.4 1 1.25 3.57e-43
1.46 1 1.25 3.57e-43
1.5 1 1.25 3.57e-43
1.56 1 1.11 9.1477e-41
1.7 1 1.11 3.57e-43
1.66 1 1.11 3.57e-43
1.71 1 1.11 3.57e-43
1.77 1 1.11 3.57e-43
1.81 1 1.11 3.57e-43
1.85 1 1.11 3.57e-43
1.9 1 1.11 3.57e-43
1.94 1 1.11 3.57e-43
1.99 1 1.11 3.57e-43
2.07 1 1.12 9.1477e-41
2.16 1 1.22 9.1477e-41
2.2 1 1.2 9.1477e-41
2.24 1 1.2 9.1477e-41
2.29 1 1.21 9.1477e-41
2.31 1 1.15 9.1477e-41
2.35 1 1.12 9.1477e-41
2.35 1 1 9.1477e-41
2.36 1 0.92 9.1477e-41
2.38 1 0.84 9.1477e-41
2.4 1 0.76 9.1477e-41
2.4 1 0.61 9.1477e-41
0.8 1.25 1.46 9.1477e-41
0.84 1.25 1.46 3.57e-43
0.77 1.25 1.46 3.57e-43
0.82 1.25 1.46 3.57e-43
0.84 1.25 1.19 9.1477e-41
0.9 1.25 1.2 9.1477e-41
0.94 1.25 1.17 9.1477e-41
1.01 1.25 1.18 9.1477e-41
1.07 1.25 1.19 9.1477e-41
1.14 1.25 1.21 9.1477e-41
1.19 1.25 1.2 9.1477e-41
1.24 1.25 1.2 9.1477e-41
1.3 1.25 1.2 3.57e-43
1.29 1.25 1.2 3.57e-43
1.34 1.25 1.2 3.57e-43
1.4 1.25 1.2 3.57e-43
1.46 1.25 1.2 3.57e-43
1.5 1.25 1.2 3.57e-43
1.56 1.25 1.2 3.57e-43
1.7 1.25 1.26 9.1477e-41
1.72 1.25 1.21 9.1477e-41
1.76 1.25 1.2 9.1477e-41
1.82 1.25 1.21 9.1477e-41
1.88 1.25 1.23 9.1477e-41
1.93 1.25 1.23 9.1477e-41
1.97 1.25 1.22 9.1477e-41
2.01 1.25 1.2 9.1477e-41
2.05 1.25 1.19 9.1477e-41
2.13 1.25 1.25 9.1477e-41
2.24 1.25 1.41 9.1477e-41
2.27 1.25 1.38 9.1477e-41
2.29 1.25 1.38 3.57e-43
2.29 1.25 1.38 3.57e-43
2.31 1.25 1.15 9.1477e-41
2.32 1.25 1.06 9.1477e-41
2.35 1.25 1.02 9.1477e-41
2.37 1.25 0.95 9.1477e-41
2.39 1.25 0.85 9.1477e-41
2.39 1.25 0.71 9.1477e-41
2.4 1.25 0.62 9.1477e-41
1.01 1.5 1.73 3.57e-43
0.98 1.5 1.62 9.1477e-41
1.04 1.5 1.63 9.1477e-41
1.1 1.5 1.62 9.1477e-41
1.16 1.5 1.63 9.1477e-41
1.21 1.5 1.64 9.1477e-41
1.27 1.5 1.64 9.1477e-41
1.32 1.5 1.64 9.1477e-41
1.37 1.5 1.63 9.1477e-41
1.42 1.5 1.63 9.1477e-41
1.47 1.5 1.63 9.1477e-41
1.52 1.5 1.64 9.1477e-41
1.57 1.5 1.63 9.1477e-41
1.61 1.5 1.62 9.1477e-41
1.66 1.5 1.62 9.1477e-41
1.7 1.5 1.62 9.1477e-41
1.74 1.5 1.62 3.57e-43
1.5 1.5 1.62 3.57e-43
1.56 1.5 1.62 3.57e-43
1.7 1.5 1.26 9.1477e-41
1.89 1.5 1.53 9.1477e-41
1.96 1.5 1.57 9.1477e-41
2.01 1.5 1.59 9.1477e-41
2.05 1.5 1.58 9.1477e-41
2.1 1.5 1.59 9.1477e-41
2.13 1.5 1.56 9.1477e-41
2.18 1.5 1.58 9.1477e-41
2.22 1.5 1.56 9.1477e-41
2.25 1.5 1.53 9.1477e-41
2.28 1.5 1.49 9.1477e-41
2.05 1.5 1.49 3.57e-43
2.29 1.5 1.49 3.57e-43
2.29 1.5 1.49 3.57e-43
2.31 1.5 1.15 9.1477e-41
2.33 1.5 1.08 9.1477e-41
2.36 1.5 1.04 9.1477e-41
2.38 1.5 0.98 9.1477e-41
2.39 1.5 0.87 9.1477e-41
2.39 1.5 0.73 9.1477e-41
2.41 1.5 0.64 9.1477e-41
2.39 1.5 0.42 9.1477e-41
0.88 1.75 1.7 9.1477e-41
0.95 1.75 1.72 9.1477e-41
1.01 1.75 1.73 9.1477e-41
1.07 1.75 1.73 9.1477e-41
1.12 1.75 1.73 9.1477e-41
1.18 1.75 1.74 9.1477e-41
1.24 1.75 1.74 9.1477e-41
1.29 1.75 1.74 9.1477e-41
1.34 1.75 1.73 9.1477e-41
1.39 1.75 1.74 9.1477e-41
1.44 1.75 1.74 9.1477e-41
1.49 1.75 1.74 9.1477e-41
1.54 1.75 1.73 9.1477e-41
1.59 1.75 1.74 9.1477e-41
1.64 1.75 1.74 9.1477e-41
1.68 1.75 1.74 9.1477e-41
1.73 1.75 1.73 9.1477e-41
1.78 1.75 1.74 9.1477e-41
1.82 1.75 1.73 9.1477e-41
1.86 1.75 1.73 9.1477e-41
1.9 1.75 1.71 9.1477e-41
1.95 1.75 1.72 9.1477e-41
1.99 1.75 1.71 9.1477e-41
2.03 1.75 1.71 9.1477e-41
2.07 1.75 1.7 9.1477e-41
2.11 1.75 1.69 9.1477e-41
2.15 1.75 1.68 9.1477e-41
2.19 1.75 1.69 9.1477e-41
2.22 1.75 1.65 9.1477e-41
2.25 1.75 1.63 9.1477e-41
2.27 1.75 1.63 3.57e-43
2.28 1.75 1.49 9.1477e-41
2.12 1.75 1.49 3.57e-43
2.29 1.75 1.49 3.57e-43
2.29 1.75 1.49 3.57e-43
2.31 1.75 1.15 9.1477e-41
2.34 1.75 1.1 9.1477e-41
2.37 1.75 1.06 9.1477e-41
2.39 1.75 0.99 9.1477e-41
2.39 1.75 0.87 9.1477e-41
2.39 1.75 0.73 9.1477e-41
2.41 1.75 0.65 9.1477e-41
2.39 1.75 0.42 9.1477e-41
0.87 2 1.76 9.1477e-41
0.93 2 1.77 9.1477e-41
1 2 1.79 9.1477e-41
1.05 2 1.78 9.1477e-41
1.11 2 1.79 9.1477e-41
1.16 2 1.79 9.1477e-41
1.22 2 1.79 9.1477e-41
1.27 2 1.79 9.1477e-41
1.32 2 1.78 9.1477e-41
1.38 2 1.79 9.1477e-41
1.43 2 1.79 9.1477e-41
1.48 2 1.8 9.1477e-41
1.53 2 1.8 9.1477e-41
1.57 2 1.79 9.1477e-41
1.62 2 1.79 9.1477e-41
1.67 2 1.79 9.1477e-41
1.71 2 1.79 9.1477e-41
1.76 2 1.78 9.1477e-41
1.81 2 1.79 9.1477e-41
1.85 2 1.78 9.1477e-41
1.89 2 1.78 9.1477e-41
1.93 2 1.77 9.1477e-41
1.98 2 1.77 9.1477e-41
2.02 2 1.76 9.1477e-41
2.05 2 1.75 9.1477e-41
2.09 2 1.75 9.1477e-41
2.14 2 1.75 9.1477e-41
2.18 2 1.75 9.1477e-41
2.21 2 1.71 9.1477e-41
2.24 2 1.69 9.1477e-41
2.26 2 1.69 3.57e-43
2.27 2 1.69 3.57e-43
2.28 2 1.69 3.57e-43
2.12 2 1.69 3.57e-43
2.29 2 1.69 3.57e-43
2.29 2 1.21 9.1477e-41
2.34 2 1.22 9.1477e-41
2.36 2 1.16 9.1477e-41
2.38 2 1.09 9.1477e-41
2.39 2 0.99 9.1477e-41
2.4 2 0.88 9.1477e-41
2.4 2 0.74 9.1477e-41
2.41 2 0.65 9.1477e-41
2.38 2 0.4 9.1477e-41
0.89 2.25 1.79 9.1477e-41
0.95 2.25 1.8 9.1477e-41
1.01 2.25 1.8 9.1477e-41
1.07 2.25 1.81 9.1477e-41
1.14 2.25 1.82 9.1477e-41
1.19 2.25 1.83 9.1477e-41
1.25 2.25 1.82 9.1477e-41
1.3 2.25 1.82 9.1477e-41
1.35 2.25 1.82 9.1477e-41
1.39 2.25 1.82 9.1477e-41
1.45 2.25 1.83 9.1477e-41
1.5 2.25 1.83 9.1477e-41
1.55 2.25 1.82 9.1477e-41
1.6 2.25 1.83 9.1477e-41
1.64 2.25 1.82 9.1477e-41
1.68 2.25 1.82 9.1477e-41
1.73 2.25 1.81 9.1477e-41
1.78 2.25 1.82 9.1477e-41
1.82 2.25 1.81 9.1477e-41
1.87 2.25 1.81 9.1477e-41
1.91 2.25 1.81 9.1477e-41
1.95 2.25 1.81 9.1477e-41
1.99 2.25 1.8 9.1477e-41
2.03 2.25 1.8 9.1477e-41
2.07 2.25 1.79 9.1477e-41
2.11 2.25 1.78 9.1477e-41
2.15 2.25 1.78 9.1477e-41
2.19 2.25 1.77 9.1477e-41
2.21 2.25 1.73 9.1477e-41
2.24 2.25 1.71 9.1477e-41
2.26 2.25 1.64 9.1477e-41
2.28 2.25 1.59 9.1477e-41
2.29 2.25 1.53 9.1477e-41
2.31 2.25 1.46 9.1477e-41
2.33 2.25 1.42 9.1477e-41
2.34 2.25 1.34 9.1477e-41
2.35 2.25 1.26 9.1477e-41
2.37 2.25 1.18 9.1477e-41
2.38 2.25 1.09 9.1477e-41
2.39 2.25 1 9.1477e-41
2.4 2.25 0.89 9.1477e-41
2.39 2.25 0.73 9.1477e-41
2.41 2.25 0.65 9.1477e-41
2.39 2.25 0.43 9.1477e-41
0.9 2.5 1.8 9.1477e-41
0.98 2.5 1.83 9.1477e-41
1.04 2.5 1.83 9.1477e-41
1.09 2.5 1.83 9.1477e-41
1.15 2.5 1.84 9.1477e-41
1.2 2.5 1.83 9.1477e-41
1.25 2.5 1.83 9.1477e-41
1.31 2.5 1.84 9.1477e-41
1.35 2.5 1.83 9.1477e-41
1.41 2.5 1.84 9.1477e-41
1.46 2.5 1.84 9.1477e-41
1.51 2.5 1.84 9.1477e-41
1.56 2.5 1.85 9.1477e-41
1.61 2.5 1.84 9.1477e-41
1.66 2.5 1.85 9.1477e-41
1.69 2.5 1.83 9.1477e-41
1.74 2.5 1.84 9.1477e-41
1.79 2.5 1.83 9.1477e-41
1.83 2.5 1.83 9.1477e-41
1.88 2.5 1.83 9.1477e-41
1.92 2.5 1.83 9.1477e-41
1.96 2.5 1.83 9.1477e-41
2.01 2.5 1.83 9.1477e-41
2.04 2.5 1.81 9.1477e-41
2.08 2.5 1.81 9.1477e-41
2.12 2.5 1.79 9.1477e-41
2.17 2.5 1.81 9.1477e-41
2.19 2.5 1.77 9.1477e-41
2.22 2.5 1.75 9.1477e-41
2.24 2.5 1.75 3.57e-43
2.26 2.5 1.75 3.57e-43
2.28 2.5 1.75 3.57e-43
2.29 2.5 1.75 3.57e-43
2.31 2.5 1.75 3.57e-43
2.33 2.5 1.75 3.57e-43
2.34 2.5 1.75 3.57e-43
2.35 2.5 1.26 9.1477e-41
2.36 2.5 1.15 9.1477e-41
2.38 2.5 1.09 9.1477e-41
2.39 2.5 1 9.1477e-41
2.4 2.5 0.9 9.1477e-41
2.41 2.5 0.77 9.1477e-41
2.41 2.5 0.63 9.1477e-41
2.38 2.5 0.41 9.1477e-41
0.92 2.75 1.82 9.1477e-41
0.99 2.75 1.84 9.1477e-41
1.04 2.75 1.84 9.1477e-41
1.1 2.75 1.85 9.1477e-41
1.16 2.75 1.85 9.1477e-41
1.22 2.75 1.86 9.1477e-41
1.26 2.75 1.85 9.1477e-41
1.31 2.75 1.85 9.1477e-41
1.37 2.75 1.86 9.1477e-41
1.42 2.75 1.85 9.1477e-41
1.47 2.75 1.85 9.1477e-41
1.52 2.75 1.85 9.1477e-41
1.57 2.75 1.86 9.1477e-41
1.61 2.75 1.85 9.1477e-41
1.66 2.75 1.85 9.1477e-41
1.71 2.75 1.85 9.1477e-41
1.75 2.75 1.85 9.1477e-41
1.79 2.75 1.84 9.1477e-41
1.84 2.75 1.84 9.1477e-41
1.89 2.75 1.85 9.1477e-41
1.93 2.75 1.85 9.1477e-41
1.97 2.75 1.84 9.1477e-41
2.01 2.75 1.84 9.1477e-41
2.05 2.75 1.83 9.1477e-41
2.09 2.75 1.82 9.1477e-41
2.13 2.75 1.82 9.1477e-41
2.17 2.75 1.81 9.1477e-41
2.2 2.75 1.78 9.1477e-41
2.22 2.75 1.75 9.1477e-41
2.24 2.75 1.75 3.57e-43
2.26 2.75 1.75 3.57e-43
2.28 2.75 1.75 3.57e-43
2.29 2.75 1.75 3.57e-43
2.31 2.75 1.75 3.57e-43
2.33 2.75 1.75 3.57e-43
2.34 2.75 1.75 3.57e-43
2.35 2.75 1.26 9.1477e-41
2.36 2.75 1.16 9.1477e-41
2.38 2.75 1.09 9.1477e-41
2.39 2.75 1 9.1477e-41
2.4 2.75 0.9 9.1477e-41
2.4 2.75 0.76 9.1477e-41
2.4 2.75 0.62 9.1477e-41
0.93 3 1.83 9.1477e-41
1 3 1.85 9.1477e-41
1.06 3 1.86 9.1477e-41
1.11 3 1.85 9.1477e-41
1.17 3 1.86 9.1477e-41
1.22 3 1.86 9.1477e-41
1.27 3 1.86 9.1477e-41
1.33 3 1.86 9.1477e-41
1.37 3 1.86 9.1477e-41
1.43 3 1.87 9.1477e-41
1.47 3 1.86 9.1477e-41
1.53 3 1.87 9.1477e-41
1.57 3 1.86 9.1477e-41
1.62 3 1.86 9.1477e-41
1.67 3 1.86 9.1477e-41
1.71 3 1.86 9.1477e-41
1.75 3 1.86 9.1477e-41
1.8 3 1.86 9.1477e-41
1.85 3 1.86 9.1477e-41
1.89 3 1.85 9.1477e-41
1.93 3 1.85 9.1477e-41
1.98 3 1.85 9.1477e-41
2.01 3 1.84 9.1477e-41
2.05 3 1.83 9.1477e-41
2.09 3 1.83 9.1477e-41
2.13 3 1.82 9.1477e-41
2.17 3 1.81 9.1477e-41
2.2 3 1.78 9.1477e-41
2.22 3 1.74 9.1477e-41
2.24 3 1.74 3.57e-43
2.26 3 1.74 3.57e-43
2.28 3 1.74 3.57e-43
2.29 3 1.74 3.57e-43
2.31 3 1.74 3.57e-43
2.33 3 1.74 3.57e-43
2.34 3 1.74 3.57e-43
2.35 3 1.26 9.1477e-41
2.36 3 1.17 9.1477e-41
2.38 3 1.08 9.1477e-41
2.39 3 0.99 9.1477e-41
2.39 3 0.87 9.1477e-41
2.41 3 0.78 9.1477e-41
2.41 3 0.64 9.1477e-41
0.93 3.25 1.84 9.1477e-41
1 3.25 1.85 9.1477e-41
1.05 3.25 1.85 9.1477e-41
1.11 3.25 1.85 9.1477e-41
1.17 3.25 1.86 9.1477e-41
1.22 3.25 1.86 9.1477e-41
1.27 3.25 1.86 9.1477e-41
1.33 3.25 1.86 9.1477e-41
1.37 3.25 1.86 9.1477e-41
1.43 3.25 1.87 9.1477e-41
1.48 3.25 1.87 9.1477e-41
1.52 3.25 1.85 9.1477e-41
1.57 3.25 1.86 9.1477e-41
1.62 3.25 1.87 9.1477e-41
1.66 3.25 1.85 9.1477e-41
1.71 3.25 1.86 9.1477e-41
1.75 3.25 1.86 9.1477e-41
1.8 3.25 1.86 9.1477e-41
1.84 3.25 1.85 9.1477e-41
1.89 3.25 1.85 9.1477e-41
1.93 3.25 1.85 9.1477e-41
1.97 3.25 1.84 9.1477e-41
2.01 3.25 1.83 9.1477e-41
2.05 3.25 1.83 9.1477e-41
2.09 3.25 1.82 9.1477e-41
2.13 3.25 1.83 9.1477e-41
2.17 3.25 1.81 9.1477e-41
2.2 3.25 1.78 9.1477e-41
2.22 3.25 1.75 9.1477e-41
2.24 3.25 1.75 3.57e-43
2.26 3.25 1.75 3.57e-43
2.28 3.25 1.75 3.57e-43
2.29 3.25 1.75 3.57e-43
2.31 3.25 1.75 3.57e-43
2.33 3.25 1.75 3.57e-43
2.34 3.25 1.34 9.1477e-41
2.33 3.25 1.19 9.1477e-41
2.36 3.25 1.16 9.1477e-41
2.37 3.25 1.07 9.1477e-41
2.38 3.25 0.98 9.1477e-41
2.4 3.25 0.89 9.1477e-41
2.42 3.25 0.8 9.1477e-41
2.38 3.25 0.54 9.1477e-41
0.91 3.5 1.82 9.1477e-41
0.99 3.5 1.84 9.1477e-41
1.05 3.5 1.85 9.1477e-41
1.1 3.5 1.85 9.1477e-41
1.16 3.5 1.85 9.1477e-41
1.21 3.5 1.85 9.1477e-41
1.26 3.5 1.85 9.1477e-41
1.33 3.5 1.86 9.1477e-41
1.37 3.5 1.86 9.1477e-41
1.42 3.5 1.86 9.1477e-41
1.47 3.5 1.85 9.1477e-41
1.52 3.5 1.86 9.1477e-41
1.57 3.5 1.86 9.1477e-41
1.62 3.5 1.86 9.1477e-41
1.66 3.5 1.85 9.1477e-41
1.71 3.5 1.85 9.1477e-41
1.75 3.5 1.86 9.1477e-41
1.79 3.5 1.84 9.1477e-41
1.84 3.5 1.85 9.1477e-41
1.89 3.5 1.85 9.1477e-41
1.93 3.5 1.85 9.1477e-41
1.97 3.5 1.84 9.1477e-41
2.01 3.5 1.84 9.1477e-41
2.05 3.5 1.83 9.1477e-41
2.09 3.5 1.82 9.1477e-41
2.13 3.5 1.82 9.1477e-41
2.16 3.5 1.79 9.1477e-41
2.19 3.5 1.77 9.1477e-41
2.22 3.5 1.74 9.1477e-41
2.24 3.5 1.69 9.1477e-41
2.26 3.5 1.69 3.57e-43
2.28 3.5 1.69 3.57e-43
2.29 3.5 1.69 3.57e-43
2.31 3.5 1.69 3.57e-43
2.33 3.5 1.69 3.57e-43
2.34 3.5 1.34 9.1477e-41
2.33 3.5 1.2 9.1477e-41
2.36 3.5 1.15 9.1477e-41
2.36 3.5 1.05 9.1477e-41
2.38 3.5 0.96 9.1477e-41
2.39 3.5 0.87 9.1477e-41
2.41 3.5 0.79 9.1477e-41
2.37 3.5 0.53 9.1477e-41
0.97 3.75 1.75 9.1477e-41
1.04 3.75 1.77 9.1477e-41
1.13 3.75 1.81 9.1477e-41
1.19 3.75 1.83 9.1477e-41
1.25 3.75 1.82 9.1477e-41
1.3 3.75 1.82 9.1477e-41
1.35 3.75 1.82 9.1477e-41
1.4 3.75 1.82 9.1477e-41
1.46 3.75 1.83 9.1477e-41
1.51 3.75 1.84 9.1477e-41
1.55 3.75 1.83 9.1477e-41
1.6 3.75 1.83 9.1477e-41
1.65 3.75 1.84 9.1477e-41
1.69 3.75 1.83 9.1477e-41
1.74 3.75 1.83 9.1477e-41
1.78 3.75 1.83 9.1477e-41
1.83 3.75 1.83 9.1477e-41
1.87 3.75 1.82 9.1477e-41
1.91 3.75 1.82 9.1477e-41
1.96 3.75 1.82 9.1477e-41
2 3.75 1.81 9.1477e-41
2.03 3.75 1.8 9.1477e-41
2.08 3.75 1.81 9.1477e-41
2.12 3.75 1.79 9.1477e-41
2.15 3.75 1.76 9.1477e-41
2.17 3.75 1.74 9.1477e-41
2.2 3.75 1.7 9.1477e-41
2.23 3.75 1.67 9.1477e-41
2.25 3.75 1.62 9.1477e-41
2.26 3.75 1.56 9.1477e-41
2.28 3.75 1.49 9.1477e-41
2.3 3.75 1.44 9.1477e-41
2.31 3.75 1.37 9.1477e-41
2.32 3.75 1.29 9.1477e-41
2.34 3.75 1.21 9.1477e-41
2.35 3.75 1.13 9.1477e-41
2.36 3.75 1.03 9.1477e-41
2.36 3.75 0.91 9.1477e-41
2.36 3.75 0.78 9.1477e-41
2.37 3.75 0.67 9.1477e-41
2.36 3.75 0.48 9.1477e-41
