# .PCD v.7 - Point Cloud Data file format
VERSION .7
FIELDS x y z rgb
SIZE 4 4 4 4
TYPE F F F F
WIDTH 689
HEIGHT 1
POINTS 689
DATA ascii
1.02 0 0.76 9.1477e-41
1.06 0 0.76 3.57e-43
0.72 0 0.76 3.57e-43
0.79 0 0.76 3.57e-43
0.85 0 0.76 3.57e-43
0.91 0 0.76 3.57e-43
0.97 0 0.76 3.57e-43
1.04 0 0.76 3.57e-43
1.1 0 0.76 3.57e-43
1.17 0 0.76 3.57e-43
1.23 0 0.76 3.57e-43
1.29 0 0.76 3.57e-43
1.35 0 0.76 3.57e-43
1.41 0 0.76 3.57e-43
1.47 0 0.76 3.57e-43
1.86 0 0.65 9.1477e-41
1.92 0 0.67 9.1477e-41
1.98 0 0.7 9.1477e-41
2.02 0 0.67 9.1477e-41
2.06 0 0.63 9.1477e-41
2.07 0 0.54 9.1477e-41
0.86 0.23 0.87 9.1477e-41
0.98 0.23 0.96 9.1477e-41
1.03 0.23 0.96 9.1477e-41
1.1 0.23 0.97 9.1477e-41
1.16 0.23 0.99 9.1477e-41
1.22 0.23 0.98 9.1477e-41
1.28 0.23 0.99 9.1477e-41
1.33 0.23 0.98 9.1477e-41
1.39 0.23 0.98 9.1477e-41
1.45 0.23 0.99 9.1477e-41
1.49 0.23 0.98 9.1477e-41
1.55 0.23 0.99 9.1477e-41
1.6 0.23 0.98 9.1477e-41
1.65 0.23 0.98 9.1477e-41
1.7 0.23 0.98 9.1477e-41
1.75 0.23 0.97 9.1477e-41
1.8 0.23 0.97 9.1477e-41
1.85 0.23 0.96 9.1477e-41
1.89 0.23 0.95 9.1477e-41
1.94 0.23 0.95 9.1477e-41
1.99 0.23 0.94 9.1477e-41
2.03 0.23 0.93 9.1477e-41
2.04 0.23 0.82 9.1477e-41
2.07 0.23 0.8 9.1477e-41
2.11 0.23 0.75 9.1477e-41
2.17 0.23 0.8 9.1477e-41
2.22 0.23 0.78 9.1477e-41
2.25 0.23 0.75 9.1477e-41
2.28 0.23 0.68 9.1477e-41
2.3 0.23 0.61 9.1477e-41
0.74 0.46 0.98 9.1477e-41
0.85 0.46 1.05 9.1477e-41
0.92 0.46 1.05 9.1477e-41
0.97 0.46 1.05 9.1477e-41
1.04 0.46 1.06 9.1477e-41
1.09 0.46 1.05 9.1477e-41
1.15 0.46 1.05 9.1477e-41
1.21 0.46 1.06 9.1477e-41
1.27 0.46 1.06 9.1477e-41
1.32 0.46 1.06 9.1477e-41
1.38 0.46 1.07 9.1477e-41
1.43 0.46 1.05 9.1477e-41
1.49 0.46 1.06 9.1477e-41
1.54 0.46 1.07 9.1477e-41
1.59 0.46 1.06 9.1477e-41
1.64 0.46 1.06 9.1477e-41
1.69 0.46 1.05 9.1477e-41
1.73 0.46 1.04 9.1477e-41
1.79 0.46 1.05 9.1477e-41
1.84 0.46 1.05 9.1477e-41
1.89 0.46 1.04 9.1477e-41
1.93 0.46 1.03 9.1477e-41
1.98 0.46 1.03 9.1477e-41
2.02 0.46 1.03 9.1477e-41
2.07 0.46 1.02 9.1477e-41
2.11 0.46 1.01 9.1477e-41
2.16 0.46 1 9.1477e-41
2.2 0.46 0.98 9.1477e-41
2.23 0.46 0.94 9.1477e-41
2.27 0.46 0.91 9.1477e-41
2.3 0.46 0.88 9.1477e-41
2.32 0.46 0.8 9.1477e-41
2.34 0.46 0.73 9.1477e-41
2.36 0.46 0.64 9.1477e-41
0.76 0.69 1.08 9.1477e-41
0.84 0.69 1.11 9.1477e-41
0.9 0.69 1.11 9.1477e-41
0.96 0.69 1.12 9.1477e-41
1.03 0.69 1.12 9.1477e-41
1.09 0.69 1.13 9.1477e-41
1.14 0.69 1.12 9.1477e-41
1.19 0.69 1.12 9.1477e-41
1.25 0.69 1.13 9.1477e-41
1.3 0.69 1.12 9.1477e-41
1.37 0.69 1.13 9.1477e-41
1.42 0.69 1.13 9.1477e-41
1.47 0.69 1.13 9.1477e-41
1.52 0.69 1.12 9.1477e-41
1.57 0.69 1.13 9.1477e-41
1.62 0.69 1.12 9.1477e-41
1.67 0.69 1.12 9.1477e-41
1.73 0.69 1.12 9.1477e-41
1.77 0.69 1.11 9.1477e-41
1.82 0.69 1.11 9.1477e-41
1.87 0.69 1.11 9.1477e-41
1.92 0.69 1.11 9.1477e-41
1.96 0.69 1.1 9.1477e-41
2 0.69 1.09 9.1477e-41
2.05 0.69 1.09 9.1477e-41
2.1 0.69 1.08 9.1477e-41
2.15 0.69 1.08 9.1477e-41
2.19 0.69 1.08 9.1477e-41
2.24 0.69 1.08 9.1477e-41
2.28 0.69 1.06 9.1477e-41
2.3 0.69 1.01 9.1477e-41
2.33 0.69 0.94 9.1477e-41
2.36 0.69 0.9 9.1477e-41
2.38 0.69 0.82 9.1477e-41
2.39 0.69 0.72 9.1477e-41
2.35 0.69 0.46 9.1477e-41
0.74 0.92 1.14 9.1477e-41
0.8 0.92 1.14 3.57e-43
0.84 0.92 1.14 3.57e-43
0.9 0.92 1.11 9.1477e-41
0.99 0.92 1.15 9.1477e-41
1.05 0.92 1.16 9.1477e-41
1.1 0.92 1.16 3.57e-43
1.14 0.92 1.16 3.57e-43
1.19 0.92 1.16 3.57e-43
1.25 0.92 1.16 3.57e-43
1.3 0.92 1.16 3.57e-43
1.37 0.92 1.16 3.57e-43
1.42 0.92 1.16 3.57e-43
1.47 0.92 1.16 3.57e-43
1.52 0.92 1.16 3.57e-43
1.57 0.92 1.16 3.57e-43
1.62 0.92 1.16 3.57e-43
1.67 0.92 1.16 3.57e-43
1.73 0.92 1.16 3.57e-43
1.77 0.92 1.16 3.57e-43
1.82 0.92 1.16 3.57e-43
1.87 0.92 1.16 3.57e-43
1.92 0.92 1.16 3.57e-43
1.96 0.92 1.16 3.57e-43
2 0.92 1.16 3.57e-43
2.05 0.92 1.09 9.1477e-41
2.09 0.92 1.06 9.1477e-41
2.14 0.92 1.06 9.1477e-41
2.21 0.92 1.13 9.1477e-41
2.26 0.92 1.13 9.1477e-41
2.3 0.92 1.11 9.1477e-41
2.32 0.92 1.06 9.1477e-41
2.34 0.92 0.98 9.1477e-41
2.36 0.92 0.91 9.1477e-41
2.38 0.92 0.83 9.1477e-41
2.4 0.92 0.74 9.1477e-41
2.35 0.92 0.46 9.1477e-41
0.8 1.15 1.3 9.1477e-41
0.82 1.15 1.3 3.57e-43
0.8 1.15 1.3 3.57e-43
0.84 1.15 1.3 3.57e-43
0.9 1.15 1.3 3.57e-43
0.99 1.15 1.3 3.57e-43
1.05 1.15 1.3 3.57e-43
1.1 1.15 1.3 3.57e-43
1.14 1.15 1.3 3.57e-43
1.19 1.15 1.3 3.57e-43
1.25 1.15 1.3 3.57e-43
1.3 1.15 1.3 3.57e-43
1.37 1.15 1.3 3.57e-43
1.42 1.15 1.3 3.57e-43
1.47 1.15 1.3 3.57e-43
1.52 1.15 1.3 3.57e-43
1.57 1.15 1.3 3.57e-43
1.62 1.15 1.3 3.57e-43
1.67 1.15 1.3 3.57e-43
1.73 1.15 1.3 3.57e-43
1.77 1.15 1.3 3.57e-43
1.82 1.15 1.3 3.57e-43
1.87 1.15 1.3 3.57e-43
1.92 1.15 1.3 3.57e-43
1.96 1.15 1.3 3.57e-43
2 1.15 1.3 3.57e-43
2.05 1.15 1.3 3.57e-43
2.09 1.15 1.06 9.1477e-41
2.22 1.15 1.27 9.1477e-41
2.27 1.15 1.26 9.1477e-41
2.29 1.15 1.22 9.1477e-41
2.32 1.15 1.18 9.1477e-41
2.32 1.15 1.05 9.1477e-41
2.34 1.15 0.98 9.1477e-41
2.35 1.15 0.89 9.1477e-41
2.37 1.15 0.8 9.1477e-41
2.39 1.15 0.71 9.1477e-41
2.38 1.15 0.56 9.1477e-41
0.72 1.38 1.43 9.1477e-41
0.81 1.38 1.47 9.1477e-41
0.86 1.38 1.47 3.57e-43
0.8 1.38 1.47 3.57e-43
0.82 1.38 1.47 3.57e-43
0.8 1.38 1.47 3.57e-43
0.84 1.38 1.47 3.57e-43
0.9 1.38 1.47 3.57e-43
0.99 1.38 1.47 3.57e-43
1.05 1.38 1.47 3.57e-43
1.1 1.38 1.47 3.57e-43
1.14 1.38 1.47 3.57e-43
1.19 1.38 1.47 3.57e-43
1.25 1.38 1.47 3.57e-43
1.3 1.38 1.47 3.57e-43
1.37 1.38 1.47 3.57e-43
1.42 1.38 1.47 3.57e-43
1.47 1.38 1.47 3.57e-43
1.52 1.38 1.47 3.57e-43
1.57 1.38 1.47 3.57e-43
1.62 1.38 1.47 3.57e-43
1.67 1.38 1.12 9.1477e-41
1.77 1.38 1.2 9.1477e-41
1.83 1.38 1.22 9.1477e-41
1.88 1.38 1.23 9.1477e-41
1.92 1.38 1.22 9.1477e-41
1.97 1.38 1.22 9.1477e-41
2 1.38 1.19 9.1477e-41
2.08 1.38 1.24 9.1477e-41
2.21 1.38 1.45 9.1477e-41
2.24 1.38 1.42 9.1477e-41
2.27 1.38 1.42 3.57e-43
2.27 1.38 1.42 3.57e-43
2.29 1.38 1.22 9.1477e-41
2.31 1.38 1.15 9.1477e-41
2.36 1.38 1.15 3.57e-43
2.34 1.38 0.98 9.1477e-41
2.42 1.38 1.08 9.1477e-41
2.38 1.38 0.84 9.1477e-41
2.38 1.38 0.68 9.1477e-41
2.39 1.38 0.57 9.1477e-41
0.87 1.61 1.62 9.1477e-41
0.95 1.61 1.65 9.1477e-41
1 1.61 1.64 9.1477e-41
1.07 1.61 1.66 9.1477e-41
1.12 1.61 1.66 9.1477e-41
1.18 1.61 1.66 9.1477e-41
1.23 1.61 1.66 9.1477e-41
1.28 1.61 1.65 9.1477e-41
1.34 1.61 1.66 9.1477e-41
1.39 1.61 1.66 9.1477e-41
1.43 1.61 1.66 9.1477e-41
1.49 1.61 1.67 9.1477e-41
1.53 1.61 1.65 9.1477e-41
1.58 1.61 1.66 9.1477e-41
1.63 1.61 1.65 9.1477e-41
1.67 1.61 1.65 9.1477e-41
1.72 1.61 1.65 9.1477e-41
1.77 1.61 1.65 9.1477e-41
1.82 1.61 1.65 9.1477e-41
1.86 1.61 1.64 9.1477e-41
1.9 1.61 1.63 9.1477e-41
1.94 1.61 1.63 9.1477e-41
1.98 1.61 1.62 9.1477e-41
2.03 1.61 1.62 9.1477e-41
2.07 1.61 1.61 9.1477e-41
2.1 1.61 1.59 9.1477e-41
2.15 1.61 1.6 9.1477e-41
2.19 1.61 1.6 9.1477e-41
2.23 1.61 1.58 9.1477e-41
2.25 1.61 1.58 3.57e-43
2.24 1.61 1.42 9.1477e-41
2.07 1.61 1.42 3.57e-43
2.27 1.61 1.42 3.57e-43
2.29 1.61 1.42 3.57e-43
2.31 1.61 1.15 9.1477e-41
2.33 1.61 1.08 9.1477e-41
2.35 1.61 1.02 9.1477e-41
2.37 1.61 0.95 9.1477e-41
2.39 1.61 0.85 9.1477e-41
2.38 1.61 0.7 9.1477e-41
2.38 1.61 0.56 9.1477e-41
0.88 1.84 1.7 9.1477e-41
0.96 1.84 1.74 9.1477e-41
1.02 1.84 1.74 9.1477e-41
1.08 1.84 1.74 9.1477e-41
1.13 1.84 1.75 9.1477e-41
1.19 1.84 1.74 9.1477e-41
1.24 1.84 1.75 9.1477e-41
1.29 1.84 1.74 9.1477e-41
1.35 1.84 1.75 9.1477e-41
1.4 1.84 1.75 9.1477e-41
1.45 1.84 1.75 9.1477e-41
1.5 1.84 1.75 9.1477e-41
1.55 1.84 1.75 9.1477e-41
1.59 1.84 1.74 9.1477e-41
1.64 1.84 1.75 9.1477e-41
1.68 1.84 1.74 9.1477e-41
1.74 1.84 1.75 9.1477e-41
1.78 1.84 1.74 9.1477e-41
1.83 1.84 1.74 9.1477e-41
1.86 1.84 1.72 9.1477e-41
1.9 1.84 1.72 9.1477e-41
1.95 1.84 1.72 9.1477e-41
1.99 1.84 1.72 9.1477e-41
2.03 1.84 1.71 9.1477e-41
2.07 1.84 1.7 9.1477e-41
2.11 1.84 1.69 9.1477e-41
2.15 1.84 1.68 9.1477e-41
2.2 1.84 1.69 9.1477e-41
2.22 1.84 1.65 9.1477e-41
2.24 1.84 1.65 3.57e-43
2.25 1.84 1.65 3.57e-43
2.24 1.84 1.65 3.57e-43
2.07 1.84 1.65 3.57e-43
2.27 1.84 1.65 3.57e-43
2.29 1.84 1.22 9.1477e-41
2.3 1.84 1.13 9.1477e-41
2.34 1.84 1.1 9.1477e-41
2.36 1.84 1.05 9.1477e-41
2.37 1.84 0.95 9.1477e-41
2.39 1.84 0.85 9.1477e-41
2.39 1.84 0.71 9.1477e-41
2.38 1.84 0.56 9.1477e-41
0.87 2.07 1.76 9.1477e-41
0.94 2.07 1.77 9.1477e-41
1 2.07 1.79 9.1477e-41
1.05 2.07 1.78 9.1477e-41
1.11 2.07 1.78 9.1477e-41
1.18 2.07 1.8 9.1477e-41
1.23 2.07 1.8 9.1477e-41
1.27 2.07 1.79 9.1477e-41
1.33 2.07 1.8 9.1477e-41
1.38 2.07 1.79 9.1477e-41
1.43 2.07 1.79 9.1477e-41
1.48 2.07 1.8 9.1477e-41
1.53 2.07 1.8 9.1477e-41
1.57 2.07 1.79 9.1477e-41
1.62 2.07 1.79 9.1477e-41
1.67 2.07 1.8 9.1477e-41
1.71 2.07 1.79 9.1477e-41
1.76 2.07 1.79 9.1477e-41
1.81 2.07 1.79 9.1477e-41
1.85 2.07 1.78 9.1477e-41
1.89 2.07 1.78 9.1477e-41
1.93 2.07 1.77 9.1477e-41
1.98 2.07 1.78 9.1477e-41
2.02 2.07 1.77 9.1477e-41
2.06 2.07 1.76 9.1477e-41
2.09 2.07 1.75 9.1477e-41
2.14 2.07 1.75 9.1477e-41
2.17 2.07 1.74 9.1477e-41
2.21 2.07 1.71 9.1477e-41
2.23 2.07 1.67 9.1477e-41
2.26 2.07 1.67 3.57e-43
2.25 2.07 1.67 3.57e-43
2.24 2.07 1.67 3.57e-43
2.07 2.07 1.67 3.57e-43
2.27 2.07 1.26 9.1477e-41
2.31 2.07 1.26 9.1477e-41
2.34 2.07 1.21 9.1477e-41
2.36 2.07 1.16 9.1477e-41
2.37 2.07 1.06 9.1477e-41
2.38 2.07 0.98 9.1477e-41
2.39 2.07 0.85 9.1477e-41
2.39 2.07 0.72 9.1477e-41
2.38 2.07 0.54 9.1477e-41
0.9 2.3 1.79 9.1477e-41
0.97 2.3 1.81 9.1477e-41
1.02 2.3 1.81 9.1477e-41
1.08 2.3 1.82 9.1477e-41
1.13 2.3 1.81 9.1477e-41
1.19 2.3 1.83 9.1477e-41
1.25 2.3 1.82 9.1477e-41
1.3 2.3 1.82 9.1477e-41
1.35 2.3 1.82 9.1477e-41
1.39 2.3 1.82 9.1477e-41
1.44 2.3 1.82 9.1477e-41
1.49 2.3 1.82 9.1477e-41
1.55 2.3 1.82 9.1477e-41
1.6 2.3 1.83 9.1477e-41
1.63 2.3 1.81 9.1477e-41
1.68 2.3 1.82 9.1477e-41
1.73 2.3 1.81 9.1477e-41
1.78 2.3 1.82 9.1477e-41
1.82 2.3 1.81 9.1477e-41
1.86 2.3 1.8 9.1477e-41
1.91 2.3 1.81 9.1477e-41
1.95 2.3 1.8 9.1477e-41
1.99 2.3 1.8 9.1477e-41
2.03 2.3 1.8 9.1477e-41
2.07 2.3 1.78 9.1477e-41
2.11 2.3 1.78 9.1477e-41
2.15 2.3 1.77 9.1477e-41
2.18 2.3 1.76 9.1477e-41
2.21 2.3 1.73 9.1477e-41
2.24 2.3 1.69 9.1477e-41
2.25 2.3 1.63 9.1477e-41
2.26 2.3 1.56 9.1477e-41
2.28 2.3 1.51 9.1477e-41
2.3 2.3 1.45 9.1477e-41
2.31 2.3 1.37 9.1477e-41
2.33 2.3 1.3 9.1477e-41
2.34 2.3 1.22 9.1477e-41
2.36 2.3 1.16 9.1477e-41
2.37 2.3 1.07 9.1477e-41
2.38 2.3 0.98 9.1477e-41
2.39 2.3 0.86 9.1477e-41
2.39 2.3 0.73 9.1477e-41
2.38 2.3 0.55 9.1477e-41
0.9 2.53 1.8 9.1477e-41
0.98 2.53 1.83 9.1477e-41
1.04 2.53 1.83 9.1477e-41
1.09 2.53 1.83 9.1477e-41
1.15 2.53 1.84 9.1477e-41
1.21 2.53 1.85 9.1477e-41
1.26 2.53 1.85 9.1477e-41
1.31 2.53 1.84 9.1477e-41
1.36 2.53 1.84 9.1477e-41
1.41 2.53 1.84 9.1477e-41
1.46 2.53 1.84 9.1477e-41
1.51 2.53 1.84 9.1477e-41
1.56 2.53 1.84 9.1477e-41
1.61 2.53 1.84 9.1477e-41
1.66 2.53 1.85 9.1477e-41
1.69 2.53 1.83 9.1477e-41
1.74 2.53 1.83 9.1477e-41
1.79 2.53 1.83 9.1477e-41
1.83 2.53 1.83 9.1477e-41
1.88 2.53 1.83 9.1477e-41
1.92 2.53 1.83 9.1477e-41
1.96 2.53 1.83 9.1477e-41
2 2.53 1.81 9.1477e-41
2.04 2.53 1.81 9.1477e-41
2.07 2.53 1.79 9.1477e-41
2.12 2.53 1.8 9.1477e-41
2.16 2.53 1.8 9.1477e-41
2.19 2.53 1.77 9.1477e-41
2.21 2.53 1.73 9.1477e-41
2.23 2.53 1.73 3.57e-43
2.25 2.53 1.73 3.57e-43
2.26 2.53 1.73 3.57e-43
2.28 2.53 1.73 3.57e-43
2.3 2.53 1.73 3.57e-43
2.31 2.53 1.73 3.57e-43
2.33 2.53 1.73 3.57e-43
2.34 2.53 1.22 9.1477e-41
2.35 2.53 1.14 9.1477e-41
2.37 2.53 1.06 9.1477e-41
2.38 2.53 0.98 9.1477e-41
2.39 2.53 0.85 9.1477e-41
2.4 2.53 0.74 9.1477e-41
2.38 2.53 0.54 9.1477e-41
0.91 2.76 1.81 9.1477e-41
0.99 2.76 1.84 9.1477e-41
1.04 2.76 1.84 9.1477e-41
1.1 2.76 1.84 9.1477e-41
1.17 2.76 1.86 9.1477e-41
1.21 2.76 1.85 9.1477e-41
1.27 2.76 1.86 9.1477e-41
1.32 2.76 1.86 9.1477e-41
1.37 2.76 1.85 9.1477e-41
1.42 2.76 1.86 9.1477e-41
1.47 2.76 1.85 9.1477e-41
1.52 2.76 1.85 9.1477e-41
1.57 2.76 1.86 9.1477e-41
1.61 2.76 1.85 9.1477e-41
1.66 2.76 1.85 9.1477e-41
1.71 2.76 1.85 9.1477e-41
1.75 2.76 1.85 9.1477e-41
1.79 2.76 1.84 9.1477e-41
1.84 2.76 1.85 9.1477e-41
1.89 2.76 1.85 9.1477e-41
1.92 2.76 1.84 9.1477e-41
1.96 2.76 1.83 9.1477e-41
2.01 2.76 1.83 9.1477e-41
2.05 2.76 1.83 9.1477e-41
2.08 2.76 1.81 9.1477e-41
2.13 2.76 1.82 9.1477e-41
2.16 2.76 1.8 9.1477e-41
2.19 2.76 1.77 9.1477e-41
2.21 2.76 1.73 9.1477e-41
2.24 2.76 1.73 3.57e-43
2.25 2.76 1.73 3.57e-43
2.26 2.76 1.73 3.57e-43
2.28 2.76 1.73 3.57e-43
2.3 2.76 1.73 3.57e-43
2.31 2.76 1.73 3.57e-43
2.33 2.76 1.73 3.57e-43
2.34 2.76 1.22 9.1477e-41
2.35 2.76 1.14 9.1477e-41
2.37 2.76 1.06 9.1477e-41
2.38 2.76 0.96 9.1477e-41
2.38 2.76 0.84 9.1477e-41
2.4 2.76 0.75 9.1477e-41
2.38 2.76 0.54 9.1477e-41
0.91 2.99 1.82 9.1477e-41
0.99 2.99 1.84 9.1477e-41
1.05 2.99 1.85 9.1477e-41
1.1 2.99 1.85 9.1477e-41
1.17 2.99 1.86 9.1477e-41
1.22 2.99 1.86 9.1477e-41
1.27 2.99 1.86 9.1477e-41
1.33 2.99 1.86 9.1477e-41
1.37 2.99 1.86 9.1477e-41
1.43 2.99 1.87 9.1477e-41
1.48 2.99 1.87 9.1477e-41
1.52 2.99 1.86 9.1477e-41
1.57 2.99 1.86 9.1477e-41
1.62 2.99 1.87 9.1477e-41
1.66 2.99 1.85 9.1477e-41
1.71 2.99 1.86 9.1477e-41
1.75 2.99 1.85 9.1477e-41
1.79 2.99 1.84 9.1477e-41
1.85 2.99 1.86 9.1477e-41
1.89 2.99 1.85 9.1477e-41
1.93 2.99 1.85 9.1477e-41
1.97 2.99 1.84 9.1477e-41
2.01 2.99 1.83 9.1477e-41
2.05 2.99 1.83 9.1477e-41
2.09 2.99 1.82 9.1477e-41
2.13 2.99 1.83 9.1477e-41
2.17 2.99 1.81 9.1477e-41
2.19 2.99 1.77 9.1477e-41
2.22 2.99 1.74 9.1477e-41
2.24 2.99 1.74 3.57e-43
2.25 2.99 1.74 3.57e-43
2.26 2.99 1.74 3.57e-43
2.28 2.99 1.74 3.57e-43
2.3 2.99 1.74 3.57e-43
2.31 2.99 1.74 3.57e-43
2.33 2.99 1.3 9.1477e-41
2.32 2.99 1.17 9.1477e-41
2.36 2.99 1.15 9.1477e-41
2.37 2.99 1.06 9.1477e-41
2.38 2.99 0.96 9.1477e-41
2.38 2.99 0.83 9.1477e-41
2.4 2.99 0.75 9.1477e-41
2.39 2.99 0.57 9.1477e-41
0.92 3.22 1.82 9.1477e-41
0.99 3.22 1.84 9.1477e-41
1.05 3.22 1.85 9.1477e-41
1.11 3.22 1.85 9.1477e-41
1.17 3.22 1.86 9.1477e-41
1.22 3.22 1.87 9.1477e-41
1.28 3.22 1.86 9.1477e-41
1.33 3.22 1.86 9.1477e-41
1.37 3.22 1.86 9.1477e-41
1.42 3.22 1.86 9.1477e-41
1.47 3.22 1.86 9.1477e-41
1.52 3.22 1.86 9.1477e-41
1.57 3.22 1.86 9.1477e-41
1.61 3.22 1.85 9.1477e-41
1.66 3.22 1.85 9.1477e-41
1.71 3.22 1.86 9.1477e-41
1.76 3.22 1.86 9.1477e-41
1.8 3.22 1.85 9.1477e-41
1.84 3.22 1.85 9.1477e-41
1.89 3.22 1.86 9.1477e-41
1.93 3.22 1.85 9.1477e-41
1.97 3.22 1.84 9.1477e-41
2.01 3.22 1.83 9.1477e-41
2.05 3.22 1.83 9.1477e-41
2.09 3.22 1.82 9.1477e-41
2.13 3.22 1.83 9.1477e-41
2.16 3.22 1.79 9.1477e-41
2.19 3.22 1.77 9.1477e-41
2.21 3.22 1.72 9.1477e-41
2.24 3.22 1.72 3.57e-43
2.25 3.22 1.72 3.57e-43
2.26 3.22 1.72 3.57e-43
2.28 3.22 1.72 3.57e-43
2.3 3.22 1.72 3.57e-43
2.31 3.22 1.72 3.57e-43
2.33 3.22 1.3 9.1477e-41
2.32 3.22 1.18 9.1477e-41
2.35 3.22 1.14 9.1477e-41
2.36 3.22 1.04 9.1477e-41
2.38 3.22 0.96 9.1477e-41
2.39 3.22 0.87 9.1477e-41
2.4 3.22 0.76 9.1477e-41
2.36 3.22 0.49 9.1477e-41
0.91 3.45 1.82 9.1477e-41
1 3.45 1.85 9.1477e-41
1.04 3.45 1.84 9.1477e-41
1.11 3.45 1.85 9.1477e-41
1.16 3.45 1.85 9.1477e-41
1.21 3.45 1.84 9.1477e-41
1.28 3.45 1.86 9.1477e-41
1.32 3.45 1.86 9.1477e-41
1.37 3.45 1.86 9.1477e-41
1.42 3.45 1.86 9.1477e-41
1.47 3.45 1.85 9.1477e-41
1.52 3.45 1.85 9.1477e-41
1.56 3.45 1.85 9.1477e-41
1.61 3.45 1.85 9.1477e-41
1.66 3.45 1.85 9.1477e-41
1.71 3.45 1.85 9.1477e-41
1.75 3.45 1.86 9.1477e-41
1.79 3.45 1.84 9.1477e-41
1.84 3.45 1.84 9.1477e-41
1.89 3.45 1.85 9.1477e-41
1.92 3.45 1.84 9.1477e-41
1.97 3.45 1.84 9.1477e-41
2.01 3.45 1.83 9.1477e-41
2.05 3.45 1.83 9.1477e-41
2.09 3.45 1.82 9.1477e-41
2.13 3.45 1.82 9.1477e-41
2.16 3.45 1.79 9.1477e-41
2.19 3.45 1.77 9.1477e-41
2.21 3.45 1.71 9.1477e-41
2.23 3.45 1.71 3.57e-43
2.25 3.45 1.71 3.57e-43
2.26 3.45 1.71 3.57e-43
2.28 3.45 1.71 3.57e-43
2.3 3.45 1.71 3.57e-43
2.31 3.45 1.71 3.57e-43
2.33 3.45 1.3 9.1477e-41
2.32 3.45 1.18 9.1477e-41
2.35 3.45 1.12 9.1477e-41
2.36 3.45 1.03 9.1477e-41
2.37 3.45 0.94 9.1477e-41
2.39 3.45 0.85 9.1477e-41
2.4 3.45 0.75 9.1477e-41
2.35 3.45 0.47 9.1477e-41
0.97 3.68 1.81 9.1477e-41
1.03 3.68 1.82 9.1477e-41
1.1 3.68 1.84 9.1477e-41
1.15 3.68 1.84 9.1477e-41
1.2 3.68 1.83 9.1477e-41
1.26 3.68 1.84 9.1477e-41
1.31 3.68 1.85 9.1477e-41
1.36 3.68 1.84 9.1477e-41
1.42 3.68 1.85 9.1477e-41
1.46 3.68 1.84 9.1477e-41
1.51 3.68 1.84 9.1477e-41
1.56 3.68 1.84 9.1477e-41
1.61 3.68 1.84 9.1477e-41
1.66 3.68 1.85 9.1477e-41
1.7 3.68 1.84 9.1477e-41
1.74 3.68 1.84 9.1477e-41
1.79 3.68 1.83 9.1477e-41
1.83 3.68 1.83 9.1477e-41
1.88 3.68 1.83 9.1477e-41
1.92 3.68 1.83 9.1477e-41
1.96 3.68 1.83 9.1477e-41
2 3.68 1.82 9.1477e-41
2.04 3.68 1.82 9.1477e-41
2.09 3.68 1.82 9.1477e-41
2.12 3.68 1.8 9.1477e-41
2.16 3.68 1.79 9.1477e-41
2.18 3.68 1.75 9.1477e-41
2.21 3.68 1.72 9.1477e-41
2.22 3.68 1.65 9.1477e-41
2.24 3.68 1.61 9.1477e-41
2.26 3.68 1.55 9.1477e-41
2.28 3.68 1.49 9.1477e-41
2.29 3.68 1.43 9.1477e-41
2.3 3.68 1.35 9.1477e-41
2.32 3.68 1.28 9.1477e-41
2.33 3.68 1.2 9.1477e-41
2.34 3.68 1.1 9.1477e-41
2.34 3.68 0.99 9.1477e-41
2.35 3.68 0.88 9.1477e-41
2.36 3.68 0.76 9.1477e-41
2.37 3.68 0.66 9.1477e-41
2.34 3.68 0.43 9.1477e-41
1.7 3.91 1.84 9.1477e-41
0.89 3.91 0.44 9.1477e-41
0.97 3.91 0.47 9.1477e-41
1.05 3.91 0.51 9.1477e-41
1.09 3.91 0.51 3.57e-43
1.92 3.91 1.83 9.1477e-41
1.52 3.91 1.02 9.1477e-41
1.57 3.91 1.02 3.57e-43
2.04 3.91 1.02 3.57e-43
2.09 3.91 1.82 9.1477e-41
1.59 3.91 0.76 9.1477e-41
1.61 3.91 0.68 9.1477e-41
1.61 3.91 0.59 9.1477e-41
1.66 3.91 0.57 9.1477e-41
1.7 3.91 0.55 9.1477e-41
1.76 3.91 0.56 9.1477e-41
1.82 3.91 0.56 9.1477e-41
1.87 3.91 0.55 9.1477e-41
1.91 3.91 0.54 9.1477e-41
1.97 3.91 0.55 9.1477e-41
2.02 3.91 0.53 9.1477e-41
2.07 3.91 0.54 9.1477e-41
2.12 3.91 0.54 9.1477e-41
2.18 3.91 0.54 9.1477e-41
2.23 3.91 0.54 9.1477e-41
2.28 3.91 0.55 9.1477e-41
