# .PCD v.7 - Point Cloud Data file format
VERSION .7
FIELDS x y z rgb
SIZE 4 4 4 4
TYPE F F F F
WIDTH 1894
HEIGHT 1
POINTS 1894
DATA ascii
5.99 0.21 0.68 9.1477e-41
6.02 0.21 0.73 9.1477e-41
6.09 0.21 0.7 9.1477e-41
6.15 0.21 0.7 3.57e-43
6.17 0.21 0.75 9.1477e-41
6.22 0.21 0.75 9.1477e-41
6.22 0.21 0.87 9.1477e-41
6.27 0.21 0.88 9.1477e-41
6.33 0.21 0.87 9.1477e-41
6.37 0.21 0.9 9.1477e-41
6.42 0.21 0.9 9.1477e-41
6.47 0.21 0.9 9.1477e-41
6.52 0.21 0.91 9.1477e-41
6.57 0.21 0.91 9.1477e-41
6.63 0.21 0.92 9.1477e-41
6.69 0.21 0.91 9.1477e-41
6.74 0.21 0.92 9.1477e-41
6.8 0.21 0.9 9.1477e-41
6.85 0.21 0.92 9.1477e-41
6.92 0.21 0.91 9.1477e-41
6.98 0.21 0.9 9.1477e-41
7.04 0.21 0.89 9.1477e-41
7.1 0.21 0.88 9.1477e-41
7.17 0.21 0.87 9.1477e-41
7.24 0.21 0.86 9.1477e-41
7.38 0.21 0.74 9.1477e-41
5.92 0.28 0.44 9.1477e-41
5.93 0.28 0.58 9.1477e-41
5.94 0.28 0.68 9.1477e-41
5.98 0.28 0.73 9.1477e-41
6.02 0.28 0.74 9.1477e-41
6.11 0.28 0.64 9.1477e-41
6.15 0.28 0.68 9.1477e-41
6.18 0.28 0.72 9.1477e-41
6.19 0.28 0.84 9.1477e-41
6.21 0.28 0.9 9.1477e-41
6.25 0.28 0.91 9.1477e-41
6.31 0.28 0.91 9.1477e-41
6.35 0.28 0.93 9.1477e-41
6.4 0.28 0.93 9.1477e-41
6.46 0.28 0.93 9.1477e-41
6.51 0.28 0.92 9.1477e-41
6.56 0.28 0.94 9.1477e-41
6.61 0.28 0.94 9.1477e-41
6.67 0.28 0.93 9.1477e-41
6.72 0.28 0.94 9.1477e-41
6.78 0.28 0.94 9.1477e-41
6.84 0.28 0.94 9.1477e-41
6.91 0.28 0.93 9.1477e-41
6.96 0.28 0.94 9.1477e-41
7.02 0.28 0.93 9.1477e-41
7.08 0.28 0.92 9.1477e-41
7.15 0.28 0.9 9.1477e-41
7.21 0.28 0.9 9.1477e-41
7.28 0.28 0.9 3.57e-43
5.91 0.35 0.5 9.1477e-41
5.92 0.35 0.61 9.1477e-41
5.93 0.35 0.71 9.1477e-41
5.96 0.35 0.76 9.1477e-41
6.01 0.35 0.76 9.1477e-41
6.07 0.35 0.74 9.1477e-41
6.16 0.35 0.66 9.1477e-41
6.2 0.35 0.68 9.1477e-41
6.15 0.35 0.93 9.1477e-41
6.19 0.35 0.95 9.1477e-41
6.24 0.35 0.94 9.1477e-41
6.29 0.35 0.95 9.1477e-41
6.34 0.35 0.94 9.1477e-41
6.39 0.35 0.96 9.1477e-41
6.44 0.35 0.97 9.1477e-41
6.5 0.35 0.96 9.1477e-41
6.55 0.35 0.96 9.1477e-41
6.6 0.35 0.96 9.1477e-41
6.66 0.35 0.96 9.1477e-41
6.71 0.35 0.97 9.1477e-41
6.77 0.35 0.96 9.1477e-41
6.83 0.35 0.96 9.1477e-41
6.89 0.35 0.96 9.1477e-41
6.94 0.35 0.96 9.1477e-41
7 0.35 0.96 9.1477e-41
7.07 0.35 0.94 9.1477e-41
7.13 0.35 0.94 9.1477e-41
7.2 0.35 0.93 9.1477e-41
7.27 0.35 0.92 9.1477e-41
7.33 0.35 0.92 9.1477e-41
7.48 0.35 0.79 9.1477e-41
5.89 0.42 0.54 9.1477e-41
5.9 0.42 0.65 9.1477e-41
5.92 0.42 0.72 9.1477e-41
5.95 0.42 0.78 9.1477e-41
6 0.42 0.79 9.1477e-41
6.04 0.42 0.82 9.1477e-41
6.04 0.42 0.93 9.1477e-41
6.1 0.42 0.92 9.1477e-41
6.13 0.42 0.96 9.1477e-41
6.18 0.42 0.96 9.1477e-41
6.23 0.42 0.97 9.1477e-41
6.28 0.42 0.97 9.1477e-41
6.33 0.42 0.97 9.1477e-41
6.38 0.42 0.98 9.1477e-41
6.44 0.42 0.98 9.1477e-41
6.48 0.42 0.99 9.1477e-41
6.54 0.42 0.97 9.1477e-41
6.59 0.42 0.98 9.1477e-41
6.64 0.42 0.99 9.1477e-41
6.7 0.42 0.99 9.1477e-41
6.75 0.42 0.99 9.1477e-41
6.81 0.42 0.99 9.1477e-41
6.87 0.42 0.99 9.1477e-41
6.93 0.42 0.99 9.1477e-41
6.98 0.42 0.99 9.1477e-41
7.05 0.42 0.97 9.1477e-41
7.11 0.42 0.97 9.1477e-41
7.17 0.42 0.96 9.1477e-41
7.24 0.42 0.95 9.1477e-41
7.31 0.42 0.95 9.1477e-41
7.38 0.42 0.94 9.1477e-41
5.87 0.49 0.59 9.1477e-41
5.89 0.49 0.68 9.1477e-41
5.91 0.49 0.76 9.1477e-41
5.93 0.49 0.84 9.1477e-41
5.97 0.49 0.87 9.1477e-41
6.01 0.49 0.87 3.57e-43
6.04 0.49 0.93 9.1477e-41
6.08 0.49 0.96 9.1477e-41
6.12 0.49 0.98 9.1477e-41
6.17 0.49 0.99 9.1477e-41
6.22 0.49 1 9.1477e-41
6.27 0.49 0.99 9.1477e-41
6.32 0.49 0.99 9.1477e-41
6.37 0.49 1 9.1477e-41
6.42 0.49 1 9.1477e-41
6.47 0.49 1.01 9.1477e-41
6.53 0.49 1 9.1477e-41
6.58 0.49 1 9.1477e-41
6.63 0.49 1.02 9.1477e-41
6.69 0.49 1.01 9.1477e-41
6.74 0.49 1.01 9.1477e-41
6.79 0.49 1.02 9.1477e-41
6.87 0.49 1 9.1477e-41
6.91 0.49 1.01 9.1477e-41
6.97 0.49 1 9.1477e-41
7.03 0.49 1 9.1477e-41
7.1 0.49 0.99 9.1477e-41
7.16 0.49 0.98 9.1477e-41
7.23 0.49 0.97 9.1477e-41
7.3 0.49 0.97 9.1477e-41
7.36 0.49 0.96 9.1477e-41
7.42 0.49 0.98 9.1477e-41
5.88 0.56 0.41 9.1477e-41
5.86 0.56 0.63 9.1477e-41
5.88 0.56 0.71 9.1477e-41
5.9 0.56 0.79 9.1477e-41
5.93 0.56 0.85 9.1477e-41
5.95 0.56 0.91 9.1477e-41
5.98 0.56 0.96 9.1477e-41
6.02 0.56 0.99 9.1477e-41
6.07 0.56 1 9.1477e-41
6.12 0.56 1 9.1477e-41
6.16 0.56 1.01 9.1477e-41
6.21 0.56 1.01 9.1477e-41
6.27 0.56 1 9.1477e-41
6.31 0.56 1.02 9.1477e-41
6.36 0.56 1.02 9.1477e-41
6.41 0.56 1.03 9.1477e-41
6.46 0.56 1.03 9.1477e-41
6.51 0.56 1.03 9.1477e-41
6.57 0.56 1.03 9.1477e-41
6.62 0.56 1.03 9.1477e-41
6.68 0.56 1.03 9.1477e-41
6.73 0.56 1.03 9.1477e-41
6.78 0.56 1.03 9.1477e-41
6.85 0.56 1.03 9.1477e-41
6.9 0.56 1.04 9.1477e-41
6.96 0.56 1.02 9.1477e-41
7.03 0.56 1.01 9.1477e-41
7.08 0.56 1.01 9.1477e-41
7.15 0.56 1 9.1477e-41
7.21 0.56 1 9.1477e-41
7.29 0.56 0.99 9.1477e-41
7.34 0.56 0.99 9.1477e-41
7.41 0.56 0.99 9.1477e-41
5.86 0.63 0.46 9.1477e-41
5.85 0.63 0.64 9.1477e-41
5.87 0.63 0.74 9.1477e-41
5.89 0.63 0.81 9.1477e-41
5.92 0.63 0.86 9.1477e-41
5.94 0.63 0.94 9.1477e-41
5.98 0.63 0.98 9.1477e-41
6.01 0.63 1.01 9.1477e-41
6.06 0.63 1.02 9.1477e-41
6.11 0.63 1.01 9.1477e-41
6.15 0.63 1.03 9.1477e-41
6.2 0.63 1.03 9.1477e-41
6.25 0.63 1.03 9.1477e-41
6.3 0.63 1.03 9.1477e-41
6.35 0.63 1.04 9.1477e-41
6.4 0.63 1.05 9.1477e-41
6.46 0.63 1.04 9.1477e-41
6.5 0.63 1.05 9.1477e-41
6.56 0.63 1.05 9.1477e-41
6.61 0.63 1.04 9.1477e-41
6.66 0.63 1.05 9.1477e-41
6.72 0.63 1.04 9.1477e-41
6.77 0.63 1.05 9.1477e-41
6.83 0.63 1.06 9.1477e-41
6.89 0.63 1.06 9.1477e-41
6.95 0.63 1.05 9.1477e-41
7.01 0.63 1.04 9.1477e-41
7.07 0.63 1.03 9.1477e-41
7.13 0.63 1.03 9.1477e-41
7.2 0.63 1.01 9.1477e-41
7.26 0.63 1.02 9.1477e-41
7.32 0.63 1.02 9.1477e-41
7.39 0.63 1.01 9.1477e-41
7.46 0.63 1.01 9.1477e-41
5.87 0.7 0.45 9.1477e-41
5.85 0.7 0.64 9.1477e-41
5.86 0.7 0.76 9.1477e-41
5.88 0.7 0.83 9.1477e-41
5.91 0.7 0.89 9.1477e-41
5.94 0.7 0.95 9.1477e-41
5.97 0.7 1 9.1477e-41
6.01 0.7 1.03 9.1477e-41
6.05 0.7 1.03 9.1477e-41
6.1 0.7 1.04 9.1477e-41
6.14 0.7 1.05 9.1477e-41
6.19 0.7 1.05 9.1477e-41
6.24 0.7 1.06 9.1477e-41
6.29 0.7 1.05 9.1477e-41
6.34 0.7 1.05 9.1477e-41
6.39 0.7 1.07 9.1477e-41
6.44 0.7 1.07 9.1477e-41
6.49 0.7 1.07 9.1477e-41
6.55 0.7 1.06 9.1477e-41
6.6 0.7 1.06 9.1477e-41
6.65 0.7 1.06 9.1477e-41
6.71 0.7 1.07 9.1477e-41
6.77 0.7 1.06 9.1477e-41
6.82 0.7 1.08 9.1477e-41
6.87 0.7 1.08 9.1477e-41
6.94 0.7 1.06 9.1477e-41
6.99 0.7 1.06 9.1477e-41
7.06 0.7 1.05 9.1477e-41
7.12 0.7 1.05 9.1477e-41
7.19 0.7 1.03 9.1477e-41
7.25 0.7 1.04 9.1477e-41
7.32 0.7 1.03 9.1477e-41
7.39 0.7 1.03 9.1477e-41
7.45 0.7 1.02 9.1477e-41
5.86 0.77 0.46 9.1477e-41
5.86 0.77 0.63 9.1477e-41
5.85 0.77 0.78 9.1477e-41
5.88 0.77 0.85 9.1477e-41
5.91 0.77 0.91 9.1477e-41
5.93 0.77 0.97 9.1477e-41
5.96 0.77 1.01 9.1477e-41
6 0.77 1.04 9.1477e-41
6.04 0.77 1.05 9.1477e-41
6.09 0.77 1.05 9.1477e-41
6.14 0.77 1.07 9.1477e-41
6.19 0.77 1.06 9.1477e-41
6.23 0.77 1.07 9.1477e-41
6.28 0.77 1.07 9.1477e-41
6.33 0.77 1.07 9.1477e-41
6.38 0.77 1.08 9.1477e-41
6.44 0.77 1.08 9.1477e-41
6.48 0.77 1.09 9.1477e-41
6.54 0.77 1.08 9.1477e-41
6.59 0.77 1.09 9.1477e-41
6.65 0.77 1.08 9.1477e-41
6.7 0.77 1.09 9.1477e-41
6.75 0.77 1.09 9.1477e-41
6.82 0.77 1.08 9.1477e-41
6.87 0.77 1.09 9.1477e-41
6.93 0.77 1.08 9.1477e-41
6.98 0.77 1.08 9.1477e-41
7.04 0.77 1.08 9.1477e-41
7.1 0.77 1.07 9.1477e-41
7.17 0.77 1.06 9.1477e-41
7.24 0.77 1.04 9.1477e-41
7.3 0.77 1.05 9.1477e-41
7.36 0.77 1.05 9.1477e-41
7.43 0.77 1.05 9.1477e-41
5.87 0.84 0.45 9.1477e-41
5.86 0.84 0.62 9.1477e-41
5.85 0.84 0.78 9.1477e-41
5.88 0.84 0.85 9.1477e-41
5.91 0.84 0.91 9.1477e-41
5.93 0.84 0.98 9.1477e-41
5.96 0.84 1.03 9.1477e-41
5.99 0.84 1.06 9.1477e-41
6.03 0.84 1.08 9.1477e-41
6.09 0.84 1.06 9.1477e-41
6.13 0.84 1.08 9.1477e-41
6.18 0.84 1.07 9.1477e-41
6.23 0.84 1.08 9.1477e-41
6.28 0.84 1.09 9.1477e-41
6.33 0.84 1.08 9.1477e-41
6.39 0.84 1.07 9.1477e-41
6.46 0.84 1.03 9.1477e-41
6.52 0.84 1.02 9.1477e-41
6.57 0.84 1.01 9.1477e-41
6.62 0.84 1.03 9.1477e-41
6.69 0.84 1.01 9.1477e-41
6.74 0.84 1.02 9.1477e-41
6.79 0.84 1.02 9.1477e-41
6.85 0.84 1.02 9.1477e-41
6.91 0.84 1.01 9.1477e-41
6.96 0.84 1.03 9.1477e-41
7.01 0.84 1.05 9.1477e-41
7.05 0.84 1.07 9.1477e-41
7.1 0.84 1.07 9.1477e-41
7.16 0.84 1.07 9.1477e-41
7.22 0.84 1.07 9.1477e-41
7.29 0.84 1.07 9.1477e-41
7.35 0.84 1.07 9.1477e-41
7.42 0.84 1.06 9.1477e-41
7.49 0.84 1.06 9.1477e-41
5.87 0.91 0.43 9.1477e-41
5.85 0.91 0.66 9.1477e-41
5.85 0.91 0.78 9.1477e-41
5.87 0.91 0.86 9.1477e-41
5.9 0.91 0.91 9.1477e-41
5.92 0.91 0.98 9.1477e-41
5.95 0.91 1.05 9.1477e-41
5.99 0.91 1.07 9.1477e-41
6.03 0.91 1.09 9.1477e-41
6.08 0.91 1.08 9.1477e-41
6.14 0.91 1.06 9.1477e-41
6.21 0.91 1.02 9.1477e-41
6.26 0.91 1.02 9.1477e-41
6.3 0.91 1.03 9.1477e-41
6.36 0.91 1.02 9.1477e-41
6.41 0.91 1.04 9.1477e-41
6.45 0.91 1.04 3.57e-43
6.52 0.91 1.04 3.57e-43
6.57 0.91 1.04 3.57e-43
6.62 0.91 1.04 3.57e-43
6.69 0.91 1.04 3.57e-43
6.74 0.91 1.04 3.57e-43
6.79 0.91 1.04 3.57e-43
6.85 0.91 1.04 3.57e-43
6.91 0.91 1.04 3.57e-43
6.96 0.91 1.03 9.1477e-41
7 0.91 1.05 9.1477e-41
7.06 0.91 1.05 9.1477e-41
7.13 0.91 1.03 9.1477e-41
7.2 0.91 1.03 3.57e-43
7.22 0.91 1.07 9.1477e-41
7.35 0.91 0.98 9.1477e-41
7.36 0.91 1.06 9.1477e-41
7.41 0.91 1.07 9.1477e-41
7.47 0.91 1.08 9.1477e-41
5.87 0.98 0.45 9.1477e-41
5.84 0.98 0.69 9.1477e-41
5.85 0.98 0.78 9.1477e-41
5.87 0.98 0.87 9.1477e-41
5.9 0.98 0.91 9.1477e-41
5.92 0.98 0.99 9.1477e-41
5.95 0.98 1.06 9.1477e-41
5.98 0.98 1.09 9.1477e-41
6.02 0.98 1.09 3.57e-43
6.08 0.98 1.09 3.57e-43
6.14 0.98 1.09 3.57e-43
6.21 0.98 1.09 3.57e-43
6.26 0.98 1.09 3.57e-43
6.3 0.98 1.09 3.57e-43
6.36 0.98 1.09 3.57e-43
6.41 0.98 1.09 3.57e-43
6.45 0.98 1.09 3.57e-43
6.52 0.98 1.09 3.57e-43
6.57 0.98 1.09 3.57e-43
6.62 0.98 1.09 3.57e-43
6.69 0.98 1.09 3.57e-43
6.74 0.98 1.09 3.57e-43
6.79 0.98 1.09 3.57e-43
6.85 0.98 1.09 3.57e-43
6.91 0.98 1.09 3.57e-43
6.96 0.98 1.09 3.57e-43
7 0.98 1.09 3.57e-43
7.06 0.98 1.09 3.57e-43
7.13 0.98 1.09 3.57e-43
7.2 0.98 1.09 3.57e-43
7.22 0.98 1.09 3.57e-43
7.35 0.98 0.98 9.1477e-41
7.39 0.98 1.02 9.1477e-41
7.44 0.98 1.04 9.1477e-41
7.46 0.98 1.09 9.1477e-41
5.87 1.05 0.45 9.1477e-41
5.84 1.05 0.69 9.1477e-41
5.86 1.05 0.77 9.1477e-41
5.88 1.05 0.85 9.1477e-41
5.9 1.05 0.91 9.1477e-41
5.92 1.05 1 9.1477e-41
5.94 1.05 1.07 9.1477e-41
5.97 1.05 1.12 9.1477e-41
6.01 1.05 1.12 3.57e-43
6.08 1.05 1.08 9.1477e-41
6.11 1.05 1.08 3.57e-43
6.21 1.05 1.08 3.57e-43
6.26 1.05 1.08 3.57e-43
6.3 1.05 1.08 3.57e-43
6.36 1.05 1.08 3.57e-43
6.41 1.05 1.08 3.57e-43
6.45 1.05 1.08 3.57e-43
6.52 1.05 1.08 3.57e-43
6.57 1.05 1.08 3.57e-43
6.62 1.05 1.08 3.57e-43
6.69 1.05 1.08 3.57e-43
6.74 1.05 1.08 3.57e-43
6.79 1.05 1.08 3.57e-43
6.85 1.05 1.08 3.57e-43
6.91 1.05 1.08 3.57e-43
6.96 1.05 1.08 3.57e-43
7 1.05 1.08 3.57e-43
7.06 1.05 1.08 3.57e-43
7.13 1.05 1.08 3.57e-43
7.2 1.05 1.08 3.57e-43
7.22 1.05 1.08 3.57e-43
7.35 1.05 1.08 3.57e-43
7.39 1.05 1.02 9.1477e-41
7.42 1.05 1.07 9.1477e-41
7.47 1.05 1.08 9.1477e-41
5.84 1.12 0.53 9.1477e-41
5.84 1.12 0.68 9.1477e-41
5.86 1.12 0.77 9.1477e-41
5.88 1.12 0.85 9.1477e-41
5.9 1.12 0.92 9.1477e-41
5.93 1.12 0.97 9.1477e-41
5.93 1.12 1.09 9.1477e-41
5.96 1.12 1.14 9.1477e-41
5.99 1.12 1.17 9.1477e-41
6.04 1.12 1.17 3.57e-43
6.11 1.12 1.17 3.57e-43
6.21 1.12 1.17 3.57e-43
6.26 1.12 1.17 3.57e-43
6.3 1.12 1.17 3.57e-43
6.36 1.12 1.17 3.57e-43
6.41 1.12 1.17 3.57e-43
6.45 1.12 1.17 3.57e-43
6.52 1.12 1.17 3.57e-43
6.57 1.12 1.17 3.57e-43
6.62 1.12 1.17 3.57e-43
6.69 1.12 1.17 3.57e-43
6.74 1.12 1.17 3.57e-43
6.79 1.12 1.17 3.57e-43
6.85 1.12 1.17 3.57e-43
6.91 1.12 1.17 3.57e-43
6.96 1.12 1.03 9.1477e-41
6.91 1.12 1.21 9.1477e-41
6.95 1.12 1.21 3.57e-43
7.13 1.12 1.21 3.57e-43
7.2 1.12 1.21 3.57e-43
7.22 1.12 1.21 3.57e-43
7.35 1.12 1.21 3.57e-43
7.39 1.12 1.21 3.57e-43
7.42 1.12 1.07 9.1477e-41
7.44 1.12 1.13 9.1477e-41
7.49 1.12 1.14 9.1477e-41
5.84 1.19 0.54 9.1477e-41
5.85 1.19 0.66 9.1477e-41
5.87 1.19 0.74 9.1477e-41
5.88 1.19 0.84 9.1477e-41
5.9 1.19 0.92 9.1477e-41
5.93 1.19 0.92 3.57e-43
5.93 1.19 1.09 9.1477e-41
5.95 1.19 1.17 9.1477e-41
5.98 1.19 1.2 9.1477e-41
6.01 1.19 1.24 9.1477e-41
6.07 1.19 1.24 3.57e-43
6.21 1.19 1.24 3.57e-43
6.26 1.19 1.24 3.57e-43
6.3 1.19 1.24 3.57e-43
6.36 1.19 1.24 3.57e-43
6.41 1.19 1.24 3.57e-43
6.45 1.19 1.24 3.57e-43
6.52 1.19 1.24 3.57e-43
6.57 1.19 1.24 3.57e-43
6.62 1.19 1.24 3.57e-43
6.69 1.19 1.24 3.57e-43
6.74 1.19 1.24 3.57e-43
6.79 1.19 1.24 3.57e-43
6.85 1.19 1.24 3.57e-43
6.91 1.19 1.24 3.57e-43
6.96 1.19 1.24 3.57e-43
6.91 1.19 1.24 3.57e-43
6.95 1.19 1.24 3.57e-43
7.13 1.19 1.24 3.57e-43
7.2 1.19 1.24 3.57e-43
7.22 1.19 1.24 3.57e-43
7.35 1.19 1.24 3.57e-43
7.39 1.19 1.24 3.57e-43
7.42 1.19 1.07 9.1477e-41
7.41 1.19 1.17 9.1477e-41
7.46 1.19 1.18 9.1477e-41
5.83 1.26 0.55 9.1477e-41
5.85 1.26 0.64 9.1477e-41
5.86 1.26 0.75 9.1477e-41
5.88 1.26 0.85 9.1477e-41
5.89 1.26 0.94 9.1477e-41
5.93 1.26 0.98 9.1477e-41
5.94 1.26 1.07 9.1477e-41
5.94 1.26 1.18 9.1477e-41
5.97 1.26 1.23 9.1477e-41
6 1.26 1.27 9.1477e-41
6.04 1.26 1.27 3.57e-43
6.21 1.26 1.27 3.57e-43
6.26 1.26 1.27 3.57e-43
6.3 1.26 1.27 3.57e-43
6.36 1.26 1.27 3.57e-43
6.41 1.26 1.27 3.57e-43
6.45 1.26 1.27 3.57e-43
6.52 1.26 1.27 3.57e-43
6.57 1.26 1.27 3.57e-43
6.62 1.26 1.27 3.57e-43
6.69 1.26 1.27 3.57e-43
6.74 1.26 1.27 3.57e-43
6.79 1.26 1.27 3.57e-43
6.85 1.26 1.27 3.57e-43
6.91 1.26 1.27 3.57e-43
6.96 1.26 1.27 3.57e-43
6.91 1.26 1.27 3.57e-43
6.95 1.26 1.27 3.57e-43
7.13 1.26 1.27 3.57e-43
7.2 1.26 1.27 3.57e-43
7.22 1.26 1.27 3.57e-43
7.35 1.26 1.27 3.57e-43
7.39 1.26 1.27 3.57e-43
7.42 1.26 1.07 9.1477e-41
7.42 1.26 1.15 9.1477e-41
7.42 1.26 1.24 9.1477e-41
7.47 1.26 1.25 9.1477e-41
5.83 1.33 0.55 9.1477e-41
5.85 1.33 0.64 9.1477e-41
5.86 1.33 0.75 9.1477e-41
5.88 1.33 0.85 9.1477e-41
5.89 1.33 0.94 9.1477e-41
5.92 1.33 1 9.1477e-41
5.95 1.33 1 3.57e-43
5.94 1.33 1.18 9.1477e-41
5.96 1.33 1.26 9.1477e-41
5.99 1.33 1.3 9.1477e-41
6.02 1.33 1.33 9.1477e-41
6.06 1.33 1.33 3.57e-43
6.26 1.33 1.01 9.1477e-41
6.17 1.33 1.01 3.57e-43
6.36 1.33 1.01 3.57e-43
6.41 1.33 1.01 3.57e-43
6.45 1.33 1.01 3.57e-43
6.52 1.33 1.01 3.57e-43
6.57 1.33 1.01 3.57e-43
6.62 1.33 1.01 3.57e-43
6.69 1.33 1.01 3.57e-43
6.74 1.33 1.01 3.57e-43
6.79 1.33 1.01 3.57e-43
6.85 1.33 1.01 3.57e-43
6.91 1.33 1.01 3.57e-43
6.96 1.33 1.01 3.57e-43
6.91 1.33 1.01 3.57e-43
6.95 1.33 1.01 3.57e-43
7.13 1.33 1.01 3.57e-43
7.2 1.33 1.01 3.57e-43
7.22 1.33 1.01 3.57e-43
7.35 1.33 1.01 3.57e-43
7.39 1.33 1.01 3.57e-43
7.42 1.33 1.01 3.57e-43
7.42 1.33 1.01 3.57e-43
7.42 1.33 1.24 9.1477e-41
7.45 1.33 1.28 9.1477e-41
5.83 1.4 0.55 9.1477e-41
5.85 1.4 0.65 9.1477e-41
5.86 1.4 0.77 9.1477e-41
5.87 1.4 0.88 9.1477e-41
5.84 1.4 1.07 9.1477e-41
5.87 1.4 1.11 9.1477e-41
5.92 1.4 1.11 3.57e-43
5.94 1.4 1.11 3.57e-43
5.96 1.4 1.26 9.1477e-41
5.97 1.4 1.33 9.1477e-41
6.01 1.4 1.35 9.1477e-41
6.04 1.4 1.38 9.1477e-41
6.09 1.4 1.37 9.1477e-41
6.25 1.4 1.15 9.1477e-41
6.29 1.4 1.16 9.1477e-41
6.34 1.4 1.15 9.1477e-41
6.39 1.4 1.17 9.1477e-41
6.45 1.4 1.16 9.1477e-41
6.5 1.4 1.16 9.1477e-41
6.55 1.4 1.16 3.57e-43
6.69 1.4 1.16 3.57e-43
6.74 1.4 1.16 3.57e-43
6.79 1.4 1.16 3.57e-43
6.85 1.4 1.16 3.57e-43
6.91 1.4 1.16 3.57e-43
6.96 1.4 1.03 9.1477e-41
6.94 1.4 1.16 9.1477e-41
6.99 1.4 1.16 9.1477e-41
7.03 1.4 1.18 9.1477e-41
7.09 1.4 1.18 9.1477e-41
7.15 1.4 1.18 3.57e-43
7.35 1.4 1.18 3.57e-43
7.39 1.4 1.02 9.1477e-41
7.36 1.4 1.02 3.57e-43
7.42 1.4 1.02 3.57e-43
7.42 1.4 1.24 9.1477e-41
7.41 1.4 1.34 9.1477e-41
7.45 1.4 1.36 9.1477e-41
5.83 1.47 0.56 9.1477e-41
5.85 1.47 0.56 3.57e-43
5.86 1.47 0.77 9.1477e-41
5.74 1.47 1.23 9.1477e-41
5.8 1.47 1.17 9.1477e-41
5.89 1.47 1.06 9.1477e-41
5.94 1.47 1.07 9.1477e-41
5.96 1.47 1.07 3.57e-43
5.96 1.47 1.07 3.57e-43
5.97 1.47 1.33 9.1477e-41
5.99 1.47 1.39 9.1477e-41
6.03 1.47 1.42 9.1477e-41
6.06 1.47 1.42 3.57e-43
6.25 1.47 1.42 3.57e-43
6.29 1.47 1.42 3.57e-43
6.34 1.47 1.42 3.57e-43
6.39 1.47 1.42 3.57e-43
6.45 1.47 1.42 3.57e-43
6.5 1.47 1.42 3.57e-43
6.55 1.47 1.42 3.57e-43
6.69 1.47 1.42 3.57e-43
6.74 1.47 1.42 3.57e-43
6.79 1.47 1.42 3.57e-43
6.85 1.47 1.42 3.57e-43
6.91 1.47 1.42 3.57e-43
6.96 1.47 1.03 9.1477e-41
6.95 1.47 1.13 9.1477e-41
6.99 1.47 1.16 9.1477e-41
7.04 1.47 1.17 9.1477e-41
7.11 1.47 1.16 9.1477e-41
7.2 1.47 1.16 3.57e-43
7.35 1.47 0.98 9.1477e-41
7.32 1.47 0.98 3.57e-43
7.36 1.47 0.98 3.57e-43
7.42 1.47 0.98 3.57e-43
7.42 1.47 0.98 3.57e-43
7.41 1.47 1.34 9.1477e-41
7.43 1.47 1.39 9.1477e-41
7.47 1.47 1.42 9.1477e-41
5.83 1.54 0.55 9.1477e-41
5.85 1.54 0.65 9.1477e-41
5.85 1.54 0.79 9.1477e-41
5.87 1.54 0.88 9.1477e-41
5.88 1.54 0.96 9.1477e-41
5.92 1.54 1 9.1477e-41
5.95 1.54 1 3.57e-43
5.96 1.54 1 3.57e-43
5.96 1.54 1 3.57e-43
5.97 1.54 1.33 9.1477e-41
5.99 1.54 1.41 9.1477e-41
6.01 1.54 1.44 9.1477e-41
6.05 1.54 1.47 9.1477e-41
6.08 1.54 1.47 3.57e-43
6.29 1.54 1.47 3.57e-43
6.34 1.54 1.47 3.57e-43
6.39 1.54 1.47 3.57e-43
6.45 1.54 1.16 9.1477e-41
6.31 1.54 1.51 9.1477e-41
6.71 1.54 1.51 3.57e-43
6.69 1.54 1.51 3.57e-43
6.74 1.54 1.02 9.1477e-41
6.94 1.54 0.77 9.1477e-41
6.94 1.54 0.77 3.57e-43
6.91 1.54 0.77 3.57e-43
6.96 1.54 0.77 3.57e-43
6.95 1.54 0.77 3.57e-43
6.99 1.54 0.77 3.57e-43
7.04 1.54 0.77 3.57e-43
7.11 1.54 0.77 3.57e-43
7.2 1.54 1.11 9.1477e-41
7.2 1.54 1.19 9.1477e-41
7.27 1.54 1.18 9.1477e-41
7.46 1.54 1.18 3.57e-43
7.42 1.54 1.18 3.57e-43
7.42 1.54 1.18 3.57e-43
7.41 1.54 1.34 9.1477e-41
7.4 1.54 1.42 9.1477e-41
7.44 1.54 1.46 9.1477e-41
7.5 1.54 1.46 9.1477e-41
5.83 1.61 0.56 9.1477e-41
5.84 1.61 0.67 9.1477e-41
5.85 1.61 0.79 9.1477e-41
5.86 1.61 0.89 9.1477e-41
5.88 1.61 0.96 9.1477e-41
5.91 1.61 1.01 9.1477e-41
5.94 1.61 1.01 3.57e-43
5.96 1.61 1.01 3.57e-43
5.96 1.61 1.01 3.57e-43
5.97 1.61 1.01 3.57e-43
5.99 1.61 1.41 9.1477e-41
6 1.61 1.47 9.1477e-41
6.04 1.61 1.5 9.1477e-41
6.07 1.61 1.52 9.1477e-41
6.11 1.61 1.52 3.57e-43
6.34 1.61 1.52 3.57e-43
6.39 1.61 1.52 3.57e-43
6.45 1.61 1.52 3.57e-43
6.31 1.61 1.52 3.57e-43
6.71 1.61 1.52 3.57e-43
6.69 1.61 1.52 3.57e-43
6.74 1.61 1.02 9.1477e-41
6.9 1.61 0.83 9.1477e-41
6.95 1.61 0.83 3.57e-43
6.91 1.61 0.83 3.57e-43
6.96 1.61 0.83 3.57e-43
6.95 1.61 0.83 3.57e-43
6.99 1.61 0.83 3.57e-43
7.04 1.61 0.83 3.57e-43
7.11 1.61 0.83 3.57e-43
7.2 1.61 0.83 3.57e-43
7.2 1.61 1.19 9.1477e-41
7.09 1.61 1.44 9.1477e-41
7.18 1.61 1.44 3.57e-43
7.42 1.61 1.44 3.57e-43
7.42 1.61 1.24 9.1477e-41
7.25 1.61 1.54 9.1477e-41
7.32 1.61 1.52 9.1477e-41
7.41 1.61 1.49 9.1477e-41
7.46 1.61 1.51 9.1477e-41
5.84 1.68 0.53 9.1477e-41
5.85 1.68 0.66 9.1477e-41
5.85 1.68 0.78 9.1477e-41
5.87 1.68 0.88 9.1477e-41
5.88 1.68 0.98 9.1477e-41
5.91 1.68 1.01 9.1477e-41
5.94 1.68 1.01 3.57e-43
5.96 1.68 1.01 3.57e-43
5.96 1.68 1.01 3.57e-43
5.97 1.68 1.01 3.57e-43
5.99 1.68 1.01 3.57e-43
6 1.68 1.47 9.1477e-41
6.03 1.68 1.51 9.1477e-41
6.06 1.68 1.54 9.1477e-41
6.09 1.68 1.57 9.1477e-41
6.15 1.68 1.56 9.1477e-41
6.18 1.68 1.59 9.1477e-41
6.22 1.68 1.59 9.1477e-41
6.27 1.68 1.59 9.1477e-41
6.31 1.68 1.61 9.1477e-41
6.36 1.68 1.59 9.1477e-41
6.4 1.68 1.61 9.1477e-41
6.45 1.68 1.61 9.1477e-41
6.5 1.68 1.62 9.1477e-41
6.55 1.68 1.61 9.1477e-41
6.6 1.68 1.6 9.1477e-41
6.66 1.68 1.61 9.1477e-41
6.71 1.68 1.6 9.1477e-41
6.75 1.68 1.61 9.1477e-41
6.81 1.68 1.62 9.1477e-41
6.86 1.68 1.62 9.1477e-41
6.92 1.68 1.61 9.1477e-41
6.98 1.68 1.59 9.1477e-41
7.04 1.68 1.59 9.1477e-41
7.09 1.68 1.59 9.1477e-41
7.16 1.68 1.58 9.1477e-41
7.21 1.68 1.58 9.1477e-41
7.28 1.68 1.58 9.1477e-41
7.35 1.68 1.56 9.1477e-41
7.43 1.68 1.54 9.1477e-41
5.83 1.75 0.41 9.1477e-41
5.83 1.75 0.55 9.1477e-41
5.84 1.75 0.68 9.1477e-41
5.85 1.75 0.79 9.1477e-41
5.86 1.75 0.9 9.1477e-41
5.88 1.75 0.98 9.1477e-41
5.9 1.75 1.03 9.1477e-41
5.94 1.75 1.03 3.57e-43
5.96 1.75 1.03 3.57e-43
5.96 1.75 1.03 3.57e-43
5.97 1.75 1.03 3.57e-43
5.99 1.75 1.03 3.57e-43
6 1.75 1.47 9.1477e-41
6.02 1.75 1.53 9.1477e-41
6.05 1.75 1.56 9.1477e-41
6.08 1.75 1.6 9.1477e-41
6.12 1.75 1.6 9.1477e-41
6.17 1.75 1.6 9.1477e-41
6.21 1.75 1.62 9.1477e-41
6.25 1.75 1.62 9.1477e-41
6.29 1.75 1.63 9.1477e-41
6.35 1.75 1.62 9.1477e-41
6.39 1.75 1.64 9.1477e-41
6.44 1.75 1.63 9.1477e-41
6.49 1.75 1.64 9.1477e-41
6.53 1.75 1.65 9.1477e-41
6.58 1.75 1.63 9.1477e-41
6.63 1.75 1.65 9.1477e-41
6.68 1.75 1.65 9.1477e-41
6.73 1.75 1.65 9.1477e-41
6.79 1.75 1.64 9.1477e-41
6.84 1.75 1.64 9.1477e-41
6.9 1.75 1.64 9.1477e-41
6.95 1.75 1.64 9.1477e-41
7.01 1.75 1.63 9.1477e-41
7.06 1.75 1.63 9.1477e-41
7.13 1.75 1.62 9.1477e-41
7.19 1.75 1.61 9.1477e-41
7.25 1.75 1.62 9.1477e-41
7.32 1.75 1.61 9.1477e-41
7.39 1.75 1.59 9.1477e-41
5.83 1.82 0.42 9.1477e-41
5.83 1.82 0.57 9.1477e-41
5.84 1.82 0.68 9.1477e-41
5.85 1.82 0.8 9.1477e-41
5.86 1.82 0.9 9.1477e-41
5.87 1.82 0.99 9.1477e-41
5.9 1.82 1.04 9.1477e-41
5.94 1.82 1.04 3.57e-43
5.96 1.82 1.04 3.57e-43
5.96 1.82 1.04 3.57e-43
5.97 1.82 1.04 3.57e-43
5.99 1.82 1.04 3.57e-43
6 1.82 1.47 9.1477e-41
6.01 1.82 1.55 9.1477e-41
6.05 1.82 1.57 9.1477e-41
6.07 1.82 1.61 9.1477e-41
6.11 1.82 1.62 9.1477e-41
6.16 1.82 1.63 9.1477e-41
6.19 1.82 1.65 9.1477e-41
6.23 1.82 1.66 9.1477e-41
6.28 1.82 1.66 9.1477e-41
6.33 1.82 1.65 9.1477e-41
6.37 1.82 1.66 9.1477e-41
6.42 1.82 1.67 9.1477e-41
6.47 1.82 1.67 9.1477e-41
6.52 1.82 1.67 9.1477e-41
6.57 1.82 1.66 9.1477e-41
6.61 1.82 1.67 9.1477e-41
6.67 1.82 1.66 9.1477e-41
6.72 1.82 1.67 9.1477e-41
6.77 1.82 1.67 9.1477e-41
6.82 1.82 1.68 9.1477e-41
6.88 1.82 1.67 9.1477e-41
6.93 1.82 1.67 9.1477e-41
6.99 1.82 1.67 9.1477e-41
7.05 1.82 1.65 9.1477e-41
7.1 1.82 1.65 9.1477e-41
7.17 1.82 1.64 9.1477e-41
7.22 1.82 1.64 9.1477e-41
7.3 1.82 1.63 9.1477e-41
7.36 1.82 1.63 9.1477e-41
7.43 1.82 1.62 9.1477e-41
5.83 1.89 0.42 9.1477e-41
5.83 1.89 0.57 9.1477e-41
5.84 1.89 0.67 9.1477e-41
5.84 1.89 0.81 9.1477e-41
5.86 1.89 0.9 9.1477e-41
5.87 1.89 0.99 9.1477e-41
5.89 1.89 1.06 9.1477e-41
5.93 1.89 1.06 3.57e-43
5.96 1.89 1.06 3.57e-43
5.96 1.89 1.06 3.57e-43
5.97 1.89 1.06 3.57e-43
5.99 1.89 1.06 3.57e-43
6 1.89 1.47 9.1477e-41
6.01 1.89 1.55 9.1477e-41
6.03 1.89 1.6 9.1477e-41
6.07 1.89 1.62 9.1477e-41
6.1 1.89 1.65 9.1477e-41
6.14 1.89 1.66 9.1477e-41
6.19 1.89 1.66 9.1477e-41
6.22 1.89 1.68 9.1477e-41
6.27 1.89 1.67 9.1477e-41
6.31 1.89 1.68 9.1477e-41
6.36 1.89 1.68 9.1477e-41
6.41 1.89 1.68 9.1477e-41
6.46 1.89 1.69 9.1477e-41
6.5 1.89 1.69 9.1477e-41
6.55 1.89 1.69 9.1477e-41
6.6 1.89 1.68 9.1477e-41
6.65 1.89 1.7 9.1477e-41
6.7 1.89 1.69 9.1477e-41
6.75 1.89 1.69 9.1477e-41
6.81 1.89 1.7 9.1477e-41
6.86 1.89 1.69 9.1477e-41
6.91 1.89 1.7 9.1477e-41
6.97 1.89 1.68 9.1477e-41
7.03 1.89 1.68 9.1477e-41
7.08 1.89 1.69 9.1477e-41
7.15 1.89 1.67 9.1477e-41
7.21 1.89 1.67 9.1477e-41
7.27 1.89 1.67 9.1477e-41
7.34 1.89 1.65 9.1477e-41
7.41 1.89 1.64 9.1477e-41
5.82 1.96 0.43 9.1477e-41
5.83 1.96 0.56 9.1477e-41
5.84 1.96 0.69 9.1477e-41
5.85 1.96 0.8 9.1477e-41
5.86 1.96 0.91 9.1477e-41
5.87 1.96 1.01 9.1477e-41
5.89 1.96 1.06 9.1477e-41
5.93 1.96 1.06 3.57e-43
5.96 1.96 1.15 9.1477e-41
6.17 1.96 1.15 3.57e-43
5.97 1.96 1.15 3.57e-43
5.99 1.96 1.15 3.57e-43
6 1.96 1.15 3.57e-43
6.01 1.96 1.55 9.1477e-41
6.03 1.96 1.6 9.1477e-41
6.06 1.96 1.64 9.1477e-41
6.09 1.96 1.67 9.1477e-41
6.13 1.96 1.67 9.1477e-41
6.18 1.96 1.67 9.1477e-41
6.22 1.96 1.68 9.1477e-41
6.26 1.96 1.69 9.1477e-41
6.3 1.96 1.7 9.1477e-41
6.35 1.96 1.7 9.1477e-41
6.39 1.96 1.71 9.1477e-41
6.44 1.96 1.71 9.1477e-41
6.49 1.96 1.71 9.1477e-41
6.54 1.96 1.7 9.1477e-41
6.59 1.96 1.71 9.1477e-41
6.64 1.96 1.71 9.1477e-41
6.69 1.96 1.71 9.1477e-41
6.74 1.96 1.72 9.1477e-41
6.79 1.96 1.71 9.1477e-41
6.85 1.96 1.72 9.1477e-41
6.9 1.96 1.71 9.1477e-41
6.95 1.96 1.72 9.1477e-41
7.01 1.96 1.71 9.1477e-41
7.08 1.96 1.69 9.1477e-41
7.13 1.96 1.7 9.1477e-41
7.19 1.96 1.69 9.1477e-41
7.25 1.96 1.7 9.1477e-41
7.32 1.96 1.68 9.1477e-41
7.39 1.96 1.67 9.1477e-41
5.83 2.03 0.42 9.1477e-41
5.83 2.03 0.56 9.1477e-41
5.84 2.03 0.69 9.1477e-41
5.85 2.03 0.8 9.1477e-41
5.86 2.03 0.9 9.1477e-41
5.87 2.03 1 9.1477e-41
5.88 2.03 1.09 9.1477e-41
5.92 2.03 1.13 9.1477e-41
5.96 2.03 1.13 3.57e-43
6.17 2.03 0.76 9.1477e-41
6.22 2.03 0.76 3.57e-43
5.99 2.03 1.41 9.1477e-41
6.25 2.03 0.91 9.1477e-41
6.3 2.03 0.93 9.1477e-41
6.03 2.03 1.6 9.1477e-41
6.06 2.03 1.64 9.1477e-41
6.09 2.03 1.67 9.1477e-41
6.13 2.03 1.68 9.1477e-41
6.17 2.03 1.67 9.1477e-41
6.2 2.03 1.72 9.1477e-41
6.25 2.03 1.7 9.1477e-41
6.3 2.03 1.7 9.1477e-41
6.34 2.03 1.71 9.1477e-41
6.38 2.03 1.73 9.1477e-41
6.44 2.03 1.71 9.1477e-41
6.48 2.03 1.73 9.1477e-41
6.53 2.03 1.73 9.1477e-41
6.58 2.03 1.72 9.1477e-41
6.62 2.03 1.74 9.1477e-41
6.68 2.03 1.72 9.1477e-41
6.73 2.03 1.73 9.1477e-41
6.78 2.03 1.72 9.1477e-41
6.84 2.03 1.73 9.1477e-41
6.89 2.03 1.73 9.1477e-41
6.95 2.03 1.72 9.1477e-41
6.99 2.03 1.73 9.1477e-41
7.06 2.03 1.71 9.1477e-41
7.12 2.03 1.71 9.1477e-41
7.18 2.03 1.7 9.1477e-41
7.24 2.03 1.7 9.1477e-41
7.3 2.03 1.7 9.1477e-41
7.38 2.03 1.67 9.1477e-41
5.82 2.1 0.43 9.1477e-41
5.83 2.1 0.55 9.1477e-41
5.84 2.1 0.69 9.1477e-41
5.85 2.1 0.8 9.1477e-41
5.86 2.1 0.91 9.1477e-41
5.87 2.1 1.01 9.1477e-41
5.89 2.1 1.08 9.1477e-41
5.9 2.1 1.16 9.1477e-41
5.93 2.1 1.16 3.57e-43
6.17 2.1 1.16 3.57e-43
6.22 2.1 1.16 3.57e-43
5.99 2.1 1.16 3.57e-43
6.25 2.1 1.16 3.57e-43
6.3 2.1 0.93 9.1477e-41
6.03 2.1 1.61 9.1477e-41
6.05 2.1 1.65 9.1477e-41
6.08 2.1 1.68 9.1477e-41
6.11 2.1 1.71 9.1477e-41
6.17 2.1 1.7 9.1477e-41
6.21 2.1 1.71 9.1477e-41
6.25 2.1 1.72 9.1477e-41
6.29 2.1 1.72 9.1477e-41
6.34 2.1 1.72 9.1477e-41
6.38 2.1 1.74 9.1477e-41
6.43 2.1 1.73 9.1477e-41
6.47 2.1 1.74 9.1477e-41
6.52 2.1 1.74 9.1477e-41
6.57 2.1 1.73 9.1477e-41
6.62 2.1 1.75 9.1477e-41
6.67 2.1 1.75 9.1477e-41
6.72 2.1 1.74 9.1477e-41
6.78 2.1 1.73 9.1477e-41
6.83 2.1 1.74 9.1477e-41
6.88 2.1 1.75 9.1477e-41
6.94 2.1 1.73 9.1477e-41
6.99 2.1 1.73 9.1477e-41
7.05 2.1 1.73 9.1477e-41
7.11 2.1 1.72 9.1477e-41
7.17 2.1 1.71 9.1477e-41
7.23 2.1 1.71 9.1477e-41
7.29 2.1 1.72 9.1477e-41
7.37 2.1 1.69 9.1477e-41
5.83 2.17 0.42 9.1477e-41
5.83 2.17 0.56 9.1477e-41
5.84 2.17 0.69 9.1477e-41
5.85 2.17 0.8 9.1477e-41
5.86 2.17 0.91 9.1477e-41
5.87 2.17 1 9.1477e-41
5.88 2.17 1.09 9.1477e-41
5.9 2.17 1.16 9.1477e-41
5.92 2.17 1.24 9.1477e-41
5.94 2.17 1.31 9.1477e-41
5.96 2.17 1.36 9.1477e-41
5.98 2.17 1.43 9.1477e-41
6 2.17 1.48 9.1477e-41
6.01 2.17 1.55 9.1477e-41
6.03 2.17 1.61 9.1477e-41
6.05 2.17 1.65 9.1477e-41
6.08 2.17 1.68 9.1477e-41
6.11 2.17 1.71 9.1477e-41
6.16 2.17 1.7 9.1477e-41
6.2 2.17 1.73 9.1477e-41
6.24 2.17 1.73 9.1477e-41
6.29 2.17 1.73 9.1477e-41
6.33 2.17 1.73 9.1477e-41
6.37 2.17 1.75 9.1477e-41
6.42 2.17 1.75 9.1477e-41
6.47 2.17 1.74 9.1477e-41
6.52 2.17 1.75 9.1477e-41
6.57 2.17 1.74 9.1477e-41
6.61 2.17 1.75 9.1477e-41
6.67 2.17 1.74 9.1477e-41
6.71 2.17 1.76 9.1477e-41
6.77 2.17 1.75 9.1477e-41
6.82 2.17 1.76 9.1477e-41
6.87 2.17 1.76 9.1477e-41
6.93 2.17 1.75 9.1477e-41
6.98 2.17 1.75 9.1477e-41
7.05 2.17 1.73 9.1477e-41
7.1 2.17 1.74 9.1477e-41
7.16 2.17 1.73 9.1477e-41
7.22 2.17 1.73 9.1477e-41
7.28 2.17 1.72 9.1477e-41
7.36 2.17 1.7 9.1477e-41
7.42 2.17 1.71 9.1477e-41
5.83 2.24 0.42 9.1477e-41
5.84 2.24 0.53 9.1477e-41
5.83 2.24 0.7 9.1477e-41
5.85 2.24 0.8 9.1477e-41
5.85 2.24 0.91 9.1477e-41
5.87 2.24 1.01 9.1477e-41
5.88 2.24 1.09 9.1477e-41
5.9 2.24 1.17 9.1477e-41
5.92 2.24 1.25 9.1477e-41
5.94 2.24 1.31 9.1477e-41
5.95 2.24 1.37 9.1477e-41
5.97 2.24 1.44 9.1477e-41
5.99 2.24 1.5 9.1477e-41
6.01 2.24 1.55 9.1477e-41
6.03 2.24 1.6 9.1477e-41
6.05 2.24 1.65 9.1477e-41
6.08 2.24 1.68 9.1477e-41
6.11 2.24 1.72 9.1477e-41
6.15 2.24 1.72 9.1477e-41
6.2 2.24 1.73 9.1477e-41
6.24 2.24 1.74 9.1477e-41
6.28 2.24 1.74 9.1477e-41
6.33 2.24 1.74 9.1477e-41
6.37 2.24 1.75 9.1477e-41
6.42 2.24 1.76 9.1477e-41
6.46 2.24 1.76 9.1477e-41
6.51 2.24 1.75 9.1477e-41
6.56 2.24 1.76 9.1477e-41
6.61 2.24 1.76 9.1477e-41
6.66 2.24 1.75 9.1477e-41
6.7 2.24 1.77 9.1477e-41
6.76 2.24 1.76 9.1477e-41
6.81 2.24 1.77 9.1477e-41
6.87 2.24 1.76 9.1477e-41
6.92 2.24 1.76 9.1477e-41
6.98 2.24 1.75 9.1477e-41
7.03 2.24 1.76 9.1477e-41
7.09 2.24 1.74 9.1477e-41
7.15 2.24 1.74 9.1477e-41
7.21 2.24 1.73 9.1477e-41
7.28 2.24 1.73 9.1477e-41
7.34 2.24 1.72 9.1477e-41
7.42 2.24 1.71 9.1477e-41
5.83 2.31 0.41 9.1477e-41
5.84 2.31 0.52 9.1477e-41
5.83 2.31 0.71 9.1477e-41
5.84 2.31 0.81 9.1477e-41
5.86 2.31 0.9 9.1477e-41
5.86 2.31 1.01 9.1477e-41
5.89 2.31 1.08 9.1477e-41
5.9 2.31 1.16 9.1477e-41
5.92 2.31 1.22 9.1477e-41
5.94 2.31 1.31 9.1477e-41
5.96 2.31 1.36 9.1477e-41
5.97 2.31 1.44 9.1477e-41
5.99 2.31 1.5 9.1477e-41
6.02 2.31 1.54 9.1477e-41
6.03 2.31 1.6 9.1477e-41
6.05 2.31 1.66 9.1477e-41
6.08 2.31 1.69 9.1477e-41
6.11 2.31 1.72 9.1477e-41
6.15 2.31 1.73 9.1477e-41
6.2 2.31 1.73 9.1477e-41
6.23 2.31 1.76 9.1477e-41
6.27 2.31 1.76 9.1477e-41
6.32 2.31 1.75 9.1477e-41
6.37 2.31 1.76 9.1477e-41
6.41 2.31 1.77 9.1477e-41
6.46 2.31 1.77 9.1477e-41
6.51 2.31 1.76 9.1477e-41
6.55 2.31 1.77 9.1477e-41
6.61 2.31 1.76 9.1477e-41
6.65 2.31 1.77 9.1477e-41
6.7 2.31 1.77 9.1477e-41
6.76 2.31 1.77 9.1477e-41
6.81 2.31 1.77 9.1477e-41
6.86 2.31 1.77 9.1477e-41
6.91 2.31 1.77 9.1477e-41
6.97 2.31 1.77 9.1477e-41
7.03 2.31 1.76 9.1477e-41
7.08 2.31 1.76 9.1477e-41
7.14 2.31 1.75 9.1477e-41
7.21 2.31 1.74 9.1477e-41
7.26 2.31 1.75 9.1477e-41
7.34 2.31 1.73 9.1477e-41
7.4 2.31 1.73 9.1477e-41
5.83 2.38 0.41 9.1477e-41
5.84 2.38 0.52 9.1477e-41
5.83 2.38 0.7 9.1477e-41
5.85 2.38 0.79 9.1477e-41
5.86 2.38 0.9 9.1477e-41
5.88 2.38 0.98 9.1477e-41
5.88 2.38 1.1 9.1477e-41
5.91 2.38 1.1 3.57e-43
5.92 2.38 1.1 3.57e-43
5.94 2.38 1.1 3.57e-43
5.96 2.38 1.1 3.57e-43
5.97 2.38 1.1 3.57e-43
5.99 2.38 1.1 3.57e-43
6.02 2.38 1.54 9.1477e-41
6.03 2.38 1.61 9.1477e-41
6.05 2.38 1.66 9.1477e-41
6.08 2.38 1.69 9.1477e-41
6.11 2.38 1.72 9.1477e-41
6.14 2.38 1.75 9.1477e-41
6.19 2.38 1.74 9.1477e-41
6.23 2.38 1.76 9.1477e-41
6.28 2.38 1.75 9.1477e-41
6.31 2.38 1.77 9.1477e-41
6.37 2.38 1.75 9.1477e-41
6.41 2.38 1.77 9.1477e-41
6.45 2.38 1.78 9.1477e-41
6.51 2.38 1.76 9.1477e-41
6.55 2.38 1.78 9.1477e-41
6.6 2.38 1.77 9.1477e-41
6.65 2.38 1.78 9.1477e-41
6.7 2.38 1.78 9.1477e-41
6.75 2.38 1.77 9.1477e-41
6.8 2.38 1.79 9.1477e-41
6.85 2.38 1.78 9.1477e-41
6.91 2.38 1.78 9.1477e-41
6.96 2.38 1.77 9.1477e-41
7.02 2.38 1.77 9.1477e-41
7.08 2.38 1.77 9.1477e-41
7.14 2.38 1.75 9.1477e-41
7.21 2.38 1.74 9.1477e-41
7.26 2.38 1.75 9.1477e-41
7.33 2.38 1.74 9.1477e-41
7.41 2.38 1.73 9.1477e-41
5.83 2.45 0.4 9.1477e-41
5.84 2.45 0.53 9.1477e-41
5.83 2.45 0.71 9.1477e-41
5.84 2.45 0.81 9.1477e-41
5.86 2.45 0.89 9.1477e-41
5.87 2.45 1.01 9.1477e-41
5.89 2.45 1.07 9.1477e-41
5.93 2.45 1.07 3.57e-43
5.92 2.45 1.07 3.57e-43
5.94 2.45 1.31 9.1477e-41
6.24 2.45 0.71 9.1477e-41
6.29 2.45 0.71 9.1477e-41
6.34 2.45 0.71 9.1477e-41
6.4 2.45 0.72 9.1477e-41
6.02 2.45 1.63 9.1477e-41
6.05 2.45 1.66 9.1477e-41
6.08 2.45 1.69 9.1477e-41
6.11 2.45 1.72 9.1477e-41
6.14 2.45 1.76 9.1477e-41
6.19 2.45 1.74 9.1477e-41
6.23 2.45 1.76 9.1477e-41
6.27 2.45 1.77 9.1477e-41
6.32 2.45 1.76 9.1477e-41
6.37 2.45 1.76 9.1477e-41
6.41 2.45 1.77 9.1477e-41
6.44 2.45 1.79 9.1477e-41
6.5 2.45 1.77 9.1477e-41
6.55 2.45 1.78 9.1477e-41
6.6 2.45 1.76 9.1477e-41
6.64 2.45 1.79 9.1477e-41
6.69 2.45 1.78 9.1477e-41
6.74 2.45 1.78 9.1477e-41
6.8 2.45 1.77 9.1477e-41
6.85 2.45 1.79 9.1477e-41
6.9 2.45 1.79 9.1477e-41
6.96 2.45 1.78 9.1477e-41
7.01 2.45 1.78 9.1477e-41
7.07 2.45 1.78 9.1477e-41
7.13 2.45 1.77 9.1477e-41
7.19 2.45 1.76 9.1477e-41
7.25 2.45 1.76 9.1477e-41
7.33 2.45 1.74 9.1477e-41
7.4 2.45 1.73 9.1477e-41
5.83 2.52 0.4 9.1477e-41
5.84 2.52 0.52 9.1477e-41
5.83 2.52 0.71 9.1477e-41
5.85 2.52 0.8 9.1477e-41
5.86 2.52 0.9 9.1477e-41
5.87 2.52 1.01 9.1477e-41
5.89 2.52 1.01 3.57e-43
5.93 2.52 1.01 3.57e-43
5.92 2.52 1.01 3.57e-43
5.94 2.52 1.01 3.57e-43
6.24 2.52 1.01 3.57e-43
6.29 2.52 1.01 3.57e-43
6.34 2.52 1.01 3.57e-43
6.4 2.52 0.72 9.1477e-41
6.02 2.52 1.63 9.1477e-41
6.05 2.52 1.66 9.1477e-41
6.07 2.52 1.7 9.1477e-41
6.1 2.52 1.73 9.1477e-41
6.14 2.52 1.76 9.1477e-41
6.19 2.52 1.75 9.1477e-41
6.22 2.52 1.77 9.1477e-41
6.26 2.52 1.78 9.1477e-41
6.31 2.52 1.78 9.1477e-41
6.36 2.52 1.77 9.1477e-41
6.4 2.52 1.77 9.1477e-41
6.44 2.52 1.79 9.1477e-41
6.5 2.52 1.78 9.1477e-41
6.55 2.52 1.78 9.1477e-41
6.59 2.52 1.78 9.1477e-41
6.64 2.52 1.79 9.1477e-41
6.69 2.52 1.79 9.1477e-41
6.74 2.52 1.79 9.1477e-41
6.79 2.52 1.79 9.1477e-41
6.85 2.52 1.79 9.1477e-41
6.91 2.52 1.78 9.1477e-41
6.96 2.52 1.78 9.1477e-41
7.02 2.52 1.77 9.1477e-41
7.07 2.52 1.78 9.1477e-41
7.13 2.52 1.76 9.1477e-41
7.19 2.52 1.76 9.1477e-41
7.25 2.52 1.76 9.1477e-41
7.32 2.52 1.75 9.1477e-41
7.39 2.52 1.74 9.1477e-41
5.83 2.59 0.4 9.1477e-41
5.84 2.59 0.52 9.1477e-41
5.83 2.59 0.71 9.1477e-41
5.85 2.59 0.8 9.1477e-41
5.85 2.59 0.91 9.1477e-41
5.87 2.59 1.01 9.1477e-41
5.89 2.59 1.01 3.57e-43
5.93 2.59 1.01 3.57e-43
5.92 2.59 1.01 3.57e-43
5.94 2.59 1.01 3.57e-43
6.24 2.59 1.01 3.57e-43
6.29 2.59 1.01 3.57e-43
6.34 2.59 1.01 3.57e-43
6.4 2.59 1.01 3.57e-43
6.02 2.59 1.63 9.1477e-41
6.05 2.59 1.67 9.1477e-41
6.07 2.59 1.7 9.1477e-41
6.1 2.59 1.73 9.1477e-41
6.13 2.59 1.75 9.1477e-41
6.18 2.59 1.75 9.1477e-41
6.22 2.59 1.77 9.1477e-41
6.26 2.59 1.78 9.1477e-41
6.31 2.59 1.77 9.1477e-41
6.35 2.59 1.78 9.1477e-41
6.41 2.59 1.76 9.1477e-41
6.44 2.59 1.79 9.1477e-41
6.5 2.59 1.78 9.1477e-41
6.54 2.59 1.78 9.1477e-41
6.59 2.59 1.79 9.1477e-41
6.64 2.59 1.79 9.1477e-41
6.69 2.59 1.79 9.1477e-41
6.74 2.59 1.78 9.1477e-41
6.79 2.59 1.79 9.1477e-41
6.84 2.59 1.8 9.1477e-41
6.9 2.59 1.79 9.1477e-41
6.95 2.59 1.79 9.1477e-41
7.01 2.59 1.78 9.1477e-41
7.06 2.59 1.78 9.1477e-41
7.12 2.59 1.78 9.1477e-41
7.19 2.59 1.76 9.1477e-41
7.25 2.59 1.77 9.1477e-41
7.31 2.59 1.77 9.1477e-41
7.39 2.59 1.74 9.1477e-41
5.83 2.66 0.4 9.1477e-41
5.84 2.66 0.52 9.1477e-41
5.83 2.66 0.71 9.1477e-41
5.85 2.66 0.79 9.1477e-41
5.85 2.66 0.91 9.1477e-41
5.87 2.66 1.01 9.1477e-41
5.89 2.66 1.01 3.57e-43
5.93 2.66 1.01 3.57e-43
5.92 2.66 1.01 3.57e-43
5.94 2.66 1.01 3.57e-43
6.24 2.66 1.01 3.57e-43
6.29 2.66 1.01 3.57e-43
6.34 2.66 1.01 3.57e-43
6.4 2.66 1.01 3.57e-43
6.02 2.66 1.63 9.1477e-41
6.05 2.66 1.67 9.1477e-41
6.08 2.66 1.69 9.1477e-41
6.1 2.66 1.73 9.1477e-41
6.13 2.66 1.76 9.1477e-41
6.18 2.66 1.75 9.1477e-41
6.22 2.66 1.77 9.1477e-41
6.26 2.66 1.78 9.1477e-41
6.31 2.66 1.78 9.1477e-41
6.36 2.66 1.77 9.1477e-41
6.4 2.66 1.78 9.1477e-41
6.44 2.66 1.79 9.1477e-41
6.5 2.66 1.78 9.1477e-41
6.54 2.66 1.79 9.1477e-41
6.59 2.66 1.79 9.1477e-41
6.64 2.66 1.8 9.1477e-41
6.68 2.66 1.8 9.1477e-41
6.74 2.66 1.79 9.1477e-41
6.78 2.66 1.8 9.1477e-41
6.84 2.66 1.8 9.1477e-41
6.89 2.66 1.8 9.1477e-41
6.95 2.66 1.8 9.1477e-41
7 2.66 1.79 9.1477e-41
7.07 2.66 1.78 9.1477e-41
7.12 2.66 1.78 9.1477e-41
7.18 2.66 1.77 9.1477e-41
7.24 2.66 1.77 9.1477e-41
7.31 2.66 1.76 9.1477e-41
7.38 2.66 1.75 9.1477e-41
5.84 2.73 0.52 9.1477e-41
5.83 2.73 0.71 9.1477e-41
5.85 2.73 0.79 9.1477e-41
5.86 2.73 0.9 9.1477e-41
5.87 2.73 1 9.1477e-41
5.89 2.73 1.08 9.1477e-41
5.92 2.73 1.08 3.57e-43
5.92 2.73 1.08 3.57e-43
5.94 2.73 1.08 3.57e-43
6.24 2.73 1.08 3.57e-43
6.29 2.73 1.08 3.57e-43
6.34 2.73 0.71 9.1477e-41
6.14 2.73 0.71 3.57e-43
6.02 2.73 1.62 9.1477e-41
6.05 2.73 1.67 9.1477e-41
6.07 2.73 1.7 9.1477e-41
6.1 2.73 1.73 9.1477e-41
6.13 2.73 1.75 9.1477e-41
6.18 2.73 1.75 9.1477e-41
6.22 2.73 1.77 9.1477e-41
6.26 2.73 1.78 9.1477e-41
6.31 2.73 1.78 9.1477e-41
6.35 2.73 1.79 9.1477e-41
6.4 2.73 1.78 9.1477e-41
6.44 2.73 1.79 9.1477e-41
6.49 2.73 1.79 9.1477e-41
6.54 2.73 1.79 9.1477e-41
6.58 2.73 1.8 9.1477e-41
6.63 2.73 1.8 9.1477e-41
6.68 2.73 1.81 9.1477e-41
6.73 2.73 1.8 9.1477e-41
6.79 2.73 1.79 9.1477e-41
6.84 2.73 1.8 9.1477e-41
6.89 2.73 1.81 9.1477e-41
6.95 2.73 1.8 9.1477e-41
7 2.73 1.79 9.1477e-41
7.06 2.73 1.79 9.1477e-41
7.12 2.73 1.78 9.1477e-41
7.18 2.73 1.78 9.1477e-41
7.24 2.73 1.77 9.1477e-41
7.31 2.73 1.77 9.1477e-41
7.38 2.73 1.75 9.1477e-41
5.84 2.8 0.53 9.1477e-41
5.83 2.8 0.71 9.1477e-41
5.85 2.8 0.8 9.1477e-41
5.86 2.8 0.9 9.1477e-41
5.87 2.8 0.99 9.1477e-41
5.89 2.8 1.08 9.1477e-41
5.92 2.8 1.08 3.57e-43
5.92 2.8 1.08 3.57e-43
5.94 2.8 1.08 3.57e-43
6.24 2.8 1.08 3.57e-43
6.29 2.8 0.71 9.1477e-41
6.1 2.8 0.71 3.57e-43
6.14 2.8 0.71 3.57e-43
6.02 2.8 1.62 9.1477e-41
6.05 2.8 1.67 9.1477e-41
6.08 2.8 1.69 9.1477e-41
6.1 2.8 1.73 9.1477e-41
6.13 2.8 1.76 9.1477e-41
6.17 2.8 1.76 9.1477e-41
6.22 2.8 1.77 9.1477e-41
6.26 2.8 1.78 9.1477e-41
6.3 2.8 1.79 9.1477e-41
6.34 2.8 1.8 9.1477e-41
6.39 2.8 1.8 9.1477e-41
6.43 2.8 1.8 9.1477e-41
6.49 2.8 1.79 9.1477e-41
6.53 2.8 1.8 9.1477e-41
6.59 2.8 1.79 9.1477e-41
6.63 2.8 1.8 9.1477e-41
6.69 2.8 1.79 9.1477e-41
6.73 2.8 1.8 9.1477e-41
6.78 2.8 1.8 9.1477e-41
6.83 2.8 1.81 9.1477e-41
6.89 2.8 1.8 9.1477e-41
6.95 2.8 1.8 9.1477e-41
7 2.8 1.8 9.1477e-41
7.06 2.8 1.78 9.1477e-41
7.12 2.8 1.79 9.1477e-41
7.18 2.8 1.78 9.1477e-41
7.24 2.8 1.77 9.1477e-41
7.31 2.8 1.77 9.1477e-41
7.38 2.8 1.75 9.1477e-41
5.83 2.87 0.55 9.1477e-41
5.83 2.87 0.71 9.1477e-41
5.85 2.87 0.79 9.1477e-41
5.86 2.87 0.9 9.1477e-41
5.87 2.87 0.99 9.1477e-41
5.89 2.87 1.08 9.1477e-41
5.92 2.87 1.08 3.57e-43
5.92 2.87 1.08 3.57e-43
5.94 2.87 1.08 3.57e-43
6.24 2.87 1.08 3.57e-43
6.29 2.87 0.71 9.1477e-41
6.1 2.87 1.24 9.1477e-41
6.15 2.87 1.24 3.57e-43
6.02 2.87 1.62 9.1477e-41
6.05 2.87 1.66 9.1477e-41
6.07 2.87 1.7 9.1477e-41
6.1 2.87 1.74 9.1477e-41
6.13 2.87 1.76 9.1477e-41
6.18 2.87 1.75 9.1477e-41
6.22 2.87 1.77 9.1477e-41
6.26 2.87 1.78 9.1477e-41
6.3 2.87 1.79 9.1477e-41
6.35 2.87 1.79 9.1477e-41
6.4 2.87 1.78 9.1477e-41
6.43 2.87 1.8 9.1477e-41
6.48 2.87 1.8 9.1477e-41
6.54 2.87 1.79 9.1477e-41
6.58 2.87 1.81 9.1477e-41
6.63 2.87 1.8 9.1477e-41
6.68 2.87 1.81 9.1477e-41
6.73 2.87 1.8 9.1477e-41
6.78 2.87 1.81 9.1477e-41
6.84 2.87 1.81 9.1477e-41
6.89 2.87 1.81 9.1477e-41
6.95 2.87 1.8 9.1477e-41
7 2.87 1.8 9.1477e-41
7.06 2.87 1.78 9.1477e-41
7.12 2.87 1.79 9.1477e-41
7.18 2.87 1.78 9.1477e-41
7.24 2.87 1.77 9.1477e-41
7.3 2.87 1.77 9.1477e-41
7.37 2.87 1.76 9.1477e-41
5.82 2.94 0.59 9.1477e-41
5.83 2.94 0.7 9.1477e-41
5.85 2.94 0.8 9.1477e-41
5.86 2.94 0.9 9.1477e-41
5.87 2.94 0.99 9.1477e-41
5.89 2.94 1.08 9.1477e-41
5.92 2.94 1.08 3.57e-43
5.92 2.94 1.08 3.57e-43
5.94 2.94 1.08 3.57e-43
6.24 2.94 1.08 3.57e-43
6.29 2.94 1.08 3.57e-43
6.1 2.94 1.08 3.57e-43
6.15 2.94 1.08 3.57e-43
6.02 2.94 1.62 9.1477e-41
6.05 2.94 1.66 9.1477e-41
6.07 2.94 1.7 9.1477e-41
6.1 2.94 1.74 9.1477e-41
6.13 2.94 1.75 9.1477e-41
6.18 2.94 1.75 9.1477e-41
6.22 2.94 1.77 9.1477e-41
6.26 2.94 1.78 9.1477e-41
6.31 2.94 1.78 9.1477e-41
6.35 2.94 1.78 9.1477e-41
6.4 2.94 1.78 9.1477e-41
6.44 2.94 1.79 9.1477e-41
6.48 2.94 1.8 9.1477e-41
6.53 2.94 1.8 9.1477e-41
6.58 2.94 1.8 9.1477e-41
6.63 2.94 1.81 9.1477e-41
6.68 2.94 1.81 9.1477e-41
6.73 2.94 1.81 9.1477e-41
6.78 2.94 1.8 9.1477e-41
6.83 2.94 1.81 9.1477e-41
6.89 2.94 1.81 9.1477e-41
6.95 2.94 1.79 9.1477e-41
7 2.94 1.8 9.1477e-41
7.06 2.94 1.79 9.1477e-41
7.11 2.94 1.79 9.1477e-41
7.18 2.94 1.78 9.1477e-41
7.23 2.94 1.78 9.1477e-41
7.29 2.94 1.77 9.1477e-41
7.39 2.94 1.74 9.1477e-41
5.83 3.01 0.57 9.1477e-41
5.83 3.01 0.71 9.1477e-41
5.85 3.01 0.8 9.1477e-41
5.87 3.01 0.88 9.1477e-41
5.87 3.01 0.99 9.1477e-41
5.89 3.01 1.08 9.1477e-41
5.92 3.01 1.08 3.57e-43
5.92 3.01 1.08 3.57e-43
5.94 3.01 1.08 3.57e-43
6.24 3.01 1.08 3.57e-43
6.29 3.01 1.08 3.57e-43
6.1 3.01 1.08 3.57e-43
6.15 3.01 1.08 3.57e-43
6.02 3.01 1.62 9.1477e-41
6.05 3.01 1.66 9.1477e-41
6.07 3.01 1.7 9.1477e-41
6.1 3.01 1.73 9.1477e-41
6.13 3.01 1.75 9.1477e-41
6.18 3.01 1.75 9.1477e-41
6.22 3.01 1.77 9.1477e-41
6.26 3.01 1.78 9.1477e-41
6.3 3.01 1.79 9.1477e-41
6.34 3.01 1.8 9.1477e-41
6.39 3.01 1.8 9.1477e-41
6.43 3.01 1.8 9.1477e-41
6.48 3.01 1.8 9.1477e-41
6.53 3.01 1.8 9.1477e-41
6.58 3.01 1.8 9.1477e-41
6.63 3.01 1.81 9.1477e-41
6.68 3.01 1.81 9.1477e-41
6.73 3.01 1.81 9.1477e-41
6.78 3.01 1.81 9.1477e-41
6.83 3.01 1.81 9.1477e-41
6.88 3.01 1.81 9.1477e-41
6.95 3.01 1.8 9.1477e-41
6.99 3.01 1.81 9.1477e-41
7.06 3.01 1.79 9.1477e-41
7.11 3.01 1.79 9.1477e-41
7.18 3.01 1.78 9.1477e-41
7.23 3.01 1.78 9.1477e-41
7.3 3.01 1.76 9.1477e-41
7.37 3.01 1.76 9.1477e-41
5.84 3.08 0.53 9.1477e-41
5.82 3.08 0.72 9.1477e-41
5.84 3.08 0.81 9.1477e-41
5.86 3.08 0.89 9.1477e-41
5.87 3.08 0.99 9.1477e-41
5.89 3.08 1.07 9.1477e-41
5.91 3.08 1.14 9.1477e-41
5.95 3.08 1.14 3.57e-43
5.94 3.08 1.14 3.57e-43
6.24 3.08 1.14 3.57e-43
6.29 3.08 1.14 3.57e-43
6.1 3.08 1.14 3.57e-43
6.15 3.08 1.14 3.57e-43
6.02 3.08 1.62 9.1477e-41
6.05 3.08 1.66 9.1477e-41
6.07 3.08 1.7 9.1477e-41
6.1 3.08 1.74 9.1477e-41
6.13 3.08 1.76 9.1477e-41
6.18 3.08 1.75 9.1477e-41
6.23 3.08 1.76 9.1477e-41
6.25 3.08 1.79 9.1477e-41
6.3 3.08 1.79 9.1477e-41
6.34 3.08 1.8 9.1477e-41
6.39 3.08 1.8 9.1477e-41
6.43 3.08 1.8 9.1477e-41
6.48 3.08 1.8 9.1477e-41
6.54 3.08 1.79 9.1477e-41
6.58 3.08 1.81 9.1477e-41
6.63 3.08 1.81 9.1477e-41
6.68 3.08 1.81 9.1477e-41
6.73 3.08 1.8 9.1477e-41
6.78 3.08 1.81 9.1477e-41
6.84 3.08 1.81 9.1477e-41
6.88 3.08 1.81 9.1477e-41
6.94 3.08 1.81 9.1477e-41
7 3.08 1.8 9.1477e-41
7.05 3.08 1.8 9.1477e-41
7.11 3.08 1.79 9.1477e-41
7.17 3.08 1.79 9.1477e-41
7.23 3.08 1.78 9.1477e-41
7.29 3.08 1.78 9.1477e-41
7.38 3.08 1.75 9.1477e-41
5.85 3.15 0.51 9.1477e-41
5.82 3.15 0.73 9.1477e-41
5.84 3.15 0.81 9.1477e-41
5.86 3.15 0.9 9.1477e-41
5.88 3.15 0.98 9.1477e-41
5.89 3.15 1.07 9.1477e-41
5.89 3.15 1.18 9.1477e-41
5.93 3.15 1.18 3.57e-43
5.94 3.15 1.18 3.57e-43
6.24 3.15 1.18 3.57e-43
6.29 3.15 1.18 3.57e-43
6.1 3.15 1.18 3.57e-43
6.15 3.15 1.18 3.57e-43
6.02 3.15 1.62 9.1477e-41
6.05 3.15 1.67 9.1477e-41
6.08 3.15 1.69 9.1477e-41
6.1 3.15 1.73 9.1477e-41
6.13 3.15 1.76 9.1477e-41
6.18 3.15 1.75 9.1477e-41
6.22 3.15 1.77 9.1477e-41
6.25 3.15 1.79 9.1477e-41
6.3 3.15 1.79 9.1477e-41
6.35 3.15 1.79 9.1477e-41
6.4 3.15 1.79 9.1477e-41
6.43 3.15 1.8 9.1477e-41
6.48 3.15 1.8 9.1477e-41
6.54 3.15 1.79 9.1477e-41
6.59 3.15 1.79 9.1477e-41
6.63 3.15 1.81 9.1477e-41
6.68 3.15 1.8 9.1477e-41
6.73 3.15 1.8 9.1477e-41
6.78 3.15 1.8 9.1477e-41
6.84 3.15 1.81 9.1477e-41
6.88 3.15 1.81 9.1477e-41
6.94 3.15 1.81 9.1477e-41
7 3.15 1.8 9.1477e-41
7.06 3.15 1.79 9.1477e-41
7.12 3.15 1.79 9.1477e-41
7.18 3.15 1.78 9.1477e-41
7.23 3.15 1.78 9.1477e-41
7.3 3.15 1.77 9.1477e-41
7.37 3.15 1.76 9.1477e-41
5.85 3.22 0.51 9.1477e-41
5.82 3.22 0.73 9.1477e-41
5.84 3.22 0.81 9.1477e-41
5.86 3.22 0.91 9.1477e-41
5.87 3.22 0.99 9.1477e-41
5.89 3.22 1.07 9.1477e-41
5.89 3.22 1.18 9.1477e-41
5.93 3.22 1.18 3.57e-43
5.94 3.22 1.18 3.57e-43
6.24 3.22 1.18 3.57e-43
6.29 3.22 1.18 3.57e-43
6.1 3.22 1.18 3.57e-43
6.15 3.22 1.18 3.57e-43
6.02 3.22 1.62 9.1477e-41
6.05 3.22 1.66 9.1477e-41
6.07 3.22 1.7 9.1477e-41
6.1 3.22 1.73 9.1477e-41
6.13 3.22 1.76 9.1477e-41
6.18 3.22 1.75 9.1477e-41
6.22 3.22 1.77 9.1477e-41
6.26 3.22 1.78 9.1477e-41
6.3 3.22 1.79 9.1477e-41
6.35 3.22 1.79 9.1477e-41
6.39 3.22 1.8 9.1477e-41
6.43 3.22 1.8 9.1477e-41
6.48 3.22 1.8 9.1477e-41
6.53 3.22 1.8 9.1477e-41
6.58 3.22 1.8 9.1477e-41
6.63 3.22 1.8 9.1477e-41
6.68 3.22 1.81 9.1477e-41
6.73 3.22 1.81 9.1477e-41
6.78 3.22 1.8 9.1477e-41
6.84 3.22 1.81 9.1477e-41
6.89 3.22 1.81 9.1477e-41
6.94 3.22 1.81 9.1477e-41
7 3.22 1.8 9.1477e-41
7.06 3.22 1.79 9.1477e-41
7.11 3.22 1.79 9.1477e-41
7.18 3.22 1.78 9.1477e-41
7.24 3.22 1.77 9.1477e-41
7.3 3.22 1.76 9.1477e-41
7.37 3.22 1.76 9.1477e-41
5.85 3.29 0.49 9.1477e-41
5.82 3.29 0.72 9.1477e-41
5.84 3.29 0.81 9.1477e-41
5.86 3.29 0.91 9.1477e-41
5.88 3.29 0.98 9.1477e-41
5.89 3.29 1.07 9.1477e-41
5.9 3.29 1.17 9.1477e-41
5.93 3.29 1.17 3.57e-43
5.94 3.29 1.17 3.57e-43
6.24 3.29 1.17 3.57e-43
6.29 3.29 1.17 3.57e-43
6.1 3.29 1.17 3.57e-43
6.15 3.29 1.17 3.57e-43
6.02 3.29 1.62 9.1477e-41
6.05 3.29 1.67 9.1477e-41
6.08 3.29 1.69 9.1477e-41
6.1 3.29 1.73 9.1477e-41
6.14 3.29 1.76 9.1477e-41
6.17 3.29 1.77 9.1477e-41
6.22 3.29 1.77 9.1477e-41
6.26 3.29 1.78 9.1477e-41
6.3 3.29 1.79 9.1477e-41
6.35 3.29 1.78 9.1477e-41
6.4 3.29 1.79 9.1477e-41
6.43 3.29 1.8 9.1477e-41
6.48 3.29 1.8 9.1477e-41
6.53 3.29 1.8 9.1477e-41
6.59 3.29 1.79 9.1477e-41
6.63 3.29 1.81 9.1477e-41
6.68 3.29 1.8 9.1477e-41
6.73 3.29 1.8 9.1477e-41
6.78 3.29 1.81 9.1477e-41
6.84 3.29 1.8 9.1477e-41
6.9 3.29 1.79 9.1477e-41
6.95 3.29 1.8 9.1477e-41
7 3.29 1.8 9.1477e-41
7.06 3.29 1.79 9.1477e-41
7.12 3.29 1.79 9.1477e-41
7.17 3.29 1.79 9.1477e-41
7.24 3.29 1.77 9.1477e-41
7.31 3.29 1.77 9.1477e-41
7.37 3.29 1.76 9.1477e-41
5.85 3.36 0.51 9.1477e-41
5.82 3.36 0.72 9.1477e-41
5.84 3.36 0.81 9.1477e-41
5.86 3.36 0.91 9.1477e-41
5.88 3.36 0.98 9.1477e-41
5.89 3.36 1.07 9.1477e-41
5.9 3.36 1.16 9.1477e-41
5.93 3.36 1.16 3.57e-43
5.94 3.36 1.16 3.57e-43
6.24 3.36 1.16 3.57e-43
6.29 3.36 1.16 3.57e-43
6.1 3.36 1.16 3.57e-43
6.15 3.36 1.16 3.57e-43
6.02 3.36 1.62 9.1477e-41
6.05 3.36 1.65 9.1477e-41
6.08 3.36 1.69 9.1477e-41
6.1 3.36 1.73 9.1477e-41
6.13 3.36 1.75 9.1477e-41
6.18 3.36 1.75 9.1477e-41
6.22 3.36 1.77 9.1477e-41
6.26 3.36 1.78 9.1477e-41
6.31 3.36 1.78 9.1477e-41
6.35 3.36 1.79 9.1477e-41
6.4 3.36 1.78 9.1477e-41
6.44 3.36 1.79 9.1477e-41
6.48 3.36 1.8 9.1477e-41
6.54 3.36 1.79 9.1477e-41
6.58 3.36 1.81 9.1477e-41
6.63 3.36 1.8 9.1477e-41
6.68 3.36 1.8 9.1477e-41
6.73 3.36 1.81 9.1477e-41
6.78 3.36 1.8 9.1477e-41
6.83 3.36 1.81 9.1477e-41
6.89 3.36 1.81 9.1477e-41
6.95 3.36 1.8 9.1477e-41
7 3.36 1.8 9.1477e-41
7.06 3.36 1.79 9.1477e-41
7.12 3.36 1.78 9.1477e-41
7.18 3.36 1.78 9.1477e-41
7.23 3.36 1.78 9.1477e-41
7.31 3.36 1.77 9.1477e-41
7.38 3.36 1.75 9.1477e-41
5.84 3.43 0.52 9.1477e-41
5.82 3.43 0.72 9.1477e-41
5.84 3.43 0.81 9.1477e-41
5.86 3.43 0.89 9.1477e-41
5.88 3.43 0.98 9.1477e-41
5.89 3.43 1.06 9.1477e-41
5.91 3.43 1.15 9.1477e-41
5.93 3.43 1.15 3.57e-43
5.94 3.43 1.15 3.57e-43
6.24 3.43 1.15 3.57e-43
6.29 3.43 1.15 3.57e-43
6.1 3.43 1.15 3.57e-43
6.15 3.43 1.24 9.1477e-41
6.03 3.43 1.6 9.1477e-41
6.05 3.43 1.65 9.1477e-41
6.08 3.43 1.68 9.1477e-41
6.11 3.43 1.72 9.1477e-41
6.13 3.43 1.75 9.1477e-41
6.18 3.43 1.75 9.1477e-41
6.22 3.43 1.77 9.1477e-41
6.26 3.43 1.78 9.1477e-41
6.31 3.43 1.78 9.1477e-41
6.35 3.43 1.78 9.1477e-41
6.39 3.43 1.79 9.1477e-41
6.44 3.43 1.79 9.1477e-41
6.48 3.43 1.8 9.1477e-41
6.54 3.43 1.79 9.1477e-41
6.58 3.43 1.8 9.1477e-41
6.64 3.43 1.8 9.1477e-41
6.68 3.43 1.8 9.1477e-41
6.73 3.43 1.8 9.1477e-41
6.78 3.43 1.8 9.1477e-41
6.84 3.43 1.8 9.1477e-41
6.89 3.43 1.81 9.1477e-41
6.95 3.43 1.8 9.1477e-41
7 3.43 1.79 9.1477e-41
7.06 3.43 1.79 9.1477e-41
7.12 3.43 1.79 9.1477e-41
7.18 3.43 1.77 9.1477e-41
7.23 3.43 1.78 9.1477e-41
7.31 3.43 1.76 9.1477e-41
7.37 3.43 1.76 9.1477e-41
5.83 3.5 0.4 9.1477e-41
5.82 3.5 0.58 9.1477e-41
5.83 3.5 0.7 9.1477e-41
5.85 3.5 0.8 9.1477e-41
5.87 3.5 0.88 9.1477e-41
5.88 3.5 0.98 9.1477e-41
5.9 3.5 1.05 9.1477e-41
5.9 3.5 1.16 9.1477e-41
5.93 3.5 1.16 3.57e-43
5.94 3.5 1.16 3.57e-43
6.24 3.5 1.16 3.57e-43
6.29 3.5 1.16 3.57e-43
6.1 3.5 1.24 9.1477e-41
6.01 3.5 1.56 9.1477e-41
6.03 3.5 1.6 9.1477e-41
6.06 3.5 1.64 9.1477e-41
6.08 3.5 1.69 9.1477e-41
6.11 3.5 1.72 9.1477e-41
6.14 3.5 1.75 9.1477e-41
6.18 3.5 1.76 9.1477e-41
6.23 3.5 1.76 9.1477e-41
6.26 3.5 1.78 9.1477e-41
6.31 3.5 1.78 9.1477e-41
6.35 3.5 1.78 9.1477e-41
6.4 3.5 1.77 9.1477e-41
6.44 3.5 1.79 9.1477e-41
6.49 3.5 1.79 9.1477e-41
6.55 3.5 1.78 9.1477e-41
6.59 3.5 1.79 9.1477e-41
6.64 3.5 1.79 9.1477e-41
6.69 3.5 1.79 9.1477e-41
6.73 3.5 1.8 9.1477e-41
6.78 3.5 1.8 9.1477e-41
6.84 3.5 1.8 9.1477e-41
6.89 3.5 1.8 9.1477e-41
6.95 3.5 1.8 9.1477e-41
7 3.5 1.79 9.1477e-41
7.06 3.5 1.78 9.1477e-41
7.12 3.5 1.79 9.1477e-41
7.18 3.5 1.77 9.1477e-41
7.24 3.5 1.77 9.1477e-41
7.31 3.5 1.77 9.1477e-41
7.37 3.5 1.76 9.1477e-41
5.84 3.57 0.54 9.1477e-41
5.85 3.57 0.65 9.1477e-41
5.86 3.57 0.77 9.1477e-41
5.87 3.57 0.86 9.1477e-41
5.88 3.57 0.96 9.1477e-41
5.89 3.57 1.06 9.1477e-41
5.91 3.57 1.16 9.1477e-41
5.93 3.57 1.16 3.57e-43
5.94 3.57 1.16 3.57e-43
6.24 3.57 1.16 3.57e-43
6.29 3.57 0.71 9.1477e-41
5.99 3.57 1.5 9.1477e-41
6.02 3.57 1.54 9.1477e-41
6.03 3.57 1.6 9.1477e-41
6.06 3.57 1.64 9.1477e-41
6.09 3.57 1.67 9.1477e-41
6.11 3.57 1.71 9.1477e-41
6.14 3.57 1.75 9.1477e-41
6.19 3.57 1.75 9.1477e-41
6.23 3.57 1.75 9.1477e-41
6.26 3.57 1.78 9.1477e-41
6.31 3.57 1.78 9.1477e-41
6.36 3.57 1.77 9.1477e-41
6.4 3.57 1.77 9.1477e-41
6.44 3.57 1.79 9.1477e-41
6.49 3.57 1.79 9.1477e-41
6.54 3.57 1.78 9.1477e-41
