# .PCD v.7 - Point Cloud Data file format
VERSION .7
FIELDS x y z rgb
SIZE 4 4 4 4
TYPE F F F F
WIDTH 660
HEIGHT 1
POINTS 660
DATA ascii
6.33 0 0.49 9.1477e-41
6.39 0 0.49 9.1477e-41
6.45 0 0.49 9.1477e-41
6.5 0 0.49 9.1477e-41
6.56 0 0.49 9.1477e-41
6.62 0 0.48 9.1477e-41
6.68 0 0.49 9.1477e-41
6.74 0 0.48 9.1477e-41
5.82 0.22 0.58 9.1477e-41
5.86 0.22 0.63 9.1477e-41
5.89 0.22 0.68 9.1477e-41
5.92 0.22 0.74 9.1477e-41
5.98 0.22 0.73 9.1477e-41
6.05 0.22 0.67 9.1477e-41
6.07 0.22 0.75 9.1477e-41
6.12 0.22 0.74 9.1477e-41
6.12 0.22 0.86 9.1477e-41
6.17 0.22 0.86 9.1477e-41
6.22 0.22 0.88 9.1477e-41
6.27 0.22 0.89 9.1477e-41
6.32 0.22 0.89 9.1477e-41
6.37 0.22 0.89 9.1477e-41
6.42 0.22 0.89 9.1477e-41
6.47 0.22 0.9 9.1477e-41
6.52 0.22 0.91 9.1477e-41
6.59 0.22 0.88 9.1477e-41
6.63 0.22 0.9 9.1477e-41
6.69 0.22 0.9 9.1477e-41
6.75 0.22 0.89 9.1477e-41
6.81 0.22 0.91 9.1477e-41
6.87 0.22 0.89 9.1477e-41
6.93 0.22 0.89 9.1477e-41
7 0.22 0.87 9.1477e-41
7.06 0.22 0.87 9.1477e-41
7.13 0.22 0.85 9.1477e-41
7.26 0.22 0.73 9.1477e-41
5.75 0.44 0.47 9.1477e-41
5.76 0.44 0.6 9.1477e-41
5.79 0.44 0.67 9.1477e-41
5.81 0.44 0.74 9.1477e-41
5.84 0.44 0.81 9.1477e-41
5.89 0.44 0.81 9.1477e-41
5.92 0.44 0.88 9.1477e-41
5.94 0.44 0.94 9.1477e-41
5.99 0.44 0.95 9.1477e-41
6.03 0.44 0.96 9.1477e-41
6.08 0.44 0.96 9.1477e-41
6.12 0.44 0.98 9.1477e-41
6.18 0.44 0.97 9.1477e-41
6.22 0.44 0.99 9.1477e-41
6.27 0.44 0.99 9.1477e-41
6.33 0.44 0.98 9.1477e-41
6.37 0.44 0.99 9.1477e-41
6.43 0.44 0.98 9.1477e-41
6.48 0.44 0.99 9.1477e-41
6.54 0.44 0.98 9.1477e-41
6.59 0.44 0.98 9.1477e-41
6.64 0.44 0.99 9.1477e-41
6.71 0.44 0.98 9.1477e-41
6.75 0.44 0.99 9.1477e-41
6.82 0.44 0.97 9.1477e-41
6.87 0.44 0.99 9.1477e-41
6.93 0.44 0.98 9.1477e-41
6.99 0.44 0.98 9.1477e-41
7.05 0.44 0.97 9.1477e-41
7.12 0.44 0.95 9.1477e-41
7.18 0.44 0.95 9.1477e-41
7.24 0.44 0.95 3.57e-43
5.75 0.66 0.49 9.1477e-41
5.73 0.66 0.7 9.1477e-41
5.75 0.66 0.79 9.1477e-41
5.78 0.66 0.85 9.1477e-41
5.81 0.66 0.9 9.1477e-41
5.84 0.66 0.96 9.1477e-41
5.87 0.66 1 9.1477e-41
5.91 0.66 1.02 9.1477e-41
5.96 0.66 1.03 9.1477e-41
6.01 0.66 1.03 9.1477e-41
6.05 0.66 1.04 9.1477e-41
6.1 0.66 1.04 9.1477e-41
6.14 0.66 1.04 9.1477e-41
6.2 0.66 1.03 9.1477e-41
6.25 0.66 1.04 9.1477e-41
6.29 0.66 1.05 9.1477e-41
6.34 0.66 1.05 9.1477e-41
6.4 0.66 1.05 9.1477e-41
6.45 0.66 1.06 9.1477e-41
6.5 0.66 1.05 9.1477e-41
6.55 0.66 1.06 9.1477e-41
6.61 0.66 1.05 9.1477e-41
6.66 0.66 1.06 9.1477e-41
6.71 0.66 1.05 9.1477e-41
6.77 0.66 1.05 9.1477e-41
6.83 0.66 1.06 9.1477e-41
6.89 0.66 1.06 9.1477e-41
6.94 0.66 1.05 9.1477e-41
7.01 0.66 1.04 9.1477e-41
7.07 0.66 1.04 9.1477e-41
7.14 0.66 1.02 9.1477e-41
7.2 0.66 1.01 9.1477e-41
7.26 0.66 1.02 9.1477e-41
7.33 0.66 1.01 9.1477e-41
5.75 0.88 0.5 9.1477e-41
5.72 0.88 0.73 9.1477e-41
5.74 0.88 0.81 9.1477e-41
5.77 0.88 0.87 9.1477e-41
5.79 0.88 0.95 9.1477e-41
5.82 0.88 1.02 9.1477e-41
5.85 0.88 1.05 9.1477e-41
5.88 0.88 1.09 9.1477e-41
5.93 0.88 1.08 9.1477e-41
6.01 0.88 1.01 9.1477e-41
6.06 0.88 1.01 9.1477e-41
6.11 0.88 1.01 3.57e-43
6.14 0.88 1.01 3.57e-43
6.2 0.88 1.01 3.57e-43
6.25 0.88 1.01 3.57e-43
6.29 0.88 1.01 3.57e-43
6.34 0.88 1.01 3.57e-43
6.4 0.88 1.01 3.57e-43
6.45 0.88 1.01 3.57e-43
6.5 0.88 1.01 3.57e-43
6.55 0.88 1.06 9.1477e-41
6.59 0.88 1.08 9.1477e-41
6.64 0.88 1.08 3.57e-43
6.71 0.88 1.06 9.1477e-41
6.75 0.88 1.09 9.1477e-41
6.82 0.88 1.08 9.1477e-41
6.89 0.88 1.06 9.1477e-41
6.94 0.88 1.05 9.1477e-41
7.01 0.88 1.04 9.1477e-41
7.07 0.88 1.04 9.1477e-41
7.14 0.88 1.01 9.1477e-41
7.21 0.88 1 9.1477e-41
7.28 0.88 0.99 9.1477e-41
7.29 0.88 1.07 9.1477e-41
7.35 0.88 1.07 9.1477e-41
5.72 1.1 0.58 9.1477e-41
5.73 1.1 0.69 9.1477e-41
5.75 1.1 0.78 9.1477e-41
5.77 1.1 0.87 9.1477e-41
5.79 1.1 0.94 9.1477e-41
5.83 1.1 0.97 9.1477e-41
5.82 1.1 1.14 9.1477e-41
5.85 1.1 1.17 9.1477e-41
5.88 1.1 1.2 9.1477e-41
5.93 1.1 1.2 3.57e-43
6.06 1.1 1.2 3.57e-43
6.11 1.1 1.2 3.57e-43
6.14 1.1 1.2 3.57e-43
6.2 1.1 1.2 3.57e-43
6.25 1.1 1.2 3.57e-43
6.29 1.1 1.2 3.57e-43
6.34 1.1 1.2 3.57e-43
6.4 1.1 1.2 3.57e-43
6.45 1.1 1.2 3.57e-43
6.5 1.1 1.2 3.57e-43
6.55 1.1 1.2 3.57e-43
6.59 1.1 1.2 3.57e-43
6.64 1.1 1.2 3.57e-43
6.71 1.1 1.2 3.57e-43
6.75 1.1 1.2 3.57e-43
6.82 1.1 1.2 3.57e-43
6.89 1.1 1.2 3.57e-43
6.94 1.1 1.2 3.57e-43
7.01 1.1 1.2 3.57e-43
7.07 1.1 1.2 3.57e-43
7.14 1.1 1.2 3.57e-43
7.21 1.1 1.2 3.57e-43
7.28 1.1 1.2 3.57e-43
7.29 1.1 1.07 9.1477e-41
7.28 1.1 1.17 9.1477e-41
7.35 1.1 1.16 9.1477e-41
5.73 1.32 0.41 9.1477e-41
5.72 1.32 0.59 9.1477e-41
5.74 1.32 0.68 9.1477e-41
5.74 1.32 0.8 9.1477e-41
5.73 1.32 0.8 3.57e-43
5.79 1.32 0.95 9.1477e-41
5.78 1.32 1.09 9.1477e-41
5.83 1.32 1.09 3.57e-43
5.85 1.32 1.09 3.57e-43
5.88 1.32 1.2 9.1477e-41
5.88 1.32 1.33 9.1477e-41
5.91 1.32 1.37 9.1477e-41
5.94 1.32 1.37 3.57e-43
6.14 1.32 1.04 9.1477e-41
6.15 1.32 1.13 9.1477e-41
6.19 1.32 1.15 9.1477e-41
6.25 1.32 1.13 9.1477e-41
6.29 1.32 1.15 9.1477e-41
6.34 1.32 1.15 9.1477e-41
6.4 1.32 1.15 9.1477e-41
6.45 1.32 1.15 3.57e-43
6.55 1.32 1.15 3.57e-43
6.59 1.32 1.15 3.57e-43
6.64 1.32 1.15 3.57e-43
6.71 1.32 1.15 3.57e-43
6.75 1.32 1.15 3.57e-43
6.82 1.32 1.08 9.1477e-41
6.83 1.32 1.15 9.1477e-41
6.88 1.32 1.16 9.1477e-41
6.93 1.32 1.17 9.1477e-41
6.98 1.32 1.18 9.1477e-41
7.03 1.32 1.18 3.57e-43
7.21 1.32 1.01 9.1477e-41
7.2 1.32 1.11 9.1477e-41
7.25 1.32 1.11 3.57e-43
7.28 1.32 1.11 3.57e-43
7.35 1.32 1.11 3.57e-43
7.33 1.32 1.53 9.1477e-41
5.72 1.54 0.42 9.1477e-41
5.71 1.54 0.61 9.1477e-41
5.74 1.54 0.68 9.1477e-41
5.74 1.54 0.8 9.1477e-41
5.75 1.54 0.92 9.1477e-41
5.77 1.54 0.99 9.1477e-41
5.81 1.54 0.99 3.57e-43
5.83 1.54 0.99 3.57e-43
5.85 1.54 0.99 3.57e-43
5.88 1.54 0.99 3.57e-43
5.88 1.54 0.99 3.57e-43
5.91 1.54 1.37 9.1477e-41
5.9 1.54 1.48 9.1477e-41
5.93 1.54 1.52 9.1477e-41
5.97 1.54 1.52 3.57e-43
6.19 1.54 1.52 3.57e-43
6.25 1.54 1.52 3.57e-43
6.29 1.54 1.15 9.1477e-41
6.14 1.54 1.56 9.1477e-41
6.18 1.54 1.57 9.1477e-41
6.23 1.54 1.58 9.1477e-41
6.27 1.54 1.58 9.1477e-41
6.32 1.54 1.59 9.1477e-41
6.37 1.54 1.58 9.1477e-41
6.41 1.54 1.59 9.1477e-41
6.46 1.54 1.59 9.1477e-41
6.51 1.54 1.59 9.1477e-41
6.56 1.54 1.59 9.1477e-41
6.61 1.54 1.59 9.1477e-41
6.66 1.54 1.59 9.1477e-41
6.72 1.54 1.59 9.1477e-41
6.77 1.54 1.58 9.1477e-41
6.83 1.54 1.58 9.1477e-41
6.89 1.54 1.58 9.1477e-41
6.94 1.54 1.58 9.1477e-41
7.01 1.54 1.58 3.57e-43
7.35 1.54 1.16 9.1477e-41
7.14 1.54 1.53 9.1477e-41
7.19 1.54 1.53 9.1477e-41
7.25 1.54 1.54 9.1477e-41
7.32 1.54 1.52 9.1477e-41
5.72 1.76 0.43 9.1477e-41
5.71 1.76 0.62 9.1477e-41
5.73 1.76 0.7 9.1477e-41
5.74 1.76 0.82 9.1477e-41
5.75 1.76 0.92 9.1477e-41
5.77 1.76 1.01 9.1477e-41
5.8 1.76 1.01 3.57e-43
5.83 1.76 1.01 3.57e-43
5.85 1.76 1.01 3.57e-43
5.88 1.76 1.2 9.1477e-41
5.88 1.76 1.2 3.57e-43
5.91 1.76 1.2 3.57e-43
5.9 1.76 1.48 9.1477e-41
5.91 1.76 1.56 9.1477e-41
5.94 1.76 1.61 9.1477e-41
5.97 1.76 1.64 9.1477e-41
6.01 1.76 1.65 9.1477e-41
6.05 1.76 1.65 9.1477e-41
6.09 1.76 1.66 9.1477e-41
6.13 1.76 1.67 9.1477e-41
6.18 1.76 1.67 9.1477e-41
6.22 1.76 1.68 9.1477e-41
6.27 1.76 1.68 9.1477e-41
6.31 1.76 1.68 9.1477e-41
6.36 1.76 1.68 9.1477e-41
6.41 1.76 1.67 9.1477e-41
6.46 1.76 1.69 9.1477e-41
6.5 1.76 1.69 9.1477e-41
6.55 1.76 1.69 9.1477e-41
6.6 1.76 1.68 9.1477e-41
6.65 1.76 1.68 9.1477e-41
6.71 1.76 1.69 9.1477e-41
6.76 1.76 1.68 9.1477e-41
6.82 1.76 1.68 9.1477e-41
6.86 1.76 1.69 9.1477e-41
6.92 1.76 1.68 9.1477e-41
6.98 1.76 1.67 9.1477e-41
7.04 1.76 1.67 9.1477e-41
7.1 1.76 1.66 9.1477e-41
7.16 1.76 1.66 9.1477e-41
7.23 1.76 1.63 9.1477e-41
7.3 1.76 1.62 9.1477e-41
5.71 1.98 0.45 9.1477e-41
5.7 1.98 0.63 9.1477e-41
5.73 1.98 0.69 9.1477e-41
5.74 1.98 0.84 9.1477e-41
5.74 1.98 0.96 9.1477e-41
5.76 1.98 1.04 9.1477e-41
5.78 1.98 1.11 9.1477e-41
5.8 1.98 1.16 9.1477e-41
5.83 1.98 1.16 3.57e-43
5.88 1.98 1.16 3.57e-43
5.88 1.98 1.16 3.57e-43
5.91 1.98 1.16 3.57e-43
5.9 1.98 1.16 3.57e-43
5.91 1.98 1.56 9.1477e-41
5.93 1.98 1.63 9.1477e-41
5.96 1.98 1.66 9.1477e-41
5.98 1.98 1.7 9.1477e-41
6.03 1.98 1.7 9.1477e-41
6.07 1.98 1.7 9.1477e-41
6.11 1.98 1.72 9.1477e-41
6.16 1.98 1.71 9.1477e-41
6.19 1.98 1.73 9.1477e-41
6.24 1.98 1.73 9.1477e-41
6.28 1.98 1.74 9.1477e-41
6.32 1.98 1.75 9.1477e-41
6.37 1.98 1.74 9.1477e-41
6.42 1.98 1.74 9.1477e-41
6.47 1.98 1.74 9.1477e-41
6.52 1.98 1.75 9.1477e-41
6.57 1.98 1.74 9.1477e-41
6.62 1.98 1.74 9.1477e-41
6.67 1.98 1.75 9.1477e-41
6.72 1.98 1.74 9.1477e-41
6.77 1.98 1.74 9.1477e-41
6.82 1.98 1.76 9.1477e-41
6.88 1.98 1.74 9.1477e-41
6.93 1.98 1.74 9.1477e-41
6.99 1.98 1.74 9.1477e-41
7.06 1.98 1.73 9.1477e-41
7.1 1.98 1.73 9.1477e-41
7.18 1.98 1.71 9.1477e-41
7.24 1.98 1.7 9.1477e-41
7.31 1.98 1.68 9.1477e-41
5.72 2.2 0.43 9.1477e-41
5.7 2.2 0.63 9.1477e-41
5.73 2.2 0.7 9.1477e-41
5.74 2.2 0.83 9.1477e-41
5.74 2.2 0.96 9.1477e-41
5.76 2.2 1.03 9.1477e-41
5.78 2.2 1.11 9.1477e-41
5.8 2.2 1.16 9.1477e-41
5.83 2.2 1.24 9.1477e-41
5.84 2.2 1.32 9.1477e-41
5.85 2.2 1.4 9.1477e-41
5.87 2.2 1.47 9.1477e-41
5.89 2.2 1.52 9.1477e-41
5.91 2.2 1.58 9.1477e-41
5.93 2.2 1.63 9.1477e-41
5.96 2.2 1.67 9.1477e-41
5.98 2.2 1.71 9.1477e-41
6.01 2.2 1.74 9.1477e-41
6.06 2.2 1.73 9.1477e-41
6.09 2.2 1.75 9.1477e-41
6.14 2.2 1.75 9.1477e-41
6.18 2.2 1.75 9.1477e-41
6.23 2.2 1.76 9.1477e-41
6.27 2.2 1.76 9.1477e-41
6.31 2.2 1.77 9.1477e-41
6.36 2.2 1.76 9.1477e-41
6.41 2.2 1.76 9.1477e-41
6.45 2.2 1.78 9.1477e-41
6.5 2.2 1.77 9.1477e-41
6.55 2.2 1.77 9.1477e-41
6.6 2.2 1.76 9.1477e-41
6.65 2.2 1.77 9.1477e-41
6.7 2.2 1.77 9.1477e-41
6.75 2.2 1.77 9.1477e-41
6.81 2.2 1.77 9.1477e-41
6.85 2.2 1.78 9.1477e-41
6.92 2.2 1.76 9.1477e-41
6.97 2.2 1.77 9.1477e-41
7.02 2.2 1.77 9.1477e-41
7.09 2.2 1.74 9.1477e-41
7.15 2.2 1.75 9.1477e-41
7.21 2.2 1.73 9.1477e-41
7.28 2.2 1.72 9.1477e-41
5.72 2.42 0.43 9.1477e-41
5.72 2.42 0.58 9.1477e-41
5.73 2.42 0.71 9.1477e-41
5.74 2.42 0.84 9.1477e-41
5.75 2.42 0.93 9.1477e-41
5.76 2.42 1.03 9.1477e-41
5.79 2.42 1.03 3.57e-43
5.8 2.42 1.03 3.57e-43
5.83 2.42 1.03 3.57e-43
5.84 2.42 1.03 3.57e-43
5.85 2.42 1.03 3.57e-43
5.87 2.42 1.03 3.57e-43
5.89 2.42 1.03 3.57e-43
5.91 2.42 1.58 9.1477e-41
5.92 2.42 1.66 9.1477e-41
5.94 2.42 1.7 9.1477e-41
5.97 2.42 1.73 9.1477e-41
6.01 2.42 1.75 9.1477e-41
6.05 2.42 1.75 9.1477e-41
6.09 2.42 1.75 9.1477e-41
6.12 2.42 1.77 9.1477e-41
6.18 2.42 1.75 9.1477e-41
6.21 2.42 1.78 9.1477e-41
6.26 2.42 1.78 9.1477e-41
6.3 2.42 1.79 9.1477e-41
6.35 2.42 1.79 9.1477e-41
6.4 2.42 1.78 9.1477e-41
6.44 2.42 1.79 9.1477e-41
6.49 2.42 1.79 9.1477e-41
6.54 2.42 1.79 9.1477e-41
6.59 2.42 1.79 9.1477e-41
6.64 2.42 1.79 9.1477e-41
6.68 2.42 1.8 9.1477e-41
6.74 2.42 1.79 9.1477e-41
6.78 2.42 1.8 9.1477e-41
6.84 2.42 1.8 9.1477e-41
6.9 2.42 1.79 9.1477e-41
6.95 2.42 1.79 9.1477e-41
7.01 2.42 1.78 9.1477e-41
7.07 2.42 1.78 9.1477e-41
7.13 2.42 1.77 9.1477e-41
7.19 2.42 1.76 9.1477e-41
7.27 2.42 1.74 9.1477e-41
5.72 2.64 0.42 9.1477e-41
5.73 2.64 0.54 9.1477e-41
5.73 2.64 0.71 9.1477e-41
5.74 2.64 0.83 9.1477e-41
5.75 2.64 0.92 9.1477e-41
5.76 2.64 1.02 9.1477e-41
5.78 2.64 1.02 3.57e-43
5.8 2.64 1.02 3.57e-43
5.83 2.64 1.02 3.57e-43
5.84 2.64 1.02 3.57e-43
5.85 2.64 1.4 9.1477e-41
5.96 2.64 1.25 9.1477e-41
6 2.64 1.25 3.57e-43
5.91 2.64 1.58 9.1477e-41
5.92 2.64 1.65 9.1477e-41
5.95 2.64 1.69 9.1477e-41
5.98 2.64 1.72 9.1477e-41
6 2.64 1.76 9.1477e-41
6.04 2.64 1.76 9.1477e-41
6.09 2.64 1.75 9.1477e-41
6.12 2.64 1.78 9.1477e-41
6.17 2.64 1.77 9.1477e-41
6.2 2.64 1.8 9.1477e-41
6.25 2.64 1.8 9.1477e-41
6.3 2.64 1.79 9.1477e-41
6.34 2.64 1.8 9.1477e-41
6.39 2.64 1.79 9.1477e-41
6.43 2.64 1.8 9.1477e-41
6.48 2.64 1.8 9.1477e-41
6.53 2.64 1.8 9.1477e-41
6.58 2.64 1.81 9.1477e-41
6.63 2.64 1.8 9.1477e-41
6.68 2.64 1.81 9.1477e-41
6.73 2.64 1.8 9.1477e-41
6.78 2.64 1.8 9.1477e-41
6.83 2.64 1.81 9.1477e-41
6.88 2.64 1.81 9.1477e-41
6.95 2.64 1.8 9.1477e-41
7 2.64 1.8 9.1477e-41
7.06 2.64 1.8 9.1477e-41
7.12 2.64 1.78 9.1477e-41
7.19 2.64 1.76 9.1477e-41
7.25 2.64 1.76 9.1477e-41
5.71 2.86 0.62 9.1477e-41
5.72 2.86 0.73 9.1477e-41
5.74 2.86 0.81 9.1477e-41
5.75 2.86 0.92 9.1477e-41
5.77 2.86 1.01 9.1477e-41
5.79 2.86 1.01 3.57e-43
5.8 2.86 1.01 3.57e-43
5.83 2.86 1.01 3.57e-43
5.84 2.86 1.01 3.57e-43
5.85 2.86 1.01 3.57e-43
5.96 2.86 1.01 3.57e-43
6 2.86 1.01 3.57e-43
5.91 2.86 1.58 9.1477e-41
5.92 2.86 1.64 9.1477e-41
5.95 2.86 1.69 9.1477e-41
5.98 2.86 1.72 9.1477e-41
6 2.86 1.76 9.1477e-41
6.04 2.86 1.77 9.1477e-41
6.09 2.86 1.76 9.1477e-41
6.12 2.86 1.79 9.1477e-41
6.16 2.86 1.78 9.1477e-41
6.2 2.86 1.8 9.1477e-41
6.25 2.86 1.8 9.1477e-41
6.3 2.86 1.79 9.1477e-41
6.34 2.86 1.8 9.1477e-41
6.39 2.86 1.8 9.1477e-41
6.43 2.86 1.81 9.1477e-41
6.48 2.86 1.81 9.1477e-41
6.52 2.86 1.81 9.1477e-41
6.58 2.86 1.81 9.1477e-41
6.62 2.86 1.81 9.1477e-41
6.67 2.86 1.82 9.1477e-41
6.73 2.86 1.81 9.1477e-41
6.78 2.86 1.81 9.1477e-41
6.83 2.86 1.81 9.1477e-41
6.89 2.86 1.81 9.1477e-41
6.94 2.86 1.81 9.1477e-41
7 2.86 1.8 9.1477e-41
7.06 2.86 1.79 9.1477e-41
7.11 2.86 1.79 9.1477e-41
7.18 2.86 1.78 9.1477e-41
7.25 2.86 1.77 9.1477e-41
5.74 3.08 0.54 9.1477e-41
5.71 3.08 0.75 9.1477e-41
5.74 3.08 0.83 9.1477e-41
5.75 3.08 0.92 9.1477e-41
5.76 3.08 1.02 9.1477e-41
5.79 3.08 1.08 9.1477e-41
5.79 3.08 1.2 9.1477e-41
5.84 3.08 1.2 3.57e-43
5.84 3.08 1.2 3.57e-43
5.85 3.08 1.2 3.57e-43
5.96 3.08 1.2 3.57e-43
6 3.08 1.2 3.57e-43
5.91 3.08 1.2 3.57e-43
5.92 3.08 1.64 9.1477e-41
5.94 3.08 1.7 9.1477e-41
5.98 3.08 1.72 9.1477e-41
6.01 3.08 1.75 9.1477e-41
6.04 3.08 1.77 9.1477e-41
6.08 3.08 1.77 9.1477e-41
6.12 3.08 1.78 9.1477e-41
6.16 3.08 1.78 9.1477e-41
6.2 3.08 1.8 9.1477e-41
6.25 3.08 1.8 9.1477e-41
6.29 3.08 1.8 9.1477e-41
6.34 3.08 1.8 9.1477e-41
6.39 3.08 1.8 9.1477e-41
6.43 3.08 1.81 9.1477e-41
6.47 3.08 1.81 9.1477e-41
6.52 3.08 1.81 9.1477e-41
6.57 3.08 1.81 9.1477e-41
6.63 3.08 1.8 9.1477e-41
6.67 3.08 1.82 9.1477e-41
6.73 3.08 1.81 9.1477e-41
6.78 3.08 1.81 9.1477e-41
6.83 3.08 1.82 9.1477e-41
6.88 3.08 1.81 9.1477e-41
6.93 3.08 1.81 9.1477e-41
7 3.08 1.8 9.1477e-41
7.06 3.08 1.8 9.1477e-41
7.11 3.08 1.79 9.1477e-41
7.18 3.08 1.78 9.1477e-41
7.25 3.08 1.77 9.1477e-41
5.74 3.3 0.54 9.1477e-41
5.72 3.3 0.74 9.1477e-41
5.74 3.3 0.82 9.1477e-41
5.76 3.3 0.9 9.1477e-41
5.77 3.3 0.99 9.1477e-41
5.79 3.3 1.08 9.1477e-41
5.79 3.3 1.19 9.1477e-41
5.83 3.3 1.19 3.57e-43
5.84 3.3 1.19 3.57e-43
5.85 3.3 1.19 3.57e-43
5.96 3.3 1.19 3.57e-43
6 3.3 1.19 3.57e-43
5.91 3.3 1.58 9.1477e-41
5.93 3.3 1.62 9.1477e-41
5.96 3.3 1.67 9.1477e-41
5.98 3.3 1.71 9.1477e-41
6.01 3.3 1.75 9.1477e-41
6.03 3.3 1.78 9.1477e-41
6.08 3.3 1.77 9.1477e-41
6.12 3.3 1.77 9.1477e-41
6.16 3.3 1.78 9.1477e-41
6.21 3.3 1.78 9.1477e-41
6.25 3.3 1.79 9.1477e-41
6.3 3.3 1.79 9.1477e-41
6.34 3.3 1.8 9.1477e-41
6.39 3.3 1.8 9.1477e-41
6.43 3.3 1.81 9.1477e-41
6.48 3.3 1.81 9.1477e-41
6.54 3.3 1.79 9.1477e-41
6.57 3.3 1.81 9.1477e-41
6.63 3.3 1.8 9.1477e-41
6.68 3.3 1.81 9.1477e-41
6.73 3.3 1.81 9.1477e-41
6.78 3.3 1.81 9.1477e-41
6.83 3.3 1.82 9.1477e-41
6.89 3.3 1.81 9.1477e-41
6.94 3.3 1.81 9.1477e-41
7 3.3 1.8 9.1477e-41
7.05 3.3 1.8 9.1477e-41
7.12 3.3 1.79 9.1477e-41
7.18 3.3 1.77 9.1477e-41
7.25 3.3 1.75 9.1477e-41
5.73 3.52 0.55 9.1477e-41
5.75 3.52 0.67 9.1477e-41
5.76 3.52 0.75 9.1477e-41
5.77 3.52 0.87 9.1477e-41
5.78 3.52 0.97 9.1477e-41
5.79 3.52 1.06 9.1477e-41
5.81 3.52 1.16 9.1477e-41
5.82 3.52 1.25 9.1477e-41
5.84 3.52 1.32 9.1477e-41
5.86 3.52 1.38 9.1477e-41
5.88 3.52 1.43 9.1477e-41
5.9 3.52 1.5 9.1477e-41
5.92 3.52 1.55 9.1477e-41
5.94 3.52 1.61 9.1477e-41
5.96 3.52 1.66 9.1477e-41
5.99 3.52 1.69 9.1477e-41
6.02 3.52 1.73 9.1477e-41
6.05 3.52 1.76 9.1477e-41
6.09 3.52 1.75 9.1477e-41
6.12 3.52 1.77 9.1477e-41
6.17 3.52 1.77 9.1477e-41
6.21 3.52 1.78 9.1477e-41
6.26 3.52 1.78 9.1477e-41
6.3 3.52 1.79 9.1477e-41
6.35 3.52 1.79 9.1477e-41
6.39 3.52 1.79 9.1477e-41
6.44 3.52 1.79 9.1477e-41
6.48 3.52 1.8 9.1477e-41
6.54 3.52 1.79 9.1477e-41
6.59 3.52 1.79 9.1477e-41
6.64 3.52 1.79 9.1477e-41
6.68 3.52 1.8 9.1477e-41
6.74 3.52 1.79 9.1477e-41
6.79 3.52 1.79 9.1477e-41
6.84 3.52 1.81 9.1477e-41
6.9 3.52 1.79 9.1477e-41
6.95 3.52 1.79 9.1477e-41
7.02 3.52 1.77 9.1477e-41
7.06 3.52 1.79 9.1477e-41
7.13 3.52 1.77 9.1477e-41
7.2 3.52 1.75 9.1477e-41
7.26 3.52 1.75 9.1477e-41
5.91 3.74 0.48 9.1477e-41
5.96 3.74 0.49 9.1477e-41
6.01 3.74 0.5 9.1477e-41
6.06 3.74 0.49 9.1477e-41
6.12 3.74 0.49 9.1477e-41
6.17 3.74 0.49 9.1477e-41
6.22 3.74 0.5 9.1477e-41
6.28 3.74 0.48 9.1477e-41
6.33 3.74 0.49 9.1477e-41
6.39 3.74 0.49 9.1477e-41
6.45 3.74 0.49 9.1477e-41
6.47 3.74 0.56 9.1477e-41
6.45 3.74 0.72 9.1477e-41
6.46 3.74 0.81 9.1477e-41
6.48 3.74 0.89 9.1477e-41
6.5 3.74 0.96 9.1477e-41
6.53 3.74 0.99 9.1477e-41
6.58 3.74 0.99 9.1477e-41
6.62 3.74 1.02 9.1477e-41
6.7 3.74 0.99 9.1477e-41
6.74 3.74 1.01 9.1477e-41
6.79 3.74 1.01 3.57e-43
6.39 3.74 1.8 9.1477e-41
6.92 3.74 0.98 9.1477e-41
6.99 3.74 0.98 3.57e-43
6.54 3.74 1.8 9.1477e-41
