# .PCD v.7 - Point Cloud Data file format
VERSION .7
FIELDS x y z rgb
SIZE 4 4 4 4
TYPE F F F F
WIDTH 1907
HEIGHT 1
POINTS 1907
DATA ascii
7.28 0.6 0.99 9.1477e-41
7.34 0.6 0.99 9.1477e-41
7.41 0.6 0.99 9.1477e-41
5.83 0.66 0.41 9.1477e-41
5.85 0.66 0.51 9.1477e-41
5.83 0.66 0.7 9.1477e-41
5.85 0.66 0.78 9.1477e-41
5.88 0.66 0.84 9.1477e-41
5.91 0.66 0.91 9.1477e-41
5.94 0.66 0.96 9.1477e-41
5.97 0.66 1 9.1477e-41
6.01 0.66 1.02 9.1477e-41
6.06 0.66 1.02 9.1477e-41
6.1 0.66 1.02 9.1477e-41
6.16 0.66 1.01 9.1477e-41
6.21 0.66 1.02 9.1477e-41
6.25 0.66 1.03 9.1477e-41
6.31 0.66 1.03 9.1477e-41
6.36 0.66 1.03 9.1477e-41
6.41 0.66 1.03 9.1477e-41
6.46 0.66 1.04 9.1477e-41
6.51 0.66 1.03 9.1477e-41
6.56 0.66 1.05 9.1477e-41
6.61 0.66 1.04 9.1477e-41
6.66 0.66 1.05 9.1477e-41
6.73 0.66 1.04 9.1477e-41
6.78 0.66 1.04 9.1477e-41
6.84 0.66 1.04 9.1477e-41
6.89 0.66 1.05 9.1477e-41
6.95 0.66 1.05 9.1477e-41
7.02 0.66 1.03 9.1477e-41
7.07 0.66 1.03 9.1477e-41
7.14 0.66 1.02 9.1477e-41
7.2 0.66 1.01 9.1477e-41
7.27 0.66 1.01 9.1477e-41
7.33 0.66 1 9.1477e-41
7.4 0.66 1.01 9.1477e-41
5.84 0.72 0.53 9.1477e-41
5.83 0.72 0.71 9.1477e-41
5.85 0.72 0.8 9.1477e-41
5.87 0.72 0.86 9.1477e-41
5.91 0.72 0.91 9.1477e-41
5.93 0.72 0.98 9.1477e-41
5.96 0.72 1.01 9.1477e-41
6.01 0.72 1.03 9.1477e-41
6.05 0.72 1.03 9.1477e-41
6.1 0.72 1.03 9.1477e-41
6.15 0.72 1.04 9.1477e-41
6.2 0.72 1.03 9.1477e-41
6.24 0.72 1.05 9.1477e-41
6.3 0.72 1.04 9.1477e-41
6.34 0.72 1.05 9.1477e-41
6.39 0.72 1.07 9.1477e-41
6.45 0.72 1.06 9.1477e-41
6.5 0.72 1.06 9.1477e-41
6.55 0.72 1.06 9.1477e-41
6.6 0.72 1.06 9.1477e-41
6.66 0.72 1.07 9.1477e-41
6.71 0.72 1.07 9.1477e-41
6.77 0.72 1.06 9.1477e-41
6.83 0.72 1.07 9.1477e-41
6.88 0.72 1.06 9.1477e-41
6.94 0.72 1.06 9.1477e-41
7 0.72 1.05 9.1477e-41
7.06 0.72 1.05 9.1477e-41
7.13 0.72 1.04 9.1477e-41
7.19 0.72 1.02 9.1477e-41
7.26 0.72 1.03 9.1477e-41
7.32 0.72 1.03 9.1477e-41
7.39 0.72 1.02 9.1477e-41
7.46 0.72 1.01 9.1477e-41
5.84 0.78 0.54 9.1477e-41
5.82 0.78 0.73 9.1477e-41
5.84 0.78 0.81 9.1477e-41
5.87 0.78 0.88 9.1477e-41
5.9 0.78 0.92 9.1477e-41
5.93 0.78 0.97 9.1477e-41
5.96 0.78 1.03 9.1477e-41
6 0.78 1.04 9.1477e-41
6.04 0.78 1.05 9.1477e-41
6.09 0.78 1.05 9.1477e-41
6.14 0.78 1.06 9.1477e-41
6.19 0.78 1.06 9.1477e-41
6.24 0.78 1.06 9.1477e-41
6.29 0.78 1.06 9.1477e-41
6.33 0.78 1.07 9.1477e-41
6.39 0.78 1.07 9.1477e-41
6.44 0.78 1.08 9.1477e-41
6.49 0.78 1.08 9.1477e-41
6.54 0.78 1.07 9.1477e-41
6.59 0.78 1.08 9.1477e-41
6.65 0.78 1.08 9.1477e-41
6.7 0.78 1.09 9.1477e-41
6.76 0.78 1.08 9.1477e-41
6.81 0.78 1.09 9.1477e-41
6.87 0.78 1.08 9.1477e-41
6.93 0.78 1.07 9.1477e-41
6.99 0.78 1.07 9.1477e-41
7.05 0.78 1.07 9.1477e-41
7.12 0.78 1.05 9.1477e-41
7.18 0.78 1.05 9.1477e-41
7.25 0.78 1.03 9.1477e-41
7.31 0.78 1.04 9.1477e-41
7.37 0.78 1.03 9.1477e-41
7.45 0.78 1.02 9.1477e-41
5.84 0.84 0.54 9.1477e-41
5.82 0.84 0.74 9.1477e-41
5.84 0.84 0.82 9.1477e-41
5.86 0.84 0.89 9.1477e-41
5.89 0.84 0.94 9.1477e-41
5.92 0.84 1 9.1477e-41
5.95 0.84 1.05 9.1477e-41
5.99 0.84 1.05 9.1477e-41
6.04 0.84 1.06 9.1477e-41
6.09 0.84 1.05 9.1477e-41
6.14 0.84 1.07 9.1477e-41
6.19 0.84 1.07 9.1477e-41
6.23 0.84 1.08 9.1477e-41
6.28 0.84 1.07 9.1477e-41
6.33 0.84 1.08 9.1477e-41
6.38 0.84 1.09 9.1477e-41
6.43 0.84 1.09 9.1477e-41
6.48 0.84 1.09 9.1477e-41
6.53 0.84 1.09 9.1477e-41
6.59 0.84 1.09 9.1477e-41
6.64 0.84 1.09 9.1477e-41
6.7 0.84 1.09 9.1477e-41
6.75 0.84 1.09 9.1477e-41
6.81 0.84 1.1 9.1477e-41
6.87 0.84 1.08 9.1477e-41
6.93 0.84 1.08 9.1477e-41
6.98 0.84 1.08 9.1477e-41
7.05 0.84 1.07 9.1477e-41
7.1 0.84 1.07 9.1477e-41
7.17 0.84 1.06 9.1477e-41
7.23 0.84 1.06 9.1477e-41
7.3 0.84 1.05 9.1477e-41
7.36 0.84 1.05 9.1477e-41
7.44 0.84 1.04 9.1477e-41
5.84 0.9 0.53 9.1477e-41
5.82 0.9 0.74 9.1477e-41
5.83 0.9 0.83 9.1477e-41
5.86 0.9 0.9 9.1477e-41
5.89 0.9 0.95 9.1477e-41
5.92 0.9 1.01 9.1477e-41
5.95 0.9 1.06 9.1477e-41
5.99 0.9 1.06 9.1477e-41
6.04 0.9 1.07 9.1477e-41
6.08 0.9 1.07 9.1477e-41
6.13 0.9 1.08 9.1477e-41
6.18 0.9 1.09 9.1477e-41
6.23 0.9 1.08 9.1477e-41
6.28 0.9 1.08 9.1477e-41
6.33 0.9 1.08 9.1477e-41
6.38 0.9 1.08 9.1477e-41
6.45 0.9 1.05 9.1477e-41
6.51 0.9 1.04 9.1477e-41
6.57 0.9 1.02 9.1477e-41
6.63 0.9 1.03 9.1477e-41
6.69 0.9 1.01 9.1477e-41
6.73 0.9 1.03 9.1477e-41
6.8 0.9 1.01 9.1477e-41
6.86 0.9 1.01 9.1477e-41
6.88 0.9 1.06 9.1477e-41
6.93 0.9 1.07 9.1477e-41
6.98 0.9 1.08 9.1477e-41
7.04 0.9 1.08 9.1477e-41
7.1 0.9 1.07 9.1477e-41
7.16 0.9 1.07 9.1477e-41
7.23 0.9 1.06 9.1477e-41
7.29 0.9 1.07 9.1477e-41
7.36 0.9 1.06 9.1477e-41
7.42 0.9 1.07 9.1477e-41
5.84 0.96 0.54 9.1477e-41
5.82 0.96 0.74 9.1477e-41
5.84 0.96 0.82 9.1477e-41
5.86 0.96 0.9 9.1477e-41
5.89 0.96 0.95 9.1477e-41
5.91 0.96 1.02 9.1477e-41
5.94 0.96 1.07 9.1477e-41
5.98 0.96 1.08 9.1477e-41
6.03 0.96 1.08 9.1477e-41
6.08 0.96 1.09 9.1477e-41
6.13 0.96 1.07 9.1477e-41
6.21 0.96 1.02 9.1477e-41
6.26 0.96 1.02 9.1477e-41
6.31 0.96 1.02 9.1477e-41
6.36 0.96 1.03 9.1477e-41
6.41 0.96 1.03 9.1477e-41
6.46 0.96 1.04 9.1477e-41
6.51 0.96 1.03 9.1477e-41
6.57 0.96 1.03 9.1477e-41
6.62 0.96 1.04 9.1477e-41
6.67 0.96 1.04 3.57e-43
6.73 0.96 1.04 3.57e-43
6.8 0.96 1.04 3.57e-43
6.86 0.96 1.01 9.1477e-41
6.9 0.96 1.04 9.1477e-41
6.95 0.96 1.04 9.1477e-41
7.02 0.96 1.03 9.1477e-41
7.08 0.96 1.01 9.1477e-41
7.15 0.96 1 9.1477e-41
7.22 0.96 0.98 9.1477e-41
7.25 0.96 1.04 9.1477e-41
7.29 0.96 1.06 9.1477e-41
7.34 0.96 1.08 9.1477e-41
7.42 0.96 1.07 9.1477e-41
5.84 1.02 0.54 9.1477e-41
5.81 1.02 0.75 9.1477e-41
5.83 1.02 0.83 9.1477e-41
5.86 1.02 0.9 9.1477e-41
5.88 1.02 0.96 9.1477e-41
5.91 1.02 1.03 9.1477e-41
5.93 1.02 1.08 9.1477e-41
5.98 1.02 1.1 9.1477e-41
6.02 1.02 1.1 9.1477e-41
6.11 1.02 1.1 3.57e-43
6.13 1.02 1.1 3.57e-43
6.21 1.02 1.1 3.57e-43
6.26 1.02 1.1 3.57e-43
6.31 1.02 1.1 3.57e-43
6.36 1.02 1.1 3.57e-43
6.41 1.02 1.1 3.57e-43
6.46 1.02 1.1 3.57e-43
6.51 1.02 1.03 9.1477e-41
6.52 1.02 1.11 9.1477e-41
6.58 1.02 1.1 9.1477e-41
6.63 1.02 1.12 9.1477e-41
6.69 1.02 1.11 9.1477e-41
6.75 1.02 1.11 3.57e-43
6.86 1.02 1.01 9.1477e-41
6.86 1.02 1.1 9.1477e-41
6.92 1.02 1.09 9.1477e-41
6.99 1.02 1.06 9.1477e-41
7.06 1.02 1.05 9.1477e-41
7.12 1.02 1.05 9.1477e-41
7.19 1.02 1.02 9.1477e-41
7.26 1.02 1.02 9.1477e-41
7.34 1.02 0.99 9.1477e-41
7.39 1.02 1.03 9.1477e-41
7.41 1.02 1.08 9.1477e-41
7.47 1.02 1.08 9.1477e-41
5.82 1.08 0.59 9.1477e-41
5.81 1.08 0.75 9.1477e-41
5.83 1.08 0.83 9.1477e-41
5.86 1.08 0.91 9.1477e-41
5.88 1.08 0.97 9.1477e-41
5.9 1.08 1.04 9.1477e-41
5.93 1.08 1.07 9.1477e-41
5.97 1.08 1.07 3.57e-43
6.02 1.08 1.07 3.57e-43
6.11 1.08 1.07 3.57e-43
6.13 1.08 1.07 3.57e-43
6.21 1.08 1.07 3.57e-43
6.26 1.08 1.07 3.57e-43
6.31 1.08 1.07 3.57e-43
6.36 1.08 1.07 3.57e-43
6.41 1.08 1.07 3.57e-43
6.46 1.08 1.07 3.57e-43
6.51 1.08 1.07 3.57e-43
6.52 1.08 1.07 3.57e-43
6.58 1.08 1.07 3.57e-43
6.63 1.08 1.07 3.57e-43
6.69 1.08 1.07 3.57e-43
6.75 1.08 1.07 3.57e-43
6.86 1.08 1.07 3.57e-43
6.86 1.08 1.07 3.57e-43
6.92 1.08 1.07 3.57e-43
6.99 1.08 1.07 3.57e-43
7.06 1.08 1.07 3.57e-43
7.12 1.08 1.07 3.57e-43
7.19 1.08 1.07 3.57e-43
7.26 1.08 1.07 3.57e-43
7.34 1.08 0.99 9.1477e-41
7.39 1.08 1.03 9.1477e-41
7.43 1.08 1.06 9.1477e-41
7.46 1.08 1.1 9.1477e-41
5.82 1.14 0.43 9.1477e-41
5.81 1.14 0.63 9.1477e-41
5.82 1.14 0.74 9.1477e-41
5.84 1.14 0.82 9.1477e-41
5.86 1.14 0.91 9.1477e-41
5.88 1.14 0.97 9.1477e-41
5.9 1.14 1.05 9.1477e-41
5.93 1.14 1.1 9.1477e-41
5.96 1.14 1.14 9.1477e-41
6.02 1.14 1.14 3.57e-43
6.11 1.14 1.14 3.57e-43
6.13 1.14 1.14 3.57e-43
6.21 1.14 1.14 3.57e-43
6.26 1.14 1.14 3.57e-43
6.31 1.14 1.14 3.57e-43
6.36 1.14 1.14 3.57e-43
6.41 1.14 1.14 3.57e-43
6.46 1.14 1.14 3.57e-43
6.51 1.14 1.14 3.57e-43
6.52 1.14 1.14 3.57e-43
6.58 1.14 1.14 3.57e-43
6.63 1.14 1.14 3.57e-43
6.69 1.14 1.14 3.57e-43
6.75 1.14 1.14 3.57e-43
6.86 1.14 1.14 3.57e-43
6.86 1.14 1.14 3.57e-43
6.92 1.14 1.14 3.57e-43
6.99 1.14 1.14 3.57e-43
7.06 1.14 1.14 3.57e-43
7.12 1.14 1.14 3.57e-43
7.19 1.14 1.14 3.57e-43
7.26 1.14 1.14 3.57e-43
7.34 1.14 1.14 3.57e-43
7.39 1.14 1.03 9.1477e-41
7.4 1.14 1.09 9.1477e-41
7.45 1.14 1.11 9.1477e-41
5.83 1.2 0.4 9.1477e-41
5.81 1.2 0.63 9.1477e-41
5.82 1.2 0.73 9.1477e-41
5.84 1.2 0.82 9.1477e-41
5.86 1.2 0.9 9.1477e-41
5.89 1.2 0.95 9.1477e-41
5.89 1.2 1.07 9.1477e-41
5.92 1.2 1.11 9.1477e-41
5.95 1.2 1.17 9.1477e-41
5.99 1.2 1.17 3.57e-43
6.11 1.2 1.17 3.57e-43
6.13 1.2 1.17 3.57e-43
6.21 1.2 1.17 3.57e-43
6.26 1.2 1.17 3.57e-43
6.31 1.2 1.17 3.57e-43
6.36 1.2 1.17 3.57e-43
6.41 1.2 1.17 3.57e-43
6.46 1.2 1.17 3.57e-43
6.51 1.2 1.17 3.57e-43
6.52 1.2 1.17 3.57e-43
6.58 1.2 1.17 3.57e-43
6.63 1.2 1.17 3.57e-43
6.69 1.2 1.17 3.57e-43
6.75 1.2 1.17 3.57e-43
6.86 1.2 1.17 3.57e-43
6.86 1.2 1.17 3.57e-43
6.92 1.2 1.09 9.1477e-41
6.89 1.2 1.09 3.57e-43
7.06 1.2 1.09 3.57e-43
7.12 1.2 1.09 3.57e-43
7.19 1.2 1.09 3.57e-43
7.26 1.2 1.09 3.57e-43
7.34 1.2 1.09 3.57e-43
7.39 1.2 1.03 9.1477e-41
7.38 1.2 1.12 9.1477e-41
7.44 1.2 1.12 9.1477e-41
5.81 1.26 0.46 9.1477e-41
5.81 1.26 0.62 9.1477e-41
5.82 1.26 0.72 9.1477e-41
5.84 1.26 0.81 9.1477e-41
5.86 1.26 0.91 9.1477e-41
5.89 1.26 0.91 3.57e-43
5.89 1.26 1.07 9.1477e-41
5.91 1.26 1.14 9.1477e-41
5.94 1.26 1.18 9.1477e-41
5.97 1.26 1.22 9.1477e-41
6.03 1.26 1.22 3.57e-43
6.13 1.26 1.22 3.57e-43
6.21 1.26 1.22 3.57e-43
6.26 1.26 1.22 3.57e-43
6.31 1.26 1.22 3.57e-43
6.36 1.26 1.22 3.57e-43
6.41 1.26 1.22 3.57e-43
6.46 1.26 1.22 3.57e-43
6.51 1.26 1.22 3.57e-43
6.52 1.26 1.22 3.57e-43
6.58 1.26 1.22 3.57e-43
6.63 1.26 1.22 3.57e-43
6.69 1.26 1.22 3.57e-43
6.75 1.26 1.22 3.57e-43
6.86 1.26 1.22 3.57e-43
6.86 1.26 1.22 3.57e-43
6.92 1.26 1.22 3.57e-43
6.89 1.26 1.22 3.57e-43
7.06 1.26 1.22 3.57e-43
7.12 1.26 1.22 3.57e-43
7.19 1.26 1.22 3.57e-43
7.26 1.26 1.22 3.57e-43
7.34 1.26 1.22 3.57e-43
7.39 1.26 1.22 3.57e-43
7.38 1.26 1.12 9.1477e-41
7.41 1.26 1.16 9.1477e-41
7.46 1.26 1.18 9.1477e-41
5.8 1.32 0.49 9.1477e-41
5.81 1.32 0.62 9.1477e-41
5.82 1.32 0.72 9.1477e-41
5.84 1.32 0.82 9.1477e-41
5.85 1.32 0.91 9.1477e-41
5.88 1.32 0.91 3.57e-43
5.89 1.32 1.07 9.1477e-41
5.9 1.32 1.17 9.1477e-41
5.93 1.32 1.2 9.1477e-41
5.96 1.32 1.25 9.1477e-41
6 1.32 1.25 3.57e-43
6.13 1.32 1.25 3.57e-43
6.21 1.32 1.25 3.57e-43
6.26 1.32 1.25 3.57e-43
6.31 1.32 1.25 3.57e-43
6.36 1.32 1.25 3.57e-43
6.41 1.32 1.25 3.57e-43
6.46 1.32 1.25 3.57e-43
6.51 1.32 1.25 3.57e-43
6.52 1.32 1.25 3.57e-43
6.58 1.32 1.25 3.57e-43
6.63 1.32 1.25 3.57e-43
6.69 1.32 1.25 3.57e-43
6.75 1.32 1.25 3.57e-43
6.86 1.32 1.25 3.57e-43
6.86 1.32 1.25 3.57e-43
6.92 1.32 1.25 3.57e-43
6.89 1.32 1.25 3.57e-43
7.06 1.32 1.25 3.57e-43
7.12 1.32 1.25 3.57e-43
7.19 1.32 1.25 3.57e-43
7.26 1.32 1.25 3.57e-43
7.34 1.32 1.25 3.57e-43
7.39 1.32 1.25 3.57e-43
7.38 1.32 1.12 9.1477e-41
7.39 1.32 1.18 9.1477e-41
7.43 1.32 1.22 9.1477e-41
5.8 1.38 0.5 9.1477e-41
5.81 1.38 0.61 9.1477e-41
5.82 1.38 0.72 9.1477e-41
5.84 1.38 0.82 9.1477e-41
5.85 1.38 0.92 9.1477e-41
5.88 1.38 0.98 9.1477e-41
5.91 1.38 1.03 9.1477e-41
5.93 1.38 1.1 9.1477e-41
5.92 1.38 1.24 9.1477e-41
5.95 1.38 1.26 9.1477e-41
5.99 1.38 1.3 9.1477e-41
6.03 1.38 1.31 9.1477e-41
6.08 1.38 1.29 9.1477e-41
6.12 1.38 1.29 3.57e-43
6.31 1.38 1.29 3.57e-43
6.36 1.38 1.29 3.57e-43
6.41 1.38 1.29 3.57e-43
6.46 1.38 1.29 3.57e-43
6.51 1.38 1.29 3.57e-43
6.52 1.38 1.29 3.57e-43
6.58 1.38 1.29 3.57e-43
6.63 1.38 1.29 3.57e-43
6.69 1.38 1.29 3.57e-43
6.75 1.38 1.29 3.57e-43
6.86 1.38 1.29 3.57e-43
6.86 1.38 1.29 3.57e-43
6.92 1.38 1.29 3.57e-43
6.89 1.38 1.29 3.57e-43
7.06 1.38 1.29 3.57e-43
7.12 1.38 1.29 3.57e-43
7.19 1.38 1.29 3.57e-43
7.26 1.38 1.29 3.57e-43
7.34 1.38 1.29 3.57e-43
7.39 1.38 1.29 3.57e-43
7.38 1.38 1.29 3.57e-43
7.39 1.38 1.18 9.1477e-41
7.4 1.38 1.26 9.1477e-41
7.45 1.38 1.28 9.1477e-41
5.8 1.44 0.49 9.1477e-41
5.81 1.44 0.61 9.1477e-41
5.82 1.44 0.72 9.1477e-41
5.83 1.44 0.84 9.1477e-41
5.85 1.44 0.93 9.1477e-41
5.88 1.44 0.97 9.1477e-41
5.91 1.44 0.97 3.57e-43
5.93 1.44 0.97 3.57e-43
5.92 1.44 1.24 9.1477e-41
5.94 1.44 1.3 9.1477e-41
5.97 1.44 1.33 9.1477e-41
6.01 1.44 1.33 3.57e-43
6.08 1.44 1.33 3.57e-43
6.12 1.44 1.33 3.57e-43
6.31 1.44 1.33 3.57e-43
6.36 1.44 1.33 3.57e-43
6.41 1.44 1.33 3.57e-43
6.46 1.44 1.33 3.57e-43
6.51 1.44 1.33 3.57e-43
6.52 1.44 1.33 3.57e-43
6.58 1.44 1.33 3.57e-43
6.63 1.44 1.33 3.57e-43
6.69 1.44 1.33 3.57e-43
6.75 1.44 1.33 3.57e-43
6.86 1.44 1.33 3.57e-43
6.86 1.44 1.33 3.57e-43
6.92 1.44 1.33 3.57e-43
6.89 1.44 1.33 3.57e-43
7.06 1.44 1.33 3.57e-43
7.12 1.44 1.33 3.57e-43
7.19 1.44 1.33 3.57e-43
7.26 1.44 1.33 3.57e-43
7.34 1.44 1.33 3.57e-43
7.39 1.44 1.33 3.57e-43
7.38 1.44 1.33 3.57e-43
7.39 1.44 1.18 9.1477e-41
7.39 1.44 1.27 9.1477e-41
7.43 1.44 1.3 9.1477e-41
5.81 1.5 0.47 9.1477e-41
5.81 1.5 0.63 9.1477e-41
5.82 1.5 0.73 9.1477e-41
5.83 1.5 0.85 9.1477e-41
5.82 1.5 1.02 9.1477e-41
5.82 1.5 1.13 9.1477e-41
5.88 1.5 1.11 9.1477e-41
5.92 1.5 1.11 3.57e-43
5.92 1.5 1.24 9.1477e-41
5.93 1.5 1.32 9.1477e-41
5.96 1.5 1.35 9.1477e-41
6 1.5 1.38 9.1477e-41
6.04 1.5 1.4 9.1477e-41
6.19 1.5 1.15 9.1477e-41
6.25 1.5 1.15 9.1477e-41
6.29 1.5 1.15 9.1477e-41
6.34 1.5 1.15 9.1477e-41
6.39 1.5 1.18 9.1477e-41
6.45 1.5 1.16 9.1477e-41
6.5 1.5 1.16 3.57e-43
6.58 1.5 1.16 3.57e-43
6.63 1.5 1.16 3.57e-43
6.69 1.5 1.16 3.57e-43
6.75 1.5 1.16 3.57e-43
6.86 1.5 1.16 3.57e-43
6.86 1.5 1.16 3.57e-43
6.92 1.5 1.09 9.1477e-41
6.94 1.5 1.16 9.1477e-41
6.98 1.5 1.17 9.1477e-41
7.03 1.5 1.19 9.1477e-41
7.09 1.5 1.18 9.1477e-41
7.15 1.5 1.18 3.57e-43
7.34 1.5 0.99 9.1477e-41
7.31 1.5 1.13 9.1477e-41
7.37 1.5 1.13 3.57e-43
7.39 1.5 1.13 3.57e-43
7.39 1.5 1.28 9.1477e-41
7.4 1.5 1.35 9.1477e-41
7.44 1.5 1.37 9.1477e-41
5.81 1.56 0.46 9.1477e-41
5.81 1.56 0.63 9.1477e-41
5.8 1.56 0.63 3.57e-43
5.83 1.56 0.85 9.1477e-41
5.75 1.56 1.21 9.1477e-41
5.8 1.56 1.18 9.1477e-41
5.88 1.56 1.09 9.1477e-41
5.92 1.56 1.09 3.57e-43
5.92 1.56 1.09 3.57e-43
5.93 1.56 1.32 9.1477e-41
5.95 1.56 1.38 9.1477e-41
5.99 1.56 1.41 9.1477e-41
6.02 1.56 1.41 3.57e-43
6.19 1.56 1.41 3.57e-43
6.25 1.56 1.41 3.57e-43
6.29 1.56 1.41 3.57e-43
6.34 1.56 1.41 3.57e-43
6.39 1.56 1.41 3.57e-43
6.45 1.56 1.41 3.57e-43
6.5 1.56 1.41 3.57e-43
6.58 1.56 1.41 3.57e-43
6.63 1.56 1.41 3.57e-43
6.69 1.56 1.41 3.57e-43
6.75 1.56 1.41 3.57e-43
6.86 1.56 1.41 3.57e-43
6.86 1.56 1.41 3.57e-43
6.92 1.56 1.09 9.1477e-41
6.94 1.56 1.15 9.1477e-41
6.98 1.56 1.17 9.1477e-41
7.03 1.56 1.18 9.1477e-41
7.11 1.56 1.16 9.1477e-41
7.19 1.56 1.16 3.57e-43
7.34 1.56 0.99 9.1477e-41
7.31 1.56 0.99 3.57e-43
7.37 1.56 0.99 3.57e-43
7.39 1.56 0.99 3.57e-43
7.39 1.56 1.28 9.1477e-41
7.37 1.56 1.38 9.1477e-41
7.42 1.56 1.4 9.1477e-41
7.47 1.56 1.41 9.1477e-41
5.81 1.62 0.47 9.1477e-41
5.8 1.62 0.64 9.1477e-41
5.78 1.62 0.84 9.1477e-41
5.81 1.62 0.9 9.1477e-41
5.84 1.62 0.95 9.1477e-41
5.87 1.62 1 9.1477e-41
5.91 1.62 1 3.57e-43
5.92 1.62 1 3.57e-43
5.92 1.62 1 3.57e-43
5.93 1.62 1.32 9.1477e-41
5.95 1.62 1.39 9.1477e-41
5.97 1.62 1.44 9.1477e-41
6 1.62 1.47 9.1477e-41
6.04 1.62 1.47 3.57e-43
6.25 1.62 1.47 3.57e-43
6.29 1.62 1.47 3.57e-43
6.34 1.62 1.47 3.57e-43
6.39 1.62 1.18 9.1477e-41
6.27 1.62 1.18 3.57e-43
6.5 1.62 1.18 3.57e-43
6.58 1.62 1.18 3.57e-43
6.63 1.62 1.18 3.57e-43
6.69 1.62 1.11 9.1477e-41
6.88 1.62 1.11 3.57e-43
6.86 1.62 1.11 3.57e-43
6.86 1.62 1.11 3.57e-43
6.92 1.62 1.11 3.57e-43
6.94 1.62 1.11 3.57e-43
6.98 1.62 1.11 3.57e-43
7.03 1.62 1.11 3.57e-43
7.11 1.62 1.16 9.1477e-41
7.11 1.62 1.16 3.57e-43
7.34 1.62 0.99 9.1477e-41
7.4 1.62 0.99 3.57e-43
7.37 1.62 0.99 3.57e-43
7.39 1.62 0.99 3.57e-43
7.39 1.62 0.99 3.57e-43
7.37 1.62 1.38 9.1477e-41
7.39 1.62 1.44 9.1477e-41
7.44 1.62 1.44 3.57e-43
5.81 1.68 0.48 9.1477e-41
5.8 1.68 0.65 9.1477e-41
5.82 1.68 0.74 9.1477e-41
5.83 1.68 0.85 9.1477e-41
5.84 1.68 0.95 9.1477e-41
5.87 1.68 1.01 9.1477e-41
5.9 1.68 1.01 3.57e-43
5.92 1.68 1.01 3.57e-43
5.92 1.68 1.01 3.57e-43
5.93 1.68 1.01 3.57e-43
5.95 1.68 1.39 9.1477e-41
5.97 1.68 1.45 9.1477e-41
6 1.68 1.48 9.1477e-41
6.04 1.68 1.48 3.57e-43
6.25 1.68 1.48 3.57e-43
6.29 1.68 1.48 3.57e-43
6.34 1.68 1.48 3.57e-43
6.39 1.68 1.48 3.57e-43
6.27 1.68 1.48 3.57e-43
6.5 1.68 1.48 3.57e-43
6.58 1.68 1.48 3.57e-43
6.63 1.68 1.12 9.1477e-41
6.54 1.68 1.37 9.1477e-41
6.5 1.68 1.37 3.57e-43
6.86 1.68 1.37 3.57e-43
6.86 1.68 1.37 3.57e-43
6.92 1.68 1.37 3.57e-43
6.94 1.68 1.37 3.57e-43
6.98 1.68 1.37 3.57e-43
7.03 1.68 1.37 3.57e-43
7.11 1.68 1.37 3.57e-43
7.11 1.68 1.37 3.57e-43
7.34 1.68 0.99 9.1477e-41
7.41 1.68 0.99 9.1477e-41
7.43 1.68 0.99 3.57e-43
7.39 1.68 1.19 9.1477e-41
5.81 1.74 0.48 9.1477e-41
5.8 1.74 0.65 9.1477e-41
5.81 1.74 0.75 9.1477e-41
5.82 1.74 0.87 9.1477e-41
5.84 1.74 0.96 9.1477e-41
5.86 1.74 1.01 9.1477e-41
5.9 1.74 1.01 3.57e-43
5.92 1.74 1.01 3.57e-43
5.92 1.74 1.01 3.57e-43
5.93 1.74 1.01 3.57e-43
5.95 1.74 1.39 9.1477e-41
5.95 1.74 1.49 9.1477e-41
5.99 1.74 1.51 9.1477e-41
6.02 1.74 1.54 9.1477e-41
6.06 1.74 1.54 3.57e-43
6.29 1.74 1.54 3.57e-43
6.34 1.74 1.54 3.57e-43
6.39 1.74 1.54 3.57e-43
6.27 1.74 1.54 3.57e-43
6.5 1.74 1.54 3.57e-43
6.58 1.74 1.1 9.1477e-41
6.38 1.74 1.57 9.1477e-41
6.43 1.74 1.57 9.1477e-41
6.47 1.74 1.58 9.1477e-41
6.52 1.74 1.57 9.1477e-41
6.56 1.74 1.59 9.1477e-41
6.62 1.74 1.58 9.1477e-41
6.67 1.74 1.59 9.1477e-41
6.72 1.74 1.58 9.1477e-41
6.77 1.74 1.58 9.1477e-41
6.83 1.74 1.58 9.1477e-41
6.89 1.74 1.58 3.57e-43
7.34 1.74 1.58 3.57e-43
7.41 1.74 1.58 3.57e-43
7.43 1.74 1.58 3.57e-43
7.39 1.74 1.19 9.1477e-41
7.22 1.74 1.5 9.1477e-41
7.25 1.74 1.53 9.1477e-41
7.31 1.74 1.53 9.1477e-41
7.39 1.74 1.51 9.1477e-41
5.8 1.8 0.49 9.1477e-41
5.8 1.8 0.65 9.1477e-41
5.81 1.8 0.76 9.1477e-41
5.82 1.8 0.86 9.1477e-41
5.84 1.8 0.96 9.1477e-41
5.86 1.8 1.02 9.1477e-41
5.9 1.8 1.02 3.57e-43
5.92 1.8 1.02 3.57e-43
5.92 1.8 1.02 3.57e-43
5.93 1.8 1.02 3.57e-43
5.95 1.8 1.02 3.57e-43
5.95 1.8 1.49 9.1477e-41
5.99 1.8 1.51 9.1477e-41
6.01 1.8 1.55 9.1477e-41
6.04 1.8 1.59 9.1477e-41
6.1 1.8 1.56 9.1477e-41
6.13 1.8 1.58 9.1477e-41
6.17 1.8 1.58 9.1477e-41
6.22 1.8 1.6 9.1477e-41
6.26 1.8 1.6 9.1477e-41
6.31 1.8 1.61 9.1477e-41
6.35 1.8 1.61 9.1477e-41
6.4 1.8 1.6 9.1477e-41
6.45 1.8 1.61 9.1477e-41
6.5 1.8 1.62 9.1477e-41
6.55 1.8 1.61 9.1477e-41
6.6 1.8 1.61 9.1477e-41
6.64 1.8 1.62 9.1477e-41
6.7 1.8 1.61 9.1477e-41
6.75 1.8 1.62 9.1477e-41
6.81 1.8 1.62 9.1477e-41
6.86 1.8 1.62 9.1477e-41
6.91 1.8 1.62 9.1477e-41
6.97 1.8 1.61 9.1477e-41
7.03 1.8 1.6 9.1477e-41
7.09 1.8 1.59 9.1477e-41
7.15 1.8 1.6 9.1477e-41
7.22 1.8 1.57 9.1477e-41
7.27 1.8 1.59 9.1477e-41
7.35 1.8 1.56 9.1477e-41
5.8 1.86 0.49 9.1477e-41
5.8 1.86 0.66 9.1477e-41
5.81 1.86 0.77 9.1477e-41
5.82 1.86 0.87 9.1477e-41
5.83 1.86 0.97 9.1477e-41
5.86 1.86 1.02 9.1477e-41
5.9 1.86 1.02 3.57e-43
5.92 1.86 1.02 3.57e-43
5.92 1.86 1.02 3.57e-43
5.93 1.86 1.02 3.57e-43
5.95 1.86 1.02 3.57e-43
5.95 1.86 1.49 9.1477e-41
5.97 1.86 1.53 9.1477e-41
6.01 1.86 1.56 9.1477e-41
6.03 1.86 1.6 9.1477e-41
6.08 1.86 1.59 9.1477e-41
6.12 1.86 1.6 9.1477e-41
6.16 1.86 1.62 9.1477e-41
6.21 1.86 1.62 9.1477e-41
6.25 1.86 1.62 9.1477e-41
6.29 1.86 1.63 9.1477e-41
6.34 1.86 1.63 9.1477e-41
6.39 1.86 1.64 9.1477e-41
6.43 1.86 1.65 9.1477e-41
6.49 1.86 1.64 9.1477e-41
6.53 1.86 1.64 9.1477e-41
6.58 1.86 1.64 9.1477e-41
6.63 1.86 1.65 9.1477e-41
6.68 1.86 1.65 9.1477e-41
6.73 1.86 1.64 9.1477e-41
6.79 1.86 1.64 9.1477e-41
6.84 1.86 1.64 9.1477e-41
6.89 1.86 1.65 9.1477e-41
6.96 1.86 1.63 9.1477e-41
7 1.86 1.64 9.1477e-41
7.07 1.86 1.63 9.1477e-41
7.13 1.86 1.62 9.1477e-41
7.19 1.86 1.61 9.1477e-41
7.25 1.86 1.62 9.1477e-41
7.32 1.86 1.6 9.1477e-41
7.39 1.86 1.59 9.1477e-41
5.8 1.92 0.49 9.1477e-41
5.8 1.92 0.66 9.1477e-41
5.81 1.92 0.77 9.1477e-41
5.82 1.92 0.88 9.1477e-41
5.83 1.92 0.98 9.1477e-41
5.86 1.92 1.03 9.1477e-41
5.89 1.92 1.03 3.57e-43
5.92 1.92 1.03 3.57e-43
5.92 1.92 1.03 3.57e-43
5.93 1.92 1.03 3.57e-43
5.95 1.92 1.03 3.57e-43
5.95 1.92 1.49 9.1477e-41
5.97 1.92 1.55 9.1477e-41
6 1.92 1.58 9.1477e-41
6.03 1.92 1.6 9.1477e-41
6.07 1.92 1.62 9.1477e-41
6.11 1.92 1.62 9.1477e-41
6.15 1.92 1.64 9.1477e-41
6.19 1.92 1.65 9.1477e-41
6.24 1.92 1.65 9.1477e-41
6.28 1.92 1.65 9.1477e-41
6.33 1.92 1.65 9.1477e-41
6.37 1.92 1.66 9.1477e-41
6.42 1.92 1.67 9.1477e-41
6.47 1.92 1.67 9.1477e-41
6.52 1.92 1.66 9.1477e-41
6.57 1.92 1.66 9.1477e-41
6.62 1.92 1.67 9.1477e-41
6.67 1.92 1.67 9.1477e-41
6.72 1.92 1.67 9.1477e-41
6.76 1.92 1.68 9.1477e-41
6.83 1.92 1.67 9.1477e-41
6.88 1.92 1.67 9.1477e-41
6.94 1.92 1.66 9.1477e-41
6.99 1.92 1.66 9.1477e-41
7.04 1.92 1.66 9.1477e-41
7.11 1.92 1.64 9.1477e-41
7.17 1.92 1.64 9.1477e-41
7.23 1.92 1.63 9.1477e-41
7.3 1.92 1.62 9.1477e-41
7.37 1.92 1.61 9.1477e-41
5.8 1.98 0.49 9.1477e-41
5.79 1.98 0.67 9.1477e-41
5.81 1.98 0.76 9.1477e-41
5.82 1.98 0.87 9.1477e-41
5.83 1.98 0.97 9.1477e-41
5.85 1.98 1.04 9.1477e-41
5.89 1.98 1.04 3.57e-43
5.92 1.98 1.04 3.57e-43
5.92 1.98 1.24 9.1477e-41
5.93 1.98 1.32 9.1477e-41
5.96 1.98 1.32 3.57e-43
5.95 1.98 1.32 3.57e-43
5.97 1.98 1.55 9.1477e-41
5.99 1.98 1.59 9.1477e-41
6.02 1.98 1.62 9.1477e-41
6.05 1.98 1.65 9.1477e-41
6.1 1.98 1.64 9.1477e-41
6.14 1.98 1.66 9.1477e-41
6.18 1.98 1.67 9.1477e-41
6.22 1.98 1.68 9.1477e-41
6.27 1.98 1.67 9.1477e-41
6.32 1.98 1.67 9.1477e-41
6.36 1.98 1.68 9.1477e-41
6.41 1.98 1.67 9.1477e-41
6.46 1.98 1.69 9.1477e-41
6.51 1.98 1.68 9.1477e-41
6.56 1.98 1.68 9.1477e-41
6.6 1.98 1.68 9.1477e-41
6.65 1.98 1.68 9.1477e-41
6.7 1.98 1.69 9.1477e-41
6.76 1.98 1.68 9.1477e-41
6.81 1.98 1.69 9.1477e-41
6.87 1.98 1.68 9.1477e-41
6.92 1.98 1.69 9.1477e-41
6.97 1.98 1.68 9.1477e-41
7.03 1.98 1.68 9.1477e-41
7.09 1.98 1.67 9.1477e-41
7.15 1.98 1.66 9.1477e-41
7.21 1.98 1.66 9.1477e-41
7.28 1.98 1.66 9.1477e-41
7.35 1.98 1.64 9.1477e-41
5.8 2.04 0.49 9.1477e-41
5.79 2.04 0.68 9.1477e-41
5.81 2.04 0.77 9.1477e-41
5.81 2.04 0.89 9.1477e-41
5.83 2.04 0.98 9.1477e-41
5.85 2.04 1.05 9.1477e-41
5.88 2.04 1.05 3.57e-43
5.92 2.04 1.05 3.57e-43
5.92 2.04 1.05 3.57e-43
5.93 2.04 1.05 3.57e-43
5.96 2.04 1.05 3.57e-43
5.95 2.04 1.05 3.57e-43
5.97 2.04 1.55 9.1477e-41
5.99 2.04 1.6 9.1477e-41
6.02 2.04 1.63 9.1477e-41
6.05 2.04 1.67 9.1477e-41
6.09 2.04 1.66 9.1477e-41
6.13 2.04 1.67 9.1477e-41
6.17 2.04 1.67 9.1477e-41
6.22 2.04 1.68 9.1477e-41
6.26 2.04 1.69 9.1477e-41
6.3 2.04 1.7 9.1477e-41
6.35 2.04 1.69 9.1477e-41
6.4 2.04 1.69 9.1477e-41
6.45 2.04 1.7 9.1477e-41
6.5 2.04 1.7 9.1477e-41
6.54 2.04 1.7 9.1477e-41
6.59 2.04 1.7 9.1477e-41
6.64 2.04 1.71 9.1477e-41
6.7 2.04 1.7 9.1477e-41
6.75 2.04 1.7 9.1477e-41
6.8 2.04 1.71 9.1477e-41
6.86 2.04 1.7 9.1477e-41
6.9 2.04 1.71 9.1477e-41
6.96 2.04 1.7 9.1477e-41
7.02 2.04 1.69 9.1477e-41
7.08 2.04 1.69 9.1477e-41
7.14 2.04 1.68 9.1477e-41
7.2 2.04 1.67 9.1477e-41
7.27 2.04 1.67 9.1477e-41
7.33 2.04 1.66 9.1477e-41
5.8 2.1 0.5 9.1477e-41
5.79 2.1 0.67 9.1477e-41
5.81 2.1 0.77 9.1477e-41
5.82 2.1 0.87 9.1477e-41
5.83 2.1 0.98 9.1477e-41
5.85 2.1 1.06 9.1477e-41
5.88 2.1 1.1 9.1477e-41
5.91 2.1 1.14 9.1477e-41
6.11 2.1 1.14 3.57e-43
5.93 2.1 1.14 3.57e-43
5.96 2.1 1.35 9.1477e-41
6.2 2.1 1.35 3.57e-43
5.97 2.1 1.55 9.1477e-41
5.99 2.1 1.6 9.1477e-41
6.02 2.1 1.63 9.1477e-41
6.05 2.1 1.67 9.1477e-41
6.09 2.1 1.67 9.1477e-41
6.13 2.1 1.67 9.1477e-41
6.17 2.1 1.68 9.1477e-41
6.21 2.1 1.7 9.1477e-41
6.25 2.1 1.7 9.1477e-41
6.3 2.1 1.7 9.1477e-41
6.34 2.1 1.71 9.1477e-41
6.39 2.1 1.72 9.1477e-41
6.44 2.1 1.71 9.1477e-41
6.49 2.1 1.71 9.1477e-41
6.53 2.1 1.72 9.1477e-41
6.58 2.1 1.72 9.1477e-41
6.63 2.1 1.73 9.1477e-41
6.68 2.1 1.72 9.1477e-41
6.74 2.1 1.72 9.1477e-41
6.79 2.1 1.72 9.1477e-41
6.84 2.1 1.72 9.1477e-41
6.9 2.1 1.72 9.1477e-41
6.95 2.1 1.72 9.1477e-41
7 2.1 1.72 9.1477e-41
7.07 2.1 1.7 9.1477e-41
7.13 2.1 1.7 9.1477e-41
7.18 2.1 1.7 9.1477e-41
7.25 2.1 1.68 9.1477e-41
7.31 2.1 1.68 9.1477e-41
7.39 2.1 1.67 9.1477e-41
5.8 2.16 0.5 9.1477e-41
5.79 2.16 0.68 9.1477e-41
5.81 2.16 0.77 9.1477e-41
5.82 2.16 0.88 9.1477e-41
5.83 2.16 0.97 9.1477e-41
5.84 2.16 1.07 9.1477e-41
5.87 2.16 1.11 9.1477e-41
5.91 2.16 1.11 3.57e-43
6.11 2.16 0.77 9.1477e-41
6.16 2.16 0.77 3.57e-43
5.96 2.16 1.35 9.1477e-41
6.2 2.16 0.9 9.1477e-41
6.24 2.16 0.95 9.1477e-41
5.99 2.16 1.6 9.1477e-41
6.01 2.16 1.64 9.1477e-41
6.05 2.16 1.67 9.1477e-41
6.08 2.16 1.69 9.1477e-41
6.13 2.16 1.68 9.1477e-41
6.16 2.16 1.71 9.1477e-41
6.2 2.16 1.72 9.1477e-41
6.25 2.16 1.71 9.1477e-41
6.29 2.16 1.72 9.1477e-41
6.34 2.16 1.72 9.1477e-41
6.38 2.16 1.74 9.1477e-41
6.43 2.16 1.73 9.1477e-41
6.48 2.16 1.73 9.1477e-41
6.53 2.16 1.72 9.1477e-41
6.58 2.16 1.72 9.1477e-41
6.62 2.16 1.74 9.1477e-41
6.67 2.16 1.74 9.1477e-41
6.73 2.16 1.73 9.1477e-41
6.78 2.16 1.73 9.1477e-41
6.84 2.16 1.73 9.1477e-41
6.88 2.16 1.74 9.1477e-41
6.94 2.16 1.73 9.1477e-41
7 2.16 1.72 9.1477e-41
7.05 2.16 1.73 9.1477e-41
7.12 2.16 1.71 9.1477e-41
7.18 2.16 1.71 9.1477e-41
7.24 2.16 1.69 9.1477e-41
7.31 2.16 1.69 9.1477e-41
7.38 2.16 1.67 9.1477e-41
5.8 2.22 0.5 9.1477e-41
5.79 2.22 0.67 9.1477e-41
5.81 2.22 0.77 9.1477e-41
5.82 2.22 0.87 9.1477e-41
5.83 2.22 0.98 9.1477e-41
5.84 2.22 1.07 9.1477e-41
5.86 2.22 1.14 9.1477e-41
5.89 2.22 1.14 3.57e-43
6.11 2.22 1.14 3.57e-43
6.16 2.22 1.14 3.57e-43
5.96 2.22 1.14 3.57e-43
6.2 2.22 1.14 3.57e-43
6.24 2.22 0.95 9.1477e-41
5.99 2.22 1.61 9.1477e-41
6.01 2.22 1.64 9.1477e-41
6.04 2.22 1.68 9.1477e-41
6.07 2.22 1.7 9.1477e-41
6.12 2.22 1.7 9.1477e-41
6.16 2.22 1.71 9.1477e-41
6.2 2.22 1.72 9.1477e-41
6.25 2.22 1.72 9.1477e-41
6.29 2.22 1.73 9.1477e-41
6.33 2.22 1.72 9.1477e-41
6.38 2.22 1.73 9.1477e-41
6.43 2.22 1.74 9.1477e-41
6.48 2.22 1.73 9.1477e-41
6.52 2.22 1.74 9.1477e-41
6.57 2.22 1.73 9.1477e-41
6.62 2.22 1.75 9.1477e-41
6.67 2.22 1.75 9.1477e-41
6.73 2.22 1.73 9.1477e-41
6.77 2.22 1.74 9.1477e-41
6.82 2.22 1.75 9.1477e-41
6.89 2.22 1.73 9.1477e-41
6.93 2.22 1.75 9.1477e-41
6.99 2.22 1.73 9.1477e-41
7.05 2.22 1.73 9.1477e-41
7.11 2.22 1.72 9.1477e-41
7.16 2.22 1.72 9.1477e-41
7.23 2.22 1.71 9.1477e-41
7.3 2.22 1.71 9.1477e-41
7.37 2.22 1.69 9.1477e-41
5.8 2.28 0.5 9.1477e-41
5.79 2.28 0.68 9.1477e-41
5.8 2.28 0.78 9.1477e-41
5.81 2.28 0.9 9.1477e-41
5.83 2.28 0.98 9.1477e-41
5.84 2.28 1.07 9.1477e-41
5.85 2.28 1.16 9.1477e-41
5.88 2.28 1.22 9.1477e-41
5.9 2.28 1.28 9.1477e-41
5.92 2.28 1.34 9.1477e-41
5.95 2.28 1.34 3.57e-43
6.2 2.28 1.34 3.57e-43
6.24 2.28 0.95 9.1477e-41
5.98 2.28 1.61 9.1477e-41
6.01 2.28 1.65 9.1477e-41
6.04 2.28 1.68 9.1477e-41
6.07 2.28 1.71 9.1477e-41
6.11 2.28 1.71 9.1477e-41
6.16 2.28 1.72 9.1477e-41
6.2 2.28 1.73 9.1477e-41
6.24 2.28 1.73 9.1477e-41
6.29 2.28 1.73 9.1477e-41
6.33 2.28 1.73 9.1477e-41
6.37 2.28 1.75 9.1477e-41
6.42 2.28 1.75 9.1477e-41
6.47 2.28 1.74 9.1477e-41
6.52 2.28 1.75 9.1477e-41
6.56 2.28 1.75 9.1477e-41
6.61 2.28 1.75 9.1477e-41
6.67 2.28 1.74 9.1477e-41
6.71 2.28 1.75 9.1477e-41
6.77 2.28 1.75 9.1477e-41
6.82 2.28 1.75 9.1477e-41
6.88 2.28 1.75 9.1477e-41
6.92 2.28 1.76 9.1477e-41
6.99 2.28 1.74 9.1477e-41
7.04 2.28 1.74 9.1477e-41
7.1 2.28 1.74 9.1477e-41
7.16 2.28 1.72 9.1477e-41
7.22 2.28 1.73 9.1477e-41
7.29 2.28 1.72 9.1477e-41
7.36 2.28 1.7 9.1477e-41
5.8 2.34 0.5 9.1477e-41
5.79 2.34 0.68 9.1477e-41
5.81 2.34 0.77 9.1477e-41
5.81 2.34 0.89 9.1477e-41
5.83 2.34 0.98 9.1477e-41
5.84 2.34 1.07 9.1477e-41
5.86 2.34 1.15 9.1477e-41
5.88 2.34 1.22 9.1477e-41
5.89 2.34 1.29 9.1477e-41
5.91 2.34 1.37 9.1477e-41
5.93 2.34 1.43 9.1477e-41
5.95 2.34 1.49 9.1477e-41
5.97 2.34 1.53 9.1477e-41
5.99 2.34 1.6 9.1477e-41
6.01 2.34 1.65 9.1477e-41
6.04 2.34 1.68 9.1477e-41
6.07 2.34 1.71 9.1477e-41
6.11 2.34 1.72 9.1477e-41
6.16 2.34 1.72 9.1477e-41
6.19 2.34 1.74 9.1477e-41
6.24 2.34 1.74 9.1477e-41
6.28 2.34 1.74 9.1477e-41
6.33 2.34 1.74 9.1477e-41
6.37 2.34 1.75 9.1477e-41
6.42 2.34 1.75 9.1477e-41
6.47 2.34 1.75 9.1477e-41
6.51 2.34 1.75 9.1477e-41
6.56 2.34 1.76 9.1477e-41
6.61 2.34 1.75 9.1477e-41
6.66 2.34 1.75 9.1477e-41
6.7 2.34 1.77 9.1477e-41
6.76 2.34 1.77 9.1477e-41
6.81 2.34 1.77 9.1477e-41
6.87 2.34 1.76 9.1477e-41
6.92 2.34 1.76 9.1477e-41
6.98 2.34 1.76 9.1477e-41
7.04 2.34 1.74 9.1477e-41
7.09 2.34 1.75 9.1477e-41
7.15 2.34 1.74 9.1477e-41
7.22 2.34 1.73 9.1477e-41
7.28 2.34 1.73 9.1477e-41
7.36 2.34 1.7 9.1477e-41
5.8 2.4 0.5 9.1477e-41
5.79 2.4 0.69 9.1477e-41
5.8 2.4 0.78 9.1477e-41
5.81 2.4 0.89 9.1477e-41
5.82 2.4 1 9.1477e-41
5.84 2.4 1.08 9.1477e-41
5.85 2.4 1.16 9.1477e-41
5.88 2.4 1.22 9.1477e-41
5.89 2.4 1.29 9.1477e-41
5.91 2.4 1.37 9.1477e-41
5.93 2.4 1.43 9.1477e-41
5.95 2.4 1.49 9.1477e-41
5.97 2.4 1.54 9.1477e-41
5.99 2.4 1.6 9.1477e-41
6.01 2.4 1.65 9.1477e-41
6.04 2.4 1.68 9.1477e-41
6.06 2.4 1.72 9.1477e-41
6.11 2.4 1.72 9.1477e-41
6.15 2.4 1.73 9.1477e-41
6.18 2.4 1.76 9.1477e-41
6.24 2.4 1.74 9.1477e-41
6.28 2.4 1.75 9.1477e-41
6.32 2.4 1.75 9.1477e-41
6.37 2.4 1.76 9.1477e-41
6.41 2.4 1.77 9.1477e-41
6.46 2.4 1.76 9.1477e-41
6.51 2.4 1.76 9.1477e-41
6.56 2.4 1.76 9.1477e-41
6.6 2.4 1.77 9.1477e-41
6.65 2.4 1.76 9.1477e-41
6.7 2.4 1.78 9.1477e-41
6.76 2.4 1.77 9.1477e-41
6.8 2.4 1.78 9.1477e-41
6.86 2.4 1.77 9.1477e-41
6.92 2.4 1.76 9.1477e-41
6.98 2.4 1.76 9.1477e-41
7.03 2.4 1.76 9.1477e-41
7.08 2.4 1.76 9.1477e-41
7.15 2.4 1.74 9.1477e-41
7.21 2.4 1.74 9.1477e-41
7.27 2.4 1.74 9.1477e-41
7.35 2.4 1.71 9.1477e-41
5.8 2.46 0.5 9.1477e-41
5.79 2.46 0.69 9.1477e-41
5.8 2.46 0.78 9.1477e-41
5.82 2.46 0.88 9.1477e-41
5.82 2.46 1.01 9.1477e-41
5.84 2.46 1.07 9.1477e-41
5.86 2.46 1.15 9.1477e-41
5.88 2.46 1.22 9.1477e-41
5.89 2.46 1.29 9.1477e-41
5.91 2.46 1.37 9.1477e-41
5.93 2.46 1.44 9.1477e-41
5.95 2.46 1.49 9.1477e-41
5.97 2.46 1.55 9.1477e-41
5.99 2.46 1.61 9.1477e-41
6.01 2.46 1.65 9.1477e-41
6.04 2.46 1.68 9.1477e-41
6.06 2.46 1.72 9.1477e-41
6.1 2.46 1.73 9.1477e-41
6.15 2.46 1.74 9.1477e-41
6.19 2.46 1.75 9.1477e-41
6.23 2.46 1.76 9.1477e-41
6.28 2.46 1.75 9.1477e-41
6.31 2.46 1.77 9.1477e-41
6.37 2.46 1.75 9.1477e-41
6.41 2.46 1.77 9.1477e-41
6.46 2.46 1.77 9.1477e-41
6.51 2.46 1.76 9.1477e-41
6.55 2.46 1.77 9.1477e-41
6.6 2.46 1.77 9.1477e-41
6.65 2.46 1.77 9.1477e-41
6.7 2.46 1.77 9.1477e-41
6.75 2.46 1.77 9.1477e-41
6.81 2.46 1.77 9.1477e-41
6.85 2.46 1.78 9.1477e-41
6.91 2.46 1.77 9.1477e-41
6.97 2.46 1.77 9.1477e-41
7.02 2.46 1.77 9.1477e-41
7.09 2.46 1.75 9.1477e-41
7.14 2.46 1.75 9.1477e-41
7.21 2.46 1.73 9.1477e-41
7.27 2.46 1.74 9.1477e-41
7.34 2.46 1.73 9.1477e-41
5.8 2.52 0.5 9.1477e-41
5.79 2.52 0.69 9.1477e-41
5.81 2.52 0.77 9.1477e-41
5.82 2.52 0.88 9.1477e-41
5.83 2.52 0.97 9.1477e-41
5.84 2.52 1.08 9.1477e-41
5.87 2.52 1.08 3.57e-43
5.88 2.52 1.08 3.57e-43
5.89 2.52 1.08 3.57e-43
5.91 2.52 1.08 3.57e-43
5.93 2.52 1.08 3.57e-43
5.95 2.52 1.08 3.57e-43
5.97 2.52 1.55 9.1477e-41
5.99 2.52 1.61 9.1477e-41
6.01 2.52 1.65 9.1477e-41
6.03 2.52 1.69 9.1477e-41
6.06 2.52 1.72 9.1477e-41
6.1 2.52 1.74 9.1477e-41
6.15 2.52 1.74 9.1477e-41
6.18 2.52 1.76 9.1477e-41
6.23 2.52 1.76 9.1477e-41
6.26 2.52 1.78 9.1477e-41
6.32 2.52 1.76 9.1477e-41
6.36 2.52 1.76 9.1477e-41
6.41 2.52 1.76 9.1477e-41
6.45 2.52 1.78 9.1477e-41
6.5 2.52 1.78 9.1477e-41
6.55 2.52 1.77 9.1477e-41
6.6 2.52 1.77 9.1477e-41
6.64 2.52 1.79 9.1477e-41
6.69 2.52 1.78 9.1477e-41
6.74 2.52 1.78 9.1477e-41
6.8 2.52 1.77 9.1477e-41
6.85 2.52 1.78 9.1477e-41
6.91 2.52 1.77 9.1477e-41
6.96 2.52 1.77 9.1477e-41
7.02 2.52 1.77 9.1477e-41
7.08 2.52 1.76 9.1477e-41
7.13 2.52 1.76 9.1477e-41
7.2 2.52 1.75 9.1477e-41
7.27 2.52 1.75 9.1477e-41
7.33 2.52 1.74 9.1477e-41
5.8 2.58 0.5 9.1477e-41
5.79 2.58 0.69 9.1477e-41
5.8 2.58 0.78 9.1477e-41
5.82 2.58 0.88 9.1477e-41
5.83 2.58 0.99 9.1477e-41
5.84 2.58 1.07 9.1477e-41
5.87 2.58 1.07 3.57e-43
5.88 2.58 1.07 3.57e-43
5.89 2.58 1.29 9.1477e-41
6.18 2.58 0.71 9.1477e-41
6.24 2.58 0.71 9.1477e-41
6.29 2.58 0.71 9.1477e-41
6.35 2.58 0.69 9.1477e-41
5.98 2.58 1.62 9.1477e-41
6.01 2.58 1.65 9.1477e-41
6.03 2.58 1.69 9.1477e-41
6.06 2.58 1.72 9.1477e-41
6.09 2.58 1.75 9.1477e-41
6.14 2.58 1.75 9.1477e-41
6.18 2.58 1.76 9.1477e-41
6.22 2.58 1.77 9.1477e-41
6.27 2.58 1.76 9.1477e-41
6.31 2.58 1.77 9.1477e-41
6.36 2.58 1.77 9.1477e-41
6.4 2.58 1.78 9.1477e-41
6.44 2.58 1.79 9.1477e-41
6.5 2.58 1.78 9.1477e-41
6.55 2.58 1.78 9.1477e-41
6.59 2.58 1.78 9.1477e-41
6.64 2.58 1.8 9.1477e-41
6.7 2.58 1.78 9.1477e-41
6.74 2.58 1.79 9.1477e-41
6.8 2.58 1.78 9.1477e-41
6.85 2.58 1.78 9.1477e-41
6.91 2.58 1.78 9.1477e-41
6.96 2.58 1.77 9.1477e-41
7.02 2.58 1.77 9.1477e-41
7.08 2.58 1.77 9.1477e-41
7.13 2.58 1.77 9.1477e-41
7.19 2.58 1.76 9.1477e-41
7.27 2.58 1.75 9.1477e-41
7.33 2.58 1.74 9.1477e-41
5.8 2.64 0.5 9.1477e-41
5.79 2.64 0.69 9.1477e-41
5.8 2.64 0.78 9.1477e-41
5.82 2.64 0.88 9.1477e-41
5.83 2.64 0.99 9.1477e-41
5.85 2.64 1.06 9.1477e-41
5.88 2.64 1.06 3.57e-43
5.88 2.64 1.06 3.57e-43
5.89 2.64 1.06 3.57e-43
6.18 2.64 1.06 3.57e-43
6.24 2.64 1.06 3.57e-43
6.29 2.64 1.06 3.57e-43
6.35 2.64 1.06 3.57e-43
5.98 2.64 1.62 9.1477e-41
6 2.64 1.67 9.1477e-41
6.04 2.64 1.68 9.1477e-41
6.06 2.64 1.73 9.1477e-41
6.09 2.64 1.75 9.1477e-41
6.14 2.64 1.76 9.1477e-41
6.18 2.64 1.76 9.1477e-41
6.22 2.64 1.77 9.1477e-41
6.27 2.64 1.77 9.1477e-41
6.31 2.64 1.77 9.1477e-41
6.36 2.64 1.77 9.1477e-41
6.4 2.64 1.78 9.1477e-41
6.44 2.64 1.79 9.1477e-41
6.5 2.64 1.77 9.1477e-41
6.54 2.64 1.78 9.1477e-41
6.59 2.64 1.78 9.1477e-41
6.64 2.64 1.8 9.1477e-41
6.69 2.64 1.79 9.1477e-41
6.74 2.64 1.78 9.1477e-41
6.79 2.64 1.79 9.1477e-41
6.85 2.64 1.78 9.1477e-41
6.9 2.64 1.79 9.1477e-41
6.96 2.64 1.78 9.1477e-41
7.01 2.64 1.78 9.1477e-41
7.08 2.64 1.77 9.1477e-41
7.13 2.64 1.77 9.1477e-41
7.19 2.64 1.76 9.1477e-41
7.26 2.64 1.75 9.1477e-41
7.33 2.64 1.74 9.1477e-41
5.8 2.7 0.5 9.1477e-41
5.78 2.7 0.7 9.1477e-41
5.81 2.7 0.76 9.1477e-41
5.81 2.7 0.89 9.1477e-41
5.83 2.7 0.99 9.1477e-41
5.84 2.7 1.07 9.1477e-41
5.88 2.7 1.07 3.57e-43
5.88 2.7 1.07 3.57e-43
5.89 2.7 1.07 3.57e-43
6.18 2.7 1.07 3.57e-43
6.24 2.7 1.07 3.57e-43
6.29 2.7 1.07 3.57e-43
6.35 2.7 1.07 3.57e-43
5.98 2.7 1.62 9.1477e-41
6 2.7 1.67 9.1477e-41
6.03 2.7 1.69 9.1477e-41
6.06 2.7 1.72 9.1477e-41
6.09 2.7 1.75 9.1477e-41
6.14 2.7 1.75 9.1477e-41
6.18 2.7 1.76 9.1477e-41
6.22 2.7 1.77 9.1477e-41
6.26 2.7 1.78 9.1477e-41
6.31 2.7 1.78 9.1477e-41
6.36 2.7 1.77 9.1477e-41
6.4 2.7 1.77 9.1477e-41
6.44 2.7 1.79 9.1477e-41
6.5 2.7 1.78 9.1477e-41
6.54 2.7 1.79 9.1477e-41
6.59 2.7 1.79 9.1477e-41
6.64 2.7 1.79 9.1477e-41
6.69 2.7 1.79 9.1477e-41
6.74 2.7 1.79 9.1477e-41
6.79 2.7 1.79 9.1477e-41
6.85 2.7 1.78 9.1477e-41
6.9 2.7 1.79 9.1477e-41
6.95 2.7 1.79 9.1477e-41
7.01 2.7 1.78 9.1477e-41
7.07 2.7 1.78 9.1477e-41
7.13 2.7 1.77 9.1477e-41
7.18 2.7 1.77 9.1477e-41
7.25 2.7 1.76 9.1477e-41
7.32 2.7 1.75 9.1477e-41
5.8 2.76 0.5 9.1477e-41
5.78 2.76 0.7 9.1477e-41
5.8 2.76 0.78 9.1477e-41
5.81 2.76 0.9 9.1477e-41
5.82 2.76 1 9.1477e-41
5.84 2.76 1.07 9.1477e-41
5.88 2.76 1.07 3.57e-43
5.88 2.76 1.07 3.57e-43
5.89 2.76 1.07 3.57e-43
6.18 2.76 1.07 3.57e-43
6.24 2.76 1.07 3.57e-43
6.29 2.76 1.07 3.57e-43
6.35 2.76 1.07 3.57e-43
5.98 2.76 1.62 9.1477e-41
6 2.76 1.67 9.1477e-41
6.03 2.76 1.7 9.1477e-41
6.06 2.76 1.73 9.1477e-41
6.09 2.76 1.75 9.1477e-41
6.14 2.76 1.76 9.1477e-41
6.18 2.76 1.76 9.1477e-41
6.22 2.76 1.77 9.1477e-41
6.26 2.76 1.78 9.1477e-41
6.31 2.76 1.78 9.1477e-41
6.36 2.76 1.77 9.1477e-41
6.4 2.76 1.78 9.1477e-41
6.44 2.76 1.79 9.1477e-41
6.48 2.76 1.8 9.1477e-41
6.54 2.76 1.79 9.1477e-41
6.58 2.76 1.8 9.1477e-41
6.64 2.76 1.8 9.1477e-41
6.68 2.76 1.8 9.1477e-41
6.73 2.76 1.8 9.1477e-41
6.78 2.76 1.8 9.1477e-41
6.84 2.76 1.8 9.1477e-41
6.9 2.76 1.79 9.1477e-41
6.95 2.76 1.8 9.1477e-41
7.01 2.76 1.78 9.1477e-41
7.06 2.76 1.78 9.1477e-41
7.12 2.76 1.78 9.1477e-41
7.18 2.76 1.77 9.1477e-41
7.25 2.76 1.75 9.1477e-41
7.32 2.76 1.75 9.1477e-41
5.8 2.82 0.5 9.1477e-41
5.78 2.82 0.7 9.1477e-41
5.8 2.82 0.78 9.1477e-41
5.81 2.82 0.89 9.1477e-41
5.83 2.82 0.99 9.1477e-41
5.84 2.82 1.07 9.1477e-41
5.87 2.82 1.07 3.57e-43
5.88 2.82 1.07 3.57e-43
5.89 2.82 1.07 3.57e-43
6.18 2.82 1.07 3.57e-43
6.24 2.82 1.07 3.57e-43
6.29 2.82 1.07 3.57e-43
6.35 2.82 1.07 3.57e-43
5.98 2.82 1.62 9.1477e-41
6 2.82 1.67 9.1477e-41
6.03 2.82 1.69 9.1477e-41
6.05 2.82 1.74 9.1477e-41
6.09 2.82 1.76 9.1477e-41
6.14 2.82 1.76 9.1477e-41
6.17 2.82 1.77 9.1477e-41
6.22 2.82 1.77 9.1477e-41
6.26 2.82 1.78 9.1477e-41
6.31 2.82 1.78 9.1477e-41
6.35 2.82 1.78 9.1477e-41
6.4 2.82 1.78 9.1477e-41
6.43 2.82 1.8 9.1477e-41
6.48 2.82 1.81 9.1477e-41
6.54 2.82 1.78 9.1477e-41
6.58 2.82 1.8 9.1477e-41
6.63 2.82 1.8 9.1477e-41
6.68 2.82 1.8 9.1477e-41
6.74 2.82 1.79 9.1477e-41
6.78 2.82 1.81 9.1477e-41
6.84 2.82 1.8 9.1477e-41
6.89 2.82 1.8 9.1477e-41
6.95 2.82 1.8 9.1477e-41
7 2.82 1.79 9.1477e-41
7.06 2.82 1.79 9.1477e-41
7.12 2.82 1.78 9.1477e-41
7.18 2.82 1.78 9.1477e-41
7.25 2.82 1.75 9.1477e-41
7.32 2.82 1.75 9.1477e-41
5.79 2.88 0.51 9.1477e-41
5.78 2.88 0.7 9.1477e-41
5.81 2.88 0.77 9.1477e-41
5.81 2.88 0.89 9.1477e-41
5.83 2.88 0.99 9.1477e-41
5.84 2.88 1.07 9.1477e-41
5.88 2.88 1.07 3.57e-43
5.88 2.88 1.07 3.57e-43
5.89 2.88 1.07 3.57e-43
6.18 2.88 1.07 3.57e-43
6.24 2.88 1.07 3.57e-43
6.29 2.88 1.07 3.57e-43
6.35 2.88 1.07 3.57e-43
5.98 2.88 1.62 9.1477e-41
6 2.88 1.67 9.1477e-41
6.03 2.88 1.7 9.1477e-41
6.06 2.88 1.73 9.1477e-41
6.09 2.88 1.75 9.1477e-41
6.13 2.88 1.75 9.1477e-41
6.18 2.88 1.75 9.1477e-41
6.21 2.88 1.78 9.1477e-41
6.26 2.88 1.78 9.1477e-41
6.3 2.88 1.79 9.1477e-41
6.35 2.88 1.78 9.1477e-41
6.4 2.88 1.79 9.1477e-41
6.44 2.88 1.79 9.1477e-41
6.48 2.88 1.8 9.1477e-41
6.54 2.88 1.79 9.1477e-41
6.58 2.88 1.8 9.1477e-41
6.63 2.88 1.8 9.1477e-41
6.68 2.88 1.8 9.1477e-41
6.73 2.88 1.8 9.1477e-41
6.78 2.88 1.8 9.1477e-41
6.84 2.88 1.81 9.1477e-41
6.89 2.88 1.8 9.1477e-41
6.95 2.88 1.8 9.1477e-41
7 2.88 1.79 9.1477e-41
7.06 2.88 1.79 9.1477e-41
7.12 2.88 1.78 9.1477e-41
7.18 2.88 1.77 9.1477e-41
7.24 2.88 1.77 9.1477e-41
7.31 2.88 1.77 9.1477e-41
5.8 2.94 0.5 9.1477e-41
5.78 2.94 0.7 9.1477e-41
5.81 2.94 0.77 9.1477e-41
5.81 2.94 0.9 9.1477e-41
5.83 2.94 0.99 9.1477e-41
5.84 2.94 1.08 9.1477e-41
5.88 2.94 1.08 3.57e-43
5.88 2.94 1.08 3.57e-43
5.89 2.94 1.08 3.57e-43
6.18 2.94 1.08 3.57e-43
6.24 2.94 0.71 9.1477e-41
6.04 2.94 0.71 3.57e-43
6.35 2.94 0.71 3.57e-43
5.98 2.94 1.62 9.1477e-41
6.01 2.94 1.66 9.1477e-41
6.03 2.94 1.7 9.1477e-41
6.06 2.94 1.73 9.1477e-41
6.09 2.94 1.75 9.1477e-41
6.13 2.94 1.75 9.1477e-41
6.17 2.94 1.76 9.1477e-41
6.21 2.94 1.78 9.1477e-41
6.26 2.94 1.78 9.1477e-41
6.3 2.94 1.79 9.1477e-41
6.34 2.94 1.8 9.1477e-41
6.39 2.94 1.81 9.1477e-41
6.44 2.94 1.79 9.1477e-41
6.48 2.94 1.81 9.1477e-41
6.54 2.94 1.79 9.1477e-41
6.58 2.94 1.8 9.1477e-41
6.63 2.94 1.8 9.1477e-41
6.68 2.94 1.81 9.1477e-41
6.73 2.94 1.81 9.1477e-41
6.78 2.94 1.8 9.1477e-41
6.83 2.94 1.81 9.1477e-41
6.89 2.94 1.81 9.1477e-41
6.94 2.94 1.81 9.1477e-41
7 2.94 1.79 9.1477e-41
7.06 2.94 1.78 9.1477e-41
7.12 2.94 1.78 9.1477e-41
7.18 2.94 1.78 9.1477e-41
7.24 2.94 1.77 9.1477e-41
7.31 2.94 1.76 9.1477e-41
5.79 3 0.51 9.1477e-41
5.78 3 0.7 9.1477e-41
5.81 3 0.77 9.1477e-41
5.81 3 0.89 9.1477e-41
5.83 3 0.99 9.1477e-41
5.84 3 1.07 9.1477e-41
5.87 3 1.07 3.57e-43
5.88 3 1.07 3.57e-43
5.89 3 1.07 3.57e-43
6.18 3 1.07 3.57e-43
6.24 3 0.71 9.1477e-41
6.05 3 0.71 3.57e-43
6.35 3 0.71 3.57e-43
5.98 3 1.62 9.1477e-41
6.01 3 1.66 9.1477e-41
6.03 3 1.7 9.1477e-41
6.06 3 1.73 9.1477e-41
6.09 3 1.76 9.1477e-41
6.12 3 1.77 9.1477e-41
6.17 3 1.77 9.1477e-41
6.21 3 1.79 9.1477e-41
6.26 3 1.78 9.1477e-41
6.3 3 1.79 9.1477e-41
6.34 3 1.8 9.1477e-41
6.4 3 1.79 9.1477e-41
6.43 3 1.8 9.1477e-41
6.48 3 1.8 9.1477e-41
6.52 3 1.81 9.1477e-41
6.58 3 1.8 9.1477e-41
6.63 3 1.81 9.1477e-41
6.68 3 1.8 9.1477e-41
6.74 3 1.79 9.1477e-41
6.78 3 1.81 9.1477e-41
6.84 3 1.81 9.1477e-41
6.88 3 1.81 9.1477e-41
6.95 3 1.8 9.1477e-41
7 3 1.79 9.1477e-41
7.06 3 1.79 9.1477e-41
7.12 3 1.79 9.1477e-41
7.18 3 1.78 9.1477e-41
7.24 3 1.77 9.1477e-41
7.31 3 1.76 9.1477e-41
5.78 3.06 0.55 9.1477e-41
5.79 3.06 0.69 9.1477e-41
5.81 3.06 0.77 9.1477e-41
5.82 3.06 0.88 9.1477e-41
5.83 3.06 0.98 9.1477e-41
5.84 3.06 1.08 9.1477e-41
5.87 3.06 1.08 3.57e-43
5.88 3.06 1.08 3.57e-43
5.89 3.06 1.08 3.57e-43
6.18 3.06 1.08 3.57e-43
6.24 3.06 0.71 9.1477e-41
6.06 3.06 0.71 3.57e-43
6.35 3.06 0.71 3.57e-43
5.98 3.06 1.62 9.1477e-41
6 3.06 1.67 9.1477e-41
6.03 3.06 1.7 9.1477e-41
6.06 3.06 1.73 9.1477e-41
6.09 3.06 1.76 9.1477e-41
6.13 3.06 1.76 9.1477e-41
6.17 3.06 1.76 9.1477e-41
6.21 3.06 1.79 9.1477e-41
6.26 3.06 1.78 9.1477e-41
6.3 3.06 1.79 9.1477e-41
6.34 3.06 1.8 9.1477e-41
6.39 3.06 1.81 9.1477e-41
6.43 3.06 1.8 9.1477e-41
6.48 3.06 1.8 9.1477e-41
6.52 3.06 1.81 9.1477e-41
6.58 3.06 1.8 9.1477e-41
6.63 3.06 1.8 9.1477e-41
6.68 3.06 1.81 9.1477e-41
6.73 3.06 1.8 9.1477e-41
6.78 3.06 1.81 9.1477e-41
6.84 3.06 1.81 9.1477e-41
6.89 3.06 1.81 9.1477e-41
6.94 3.06 1.81 9.1477e-41
6.99 3.06 1.81 9.1477e-41
7.06 3.06 1.79 9.1477e-41
7.11 3.06 1.79 9.1477e-41
7.17 3.06 1.79 9.1477e-41
7.24 3.06 1.77 9.1477e-41
7.31 3.06 1.76 9.1477e-41
5.78 3.12 0.57 9.1477e-41
5.78 3.12 0.7 9.1477e-41
5.81 3.12 0.76 9.1477e-41
5.82 3.12 0.88 9.1477e-41
5.83 3.12 0.98 9.1477e-41
5.84 3.12 1.07 9.1477e-41
5.87 3.12 1.07 3.57e-43
5.88 3.12 1.07 3.57e-43
5.89 3.12 1.07 3.57e-43
6.18 3.12 1.07 3.57e-43
6.24 3.12 1.07 3.57e-43
6.06 3.12 1.07 3.57e-43
6.35 3.12 1.07 3.57e-43
5.98 3.12 1.62 9.1477e-41
6 3.12 1.67 9.1477e-41
6.03 3.12 1.69 9.1477e-41
6.06 3.12 1.73 9.1477e-41
6.09 3.12 1.75 9.1477e-41
6.13 3.12 1.76 9.1477e-41
6.17 3.12 1.76 9.1477e-41
6.21 3.12 1.79 9.1477e-41
6.25 3.12 1.79 9.1477e-41
6.3 3.12 1.79 9.1477e-41
6.34 3.12 1.8 9.1477e-41
6.39 3.12 1.81 9.1477e-41
6.43 3.12 1.8 9.1477e-41
6.48 3.12 1.8 9.1477e-41
6.52 3.12 1.81 9.1477e-41
6.58 3.12 1.8 9.1477e-41
6.63 3.12 1.81 9.1477e-41
6.68 3.12 1.81 9.1477e-41
6.73 3.12 1.81 9.1477e-41
6.78 3.12 1.81 9.1477e-41
6.83 3.12 1.81 9.1477e-41
6.89 3.12 1.81 9.1477e-41
6.95 3.12 1.8 9.1477e-41
7 3.12 1.8 9.1477e-41
7.06 3.12 1.79 9.1477e-41
7.12 3.12 1.79 9.1477e-41
7.17 3.12 1.79 9.1477e-41
7.23 3.12 1.78 9.1477e-41
7.31 3.12 1.77 9.1477e-41
5.79 3.18 0.53 9.1477e-41
5.79 3.18 0.69 9.1477e-41
5.8 3.18 0.79 9.1477e-41
5.82 3.18 0.87 9.1477e-41
5.83 3.18 0.98 9.1477e-41
5.85 3.18 1.06 9.1477e-41
5.87 3.18 1.06 3.57e-43
5.88 3.18 1.06 3.57e-43
5.89 3.18 1.06 3.57e-43
6.18 3.18 1.06 3.57e-43
6.24 3.18 1.06 3.57e-43
6.06 3.18 1.06 3.57e-43
6.35 3.18 1.06 3.57e-43
5.98 3.18 1.62 9.1477e-41
6.01 3.18 1.65 9.1477e-41
6.03 3.18 1.7 9.1477e-41
6.05 3.18 1.74 9.1477e-41
6.09 3.18 1.76 9.1477e-41
6.13 3.18 1.76 9.1477e-41
6.18 3.18 1.75 9.1477e-41
6.21 3.18 1.79 9.1477e-41
6.25 3.18 1.79 9.1477e-41
6.3 3.18 1.79 9.1477e-41
6.34 3.18 1.8 9.1477e-41
6.39 3.18 1.81 9.1477e-41
6.43 3.18 1.81 9.1477e-41
6.48 3.18 1.81 9.1477e-41
6.52 3.18 1.81 9.1477e-41
6.58 3.18 1.81 9.1477e-41
6.63 3.18 1.8 9.1477e-41
6.67 3.18 1.82 9.1477e-41
6.72 3.18 1.82 9.1477e-41
6.77 3.18 1.81 9.1477e-41
6.83 3.18 1.82 9.1477e-41
6.88 3.18 1.81 9.1477e-41
6.94 3.18 1.81 9.1477e-41
6.99 3.18 1.81 9.1477e-41
7.05 3.18 1.81 9.1477e-41
7.12 3.18 1.79 9.1477e-41
7.17 3.18 1.79 9.1477e-41
7.23 3.18 1.78 9.1477e-41
7.31 3.18 1.77 9.1477e-41
5.8 3.24 0.5 9.1477e-41
5.78 3.24 0.71 9.1477e-41
5.8 3.24 0.79 9.1477e-41
5.82 3.24 0.88 9.1477e-41
5.83 3.24 0.99 9.1477e-41
5.84 3.24 1.07 9.1477e-41
5.87 3.24 1.07 3.57e-43
5.88 3.24 1.07 3.57e-43
5.89 3.24 1.07 3.57e-43
6.18 3.24 1.07 3.57e-43
6.24 3.24 1.07 3.57e-43
6.06 3.24 1.07 3.57e-43
6.35 3.24 1.07 3.57e-43
5.98 3.24 1.62 9.1477e-41
6.01 3.24 1.66 9.1477e-41
6.03 3.24 1.69 9.1477e-41
6.06 3.24 1.73 9.1477e-41
6.09 3.24 1.76 9.1477e-41
6.12 3.24 1.77 9.1477e-41
6.17 3.24 1.76 9.1477e-41
6.21 3.24 1.79 9.1477e-41
6.26 3.24 1.78 9.1477e-41
6.3 3.24 1.79 9.1477e-41
6.35 3.24 1.79 9.1477e-41
6.4 3.24 1.79 9.1477e-41
6.43 3.24 1.8 9.1477e-41
6.48 3.24 1.81 9.1477e-41
6.53 3.24 1.8 9.1477e-41
6.58 3.24 1.81 9.1477e-41
6.63 3.24 1.81 9.1477e-41
6.67 3.24 1.82 9.1477e-41
6.73 3.24 1.81 9.1477e-41
6.78 3.24 1.81 9.1477e-41
6.83 3.24 1.81 9.1477e-41
6.88 3.24 1.81 9.1477e-41
6.93 3.24 1.81 9.1477e-41
6.99 3.24 1.81 9.1477e-41
7.05 3.24 1.8 9.1477e-41
7.12 3.24 1.79 9.1477e-41
7.17 3.24 1.79 9.1477e-41
7.23 3.24 1.78 9.1477e-41
7.31 3.24 1.77 9.1477e-41
5.8 3.3 0.5 9.1477e-41
5.78 3.3 0.71 9.1477e-41
5.8 3.3 0.8 9.1477e-41
5.81 3.3 0.89 9.1477e-41
5.83 3.3 0.97 9.1477e-41
5.85 3.3 1.06 9.1477e-41
5.85 3.3 1.16 9.1477e-41
5.89 3.3 1.16 3.57e-43
5.89 3.3 1.16 3.57e-43
6.18 3.3 1.16 3.57e-43
6.24 3.3 1.16 3.57e-43
6.06 3.3 1.16 3.57e-43
6.35 3.3 1.16 3.57e-43
5.98 3.3 1.62 9.1477e-41
6 3.3 1.67 9.1477e-41
6.03 3.3 1.7 9.1477e-41
6.06 3.3 1.73 9.1477e-41
6.09 3.3 1.76 9.1477e-41
6.13 3.3 1.76 9.1477e-41
6.17 3.3 1.76 9.1477e-41
6.21 3.3 1.79 9.1477e-41
6.26 3.3 1.78 9.1477e-41
6.3 3.3 1.79 9.1477e-41
6.34 3.3 1.8 9.1477e-41
6.39 3.3 1.8 9.1477e-41
6.43 3.3 1.8 9.1477e-41
6.48 3.3 1.81 9.1477e-41
6.54 3.3 1.79 9.1477e-41
6.58 3.3 1.8 9.1477e-41
6.63 3.3 1.8 9.1477e-41
6.68 3.3 1.81 9.1477e-41
6.73 3.3 1.8 9.1477e-41
6.78 3.3 1.81 9.1477e-41
6.83 3.3 1.81 9.1477e-41
6.88 3.3 1.81 9.1477e-41
6.95 3.3 1.8 9.1477e-41
7 3.3 1.8 9.1477e-41
7.06 3.3 1.79 9.1477e-41
7.12 3.3 1.79 9.1477e-41
7.18 3.3 1.78 9.1477e-41
7.24 3.3 1.77 9.1477e-41
7.31 3.3 1.76 9.1477e-41
5.81 3.36 0.48 9.1477e-41
5.78 3.36 0.72 9.1477e-41
5.79 3.36 0.81 9.1477e-41
5.81 3.36 0.9 9.1477e-41
5.83 3.36 0.98 9.1477e-41
5.84 3.36 1.07 9.1477e-41
5.85 3.36 1.18 9.1477e-41
5.89 3.36 1.18 3.57e-43
5.89 3.36 1.18 3.57e-43
6.18 3.36 1.18 3.57e-43
6.24 3.36 1.18 3.57e-43
6.06 3.36 1.18 3.57e-43
6.35 3.36 1.18 3.57e-43
5.98 3.36 1.62 9.1477e-41
6 3.36 1.67 9.1477e-41
6.02 3.36 1.71 9.1477e-41
6.06 3.36 1.73 9.1477e-41
6.09 3.36 1.75 9.1477e-41
6.12 3.36 1.77 9.1477e-41
6.17 3.36 1.76 9.1477e-41
6.21 3.36 1.79 9.1477e-41
6.26 3.36 1.78 9.1477e-41
6.3 3.36 1.79 9.1477e-41
6.34 3.36 1.8 9.1477e-41
6.39 3.36 1.8 9.1477e-41
6.43 3.36 1.8 9.1477e-41
6.48 3.36 1.8 9.1477e-41
6.52 3.36 1.81 9.1477e-41
6.58 3.36 1.8 9.1477e-41
6.63 3.36 1.81 9.1477e-41
6.67 3.36 1.82 9.1477e-41
6.73 3.36 1.81 9.1477e-41
6.78 3.36 1.81 9.1477e-41
6.84 3.36 1.81 9.1477e-41
6.89 3.36 1.81 9.1477e-41
6.95 3.36 1.8 9.1477e-41
6.99 3.36 1.81 9.1477e-41
7.05 3.36 1.8 9.1477e-41
7.12 3.36 1.78 9.1477e-41
7.18 3.36 1.78 9.1477e-41
7.25 3.36 1.76 9.1477e-41
7.31 3.36 1.76 9.1477e-41
5.8 3.42 0.49 9.1477e-41
5.78 3.42 0.7 9.1477e-41
5.79 3.42 0.81 9.1477e-41
5.81 3.42 0.89 9.1477e-41
5.83 3.42 0.97 9.1477e-41
5.85 3.42 1.06 9.1477e-41
5.85 3.42 1.17 9.1477e-41
5.89 3.42 1.17 3.57e-43
5.89 3.42 1.17 3.57e-43
6.18 3.42 1.17 3.57e-43
6.24 3.42 1.17 3.57e-43
6.06 3.42 1.17 3.57e-43
6.35 3.42 1.17 3.57e-43
5.98 3.42 1.62 9.1477e-41
6.01 3.42 1.66 9.1477e-41
6.03 3.42 1.69 9.1477e-41
6.06 3.42 1.73 9.1477e-41
6.09 3.42 1.75 9.1477e-41
6.13 3.42 1.76 9.1477e-41
6.18 3.42 1.75 9.1477e-41
6.21 3.42 1.79 9.1477e-41
6.25 3.42 1.79 9.1477e-41
6.3 3.42 1.79 9.1477e-41
6.35 3.42 1.79 9.1477e-41
6.39 3.42 1.8 9.1477e-41
6.43 3.42 1.8 9.1477e-41
6.48 3.42 1.81 9.1477e-41
6.53 3.42 1.8 9.1477e-41
6.58 3.42 1.81 9.1477e-41
6.63 3.42 1.8 9.1477e-41
6.68 3.42 1.81 9.1477e-41
6.73 3.42 1.81 9.1477e-41
6.78 3.42 1.81 9.1477e-41
6.84 3.42 1.81 9.1477e-41
6.88 3.42 1.81 9.1477e-41
6.93 3.42 1.81 9.1477e-41
7 3.42 1.8 9.1477e-41
7.05 3.42 1.8 9.1477e-41
7.11 3.42 1.79 9.1477e-41
7.17 3.42 1.79 9.1477e-41
7.24 3.42 1.77 9.1477e-41
7.31 3.42 1.77 9.1477e-41
5.81 3.48 0.47 9.1477e-41
5.8 3.48 0.65 9.1477e-41
5.79 3.48 0.81 9.1477e-41
5.81 3.48 0.89 9.1477e-41
5.83 3.48 0.97 9.1477e-41
5.85 3.48 1.06 9.1477e-41
5.85 3.48 1.16 9.1477e-41
5.89 3.48 1.16 3.57e-43
5.89 3.48 1.16 3.57e-43
6.18 3.48 1.16 3.57e-43
6.24 3.48 1.16 3.57e-43
6.06 3.48 1.16 3.57e-43
6.35 3.48 1.16 3.57e-43
5.98 3.48 1.62 9.1477e-41
6 3.48 1.67 9.1477e-41
6.03 3.48 1.69 9.1477e-41
6.06 3.48 1.72 9.1477e-41
6.09 3.48 1.75 9.1477e-41
6.13 3.48 1.76 9.1477e-41
6.18 3.48 1.75 9.1477e-41
6.2 3.48 1.8 9.1477e-41
6.25 3.48 1.8 9.1477e-41
6.3 3.48 1.79 9.1477e-41
6.35 3.48 1.79 9.1477e-41
6.39 3.48 1.8 9.1477e-41
6.43 3.48 1.8 9.1477e-41
6.48 3.48 1.8 9.1477e-41
6.52 3.48 1.81 9.1477e-41
6.58 3.48 1.81 9.1477e-41
6.63 3.48 1.8 9.1477e-41
6.67 3.48 1.82 9.1477e-41
6.73 3.48 1.81 9.1477e-41
6.77 3.48 1.81 9.1477e-41
6.84 3.48 1.81 9.1477e-41
6.88 3.48 1.81 9.1477e-41
6.94 3.48 1.81 9.1477e-41
7 3.48 1.8 9.1477e-41
7.05 3.48 1.8 9.1477e-41
7.11 3.48 1.79 9.1477e-41
7.18 3.48 1.78 9.1477e-41
7.24 3.48 1.77 9.1477e-41
7.31 3.48 1.76 9.1477e-41
5.8 3.54 0.49 9.1477e-41
