# .PCD v.7 - Point Cloud Data file format
VERSION .7
FIELDS x y z rgb
SIZE 4 4 4 4
TYPE F F F F
WIDTH 1889
HEIGHT 1
POINTS 1889
DATA ascii
2.51 0.28 0.93 9.1477e-41
2.55 0.28 0.92 9.1477e-41
2.56 0.28 0.81 9.1477e-41
2.6 0.28 0.78 9.1477e-41
2.63 0.28 0.74 9.1477e-41
2.69 0.28 0.77 9.1477e-41
2.73 0.28 0.76 9.1477e-41
2.77 0.28 0.74 9.1477e-41
2.8 0.28 0.65 9.1477e-41
2.81 0.28 0.52 9.1477e-41
1.38 0.35 0.97 9.1477e-41
1.44 0.35 0.98 9.1477e-41
1.49 0.35 0.98 9.1477e-41
1.55 0.35 0.99 9.1477e-41
1.61 0.35 1 9.1477e-41
1.66 0.35 0.99 9.1477e-41
1.71 0.35 1 9.1477e-41
1.77 0.35 1.01 9.1477e-41
1.82 0.35 1.02 9.1477e-41
1.87 0.35 1.01 9.1477e-41
1.92 0.35 1.01 9.1477e-41
1.97 0.35 1.01 9.1477e-41
2.02 0.35 1.01 9.1477e-41
2.06 0.35 1 9.1477e-41
2.11 0.35 0.99 9.1477e-41
2.15 0.35 0.99 9.1477e-41
2.21 0.35 1 9.1477e-41
2.25 0.35 0.99 9.1477e-41
2.3 0.35 1 9.1477e-41
2.34 0.35 0.98 9.1477e-41
2.39 0.35 0.99 9.1477e-41
2.43 0.35 0.98 9.1477e-41
2.47 0.35 0.97 9.1477e-41
2.51 0.35 0.95 9.1477e-41
2.56 0.35 0.96 9.1477e-41
2.6 0.35 0.94 9.1477e-41
2.6 0.35 0.8 9.1477e-41
2.64 0.35 0.75 9.1477e-41
2.67 0.35 0.71 9.1477e-41
2.72 0.35 0.72 9.1477e-41
2.78 0.35 0.78 9.1477e-41
2.82 0.35 0.74 9.1477e-41
2.83 0.35 0.61 9.1477e-41
1.33 0.42 0.99 9.1477e-41
1.4 0.42 1.01 9.1477e-41
1.46 0.42 1.01 9.1477e-41
1.51 0.42 1.01 9.1477e-41
1.57 0.42 1.03 9.1477e-41
1.63 0.42 1.03 9.1477e-41
1.68 0.42 1.03 9.1477e-41
1.73 0.42 1.02 9.1477e-41
1.78 0.42 1.03 9.1477e-41
1.83 0.42 1.03 9.1477e-41
1.88 0.42 1.04 9.1477e-41
1.93 0.42 1.03 9.1477e-41
1.98 0.42 1.03 9.1477e-41
2.02 0.42 1.03 9.1477e-41
2.07 0.42 1.03 9.1477e-41
2.12 0.42 1.03 9.1477e-41
2.17 0.42 1.02 9.1477e-41
2.22 0.42 1.03 9.1477e-41
2.26 0.42 1.01 9.1477e-41
2.31 0.42 1.03 9.1477e-41
2.35 0.42 1 9.1477e-41
2.4 0.42 1 9.1477e-41
2.44 0.42 0.99 9.1477e-41
2.48 0.42 0.99 9.1477e-41
2.53 0.42 0.99 9.1477e-41
2.57 0.42 0.98 9.1477e-41
2.62 0.42 0.98 9.1477e-41
2.66 0.42 0.97 9.1477e-41
2.69 0.42 0.97 3.57e-43
2.67 0.42 0.71 9.1477e-41
2.74 0.42 0.79 9.1477e-41
2.78 0.42 0.78 9.1477e-41
2.83 0.42 0.77 9.1477e-41
2.85 0.42 0.68 9.1477e-41
2.85 0.42 0.47 9.1477e-41
1.24 0.49 0.93 9.1477e-41
1.36 0.49 1.04 9.1477e-41
1.42 0.49 1.03 9.1477e-41
1.48 0.49 1.04 9.1477e-41
1.53 0.49 1.04 9.1477e-41
1.58 0.49 1.04 9.1477e-41
1.63 0.49 1.05 9.1477e-41
1.68 0.49 1.04 9.1477e-41
1.74 0.49 1.05 9.1477e-41
1.79 0.49 1.06 9.1477e-41
1.84 0.49 1.06 9.1477e-41
1.89 0.49 1.05 9.1477e-41
1.94 0.49 1.04 9.1477e-41
1.99 0.49 1.05 9.1477e-41
2.04 0.49 1.06 9.1477e-41
2.09 0.49 1.05 9.1477e-41
2.13 0.49 1.05 9.1477e-41
2.18 0.49 1.05 9.1477e-41
2.23 0.49 1.05 9.1477e-41
2.27 0.49 1.04 9.1477e-41
2.31 0.49 1.04 9.1477e-41
2.36 0.49 1.03 9.1477e-41
2.41 0.49 1.03 9.1477e-41
2.45 0.49 1.03 9.1477e-41
2.49 0.49 1.02 9.1477e-41
2.54 0.49 1.02 9.1477e-41
2.58 0.49 1.01 9.1477e-41
2.62 0.49 1.01 9.1477e-41
2.67 0.49 1 9.1477e-41
2.7 0.49 1 3.57e-43
2.67 0.49 0.71 9.1477e-41
2.75 0.49 0.81 9.1477e-41
2.81 0.49 0.86 9.1477e-41
2.84 0.49 0.81 9.1477e-41
2.86 0.49 0.73 9.1477e-41
2.88 0.49 0.61 9.1477e-41
1.32 0.56 1.05 9.1477e-41
1.37 0.56 1.06 9.1477e-41
1.43 0.56 1.06 9.1477e-41
1.49 0.56 1.06 9.1477e-41
1.54 0.56 1.07 9.1477e-41
1.59 0.56 1.07 9.1477e-41
1.65 0.56 1.07 9.1477e-41
1.7 0.56 1.07 9.1477e-41
1.76 0.56 1.09 9.1477e-41
1.81 0.56 1.08 9.1477e-41
1.85 0.56 1.08 9.1477e-41
1.9 0.56 1.07 9.1477e-41
1.95 0.56 1.07 9.1477e-41
2 0.56 1.08 9.1477e-41
2.05 0.56 1.07 9.1477e-41
2.09 0.56 1.07 9.1477e-41
2.14 0.56 1.06 9.1477e-41
2.19 0.56 1.07 9.1477e-41
2.24 0.56 1.08 9.1477e-41
2.28 0.56 1.06 9.1477e-41
2.32 0.56 1.06 9.1477e-41
2.36 0.56 1.05 9.1477e-41
2.41 0.56 1.05 9.1477e-41
2.46 0.56 1.06 9.1477e-41
2.5 0.56 1.05 9.1477e-41
2.54 0.56 1.04 9.1477e-41
2.59 0.56 1.03 9.1477e-41
2.63 0.56 1.04 9.1477e-41
2.67 0.56 1.03 9.1477e-41
2.71 0.56 1.02 9.1477e-41
2.76 0.56 1 9.1477e-41
2.79 0.56 0.96 9.1477e-41
2.82 0.56 0.92 9.1477e-41
2.84 0.56 0.83 9.1477e-41
2.88 0.56 0.78 9.1477e-41
2.89 0.56 0.67 9.1477e-41
1.32 0.63 1.06 9.1477e-41
1.39 0.63 1.08 9.1477e-41
1.44 0.63 1.08 9.1477e-41
1.5 0.63 1.09 9.1477e-41
1.55 0.63 1.08 9.1477e-41
1.6 0.63 1.09 9.1477e-41
1.66 0.63 1.1 9.1477e-41
1.72 0.63 1.11 9.1477e-41
1.76 0.63 1.1 9.1477e-41
1.81 0.63 1.1 9.1477e-41
1.87 0.63 1.11 9.1477e-41
1.91 0.63 1.09 9.1477e-41
1.97 0.63 1.11 9.1477e-41
2.01 0.63 1.1 9.1477e-41
2.06 0.63 1.11 9.1477e-41
2.1 0.63 1.09 9.1477e-41
2.15 0.63 1.1 9.1477e-41
2.2 0.63 1.09 9.1477e-41
2.24 0.63 1.09 9.1477e-41
2.29 0.63 1.09 9.1477e-41
2.33 0.63 1.08 9.1477e-41
2.38 0.63 1.09 9.1477e-41
2.42 0.63 1.07 9.1477e-41
2.46 0.63 1.07 9.1477e-41
2.51 0.63 1.07 9.1477e-41
2.55 0.63 1.07 9.1477e-41
2.6 0.63 1.06 9.1477e-41
2.64 0.63 1.06 9.1477e-41
2.68 0.63 1.05 9.1477e-41
2.72 0.63 1.04 9.1477e-41
2.77 0.63 1.04 9.1477e-41
2.8 0.63 1 9.1477e-41
2.83 0.63 0.96 9.1477e-41
2.86 0.63 0.88 9.1477e-41
2.89 0.63 0.82 9.1477e-41
2.91 0.63 0.73 9.1477e-41
2.89 0.63 0.44 9.1477e-41
1.25 0.7 1.04 9.1477e-41
1.34 0.7 1.1 9.1477e-41
1.41 0.7 1.11 9.1477e-41
1.46 0.7 1.1 9.1477e-41
1.51 0.7 1.11 9.1477e-41
1.56 0.7 1.11 9.1477e-41
1.62 0.7 1.11 9.1477e-41
1.67 0.7 1.12 9.1477e-41
1.72 0.7 1.12 9.1477e-41
1.78 0.7 1.12 9.1477e-41
1.82 0.7 1.12 9.1477e-41
1.87 0.7 1.12 9.1477e-41
1.92 0.7 1.12 9.1477e-41
1.97 0.7 1.12 9.1477e-41
2.02 0.7 1.12 9.1477e-41
2.07 0.7 1.12 9.1477e-41
2.11 0.7 1.12 9.1477e-41
2.16 0.7 1.12 9.1477e-41
2.2 0.7 1.1 9.1477e-41
2.25 0.7 1.1 9.1477e-41
2.29 0.7 1.1 9.1477e-41
2.34 0.7 1.11 9.1477e-41
2.38 0.7 1.09 9.1477e-41
2.43 0.7 1.09 9.1477e-41
2.47 0.7 1.08 9.1477e-41
2.52 0.7 1.09 9.1477e-41
2.56 0.7 1.09 9.1477e-41
2.6 0.7 1.08 9.1477e-41
2.64 0.7 1.07 9.1477e-41
2.69 0.7 1.08 9.1477e-41
2.73 0.7 1.06 9.1477e-41
2.77 0.7 1.05 9.1477e-41
2.81 0.7 1.03 9.1477e-41
2.83 0.7 0.97 9.1477e-41
2.87 0.7 0.92 9.1477e-41
2.89 0.7 0.84 9.1477e-41
2.91 0.7 0.75 9.1477e-41
1.29 0.77 1.1 9.1477e-41
1.36 0.77 1.12 9.1477e-41
1.42 0.77 1.13 9.1477e-41
1.47 0.77 1.13 9.1477e-41
1.52 0.77 1.13 9.1477e-41
1.57 0.77 1.13 9.1477e-41
1.62 0.77 1.11 9.1477e-41
1.67 0.77 1.12 9.1477e-41
1.73 0.77 1.12 9.1477e-41
1.78 0.77 1.12 9.1477e-41
1.81 0.77 1.09 9.1477e-41
1.87 0.77 1.12 9.1477e-41
1.92 0.77 1.11 9.1477e-41
1.97 0.77 1.11 9.1477e-41
2.02 0.77 1.12 9.1477e-41
2.07 0.77 1.13 9.1477e-41
2.11 0.77 1.12 9.1477e-41
2.16 0.77 1.12 9.1477e-41
2.21 0.77 1.12 9.1477e-41
2.25 0.77 1.11 9.1477e-41
2.3 0.77 1.12 9.1477e-41
2.35 0.77 1.13 9.1477e-41
2.39 0.77 1.11 9.1477e-41
2.44 0.77 1.12 9.1477e-41
2.48 0.77 1.11 9.1477e-41
2.52 0.77 1.11 9.1477e-41
2.56 0.77 1.09 9.1477e-41
2.61 0.77 1.1 9.1477e-41
2.65 0.77 1.1 9.1477e-41
2.69 0.77 1.08 9.1477e-41
2.73 0.77 1.07 9.1477e-41
2.78 0.77 1.08 9.1477e-41
2.81 0.77 1.05 9.1477e-41
2.84 0.77 0.98 9.1477e-41
2.87 0.77 0.93 9.1477e-41
2.9 0.77 0.86 9.1477e-41
2.92 0.77 0.77 9.1477e-41
1.31 0.84 1.13 9.1477e-41
1.36 0.84 1.12 9.1477e-41
1.38 0.84 1.07 9.1477e-41
1.42 0.84 1.04 9.1477e-41
1.49 0.84 1.06 9.1477e-41
1.54 0.84 1.07 9.1477e-41
1.6 0.84 1.08 9.1477e-41
1.65 0.84 1.07 9.1477e-41
1.71 0.84 1.09 9.1477e-41
1.76 0.84 1.09 9.1477e-41
1.8 0.84 1.09 3.57e-43
1.87 0.84 1.12 9.1477e-41
1.91 0.84 1.12 3.57e-43
1.97 0.84 1.12 3.57e-43
2.02 0.84 1.12 3.57e-43
2.07 0.84 1.13 9.1477e-41
2.1 0.84 1.08 9.1477e-41
2.15 0.84 1.08 9.1477e-41
2.19 0.84 1.08 9.1477e-41
2.24 0.84 1.08 9.1477e-41
2.28 0.84 1.07 9.1477e-41
2.32 0.84 1.05 9.1477e-41
2.36 0.84 1.05 9.1477e-41
2.41 0.84 1.05 9.1477e-41
2.45 0.84 1.04 9.1477e-41
2.52 0.84 1.1 9.1477e-41
2.57 0.84 1.12 9.1477e-41
2.61 0.84 1.11 9.1477e-41
2.65 0.84 1.11 9.1477e-41
2.7 0.84 1.11 9.1477e-41
2.74 0.84 1.1 9.1477e-41
2.78 0.84 1.09 9.1477e-41
2.82 0.84 1.07 9.1477e-41
2.85 0.84 1.02 9.1477e-41
2.87 0.84 0.94 9.1477e-41
2.9 0.84 0.86 9.1477e-41
2.92 0.84 0.77 9.1477e-41
1.22 0.91 1.07 9.1477e-41
1.31 0.91 1.13 9.1477e-41
1.33 0.91 1.13 3.57e-43
1.38 0.91 1.13 3.57e-43
1.42 0.91 1.13 3.57e-43
1.49 0.91 1.06 9.1477e-41
1.59 0.91 1.16 9.1477e-41
1.63 0.91 1.14 9.1477e-41
1.69 0.91 1.14 3.57e-43
1.71 0.91 1.14 3.57e-43
1.76 0.91 1.14 3.57e-43
1.8 0.91 1.14 3.57e-43
1.87 0.91 1.14 3.57e-43
1.91 0.91 1.14 3.57e-43
1.97 0.91 1.14 3.57e-43
2.02 0.91 1.14 3.57e-43
2.07 0.91 1.14 3.57e-43
2.1 0.91 1.14 3.57e-43
2.15 0.91 1.14 3.57e-43
2.19 0.91 1.14 3.57e-43
2.24 0.91 1.14 3.57e-43
2.28 0.91 1.14 3.57e-43
2.32 0.91 1.14 3.57e-43
2.36 0.91 1.14 3.57e-43
2.41 0.91 1.14 3.57e-43
2.45 0.91 1.14 3.57e-43
2.52 0.91 1.1 9.1477e-41
2.55 0.91 1.07 9.1477e-41
2.59 0.91 1.04 9.1477e-41
2.63 0.91 1.04 9.1477e-41
2.7 0.91 1.1 9.1477e-41
2.75 0.91 1.12 9.1477e-41
2.79 0.91 1.11 9.1477e-41
2.82 0.91 1.09 9.1477e-41
2.85 0.91 1.03 9.1477e-41
2.87 0.91 0.94 9.1477e-41
2.9 0.91 0.88 9.1477e-41
2.92 0.91 0.78 9.1477e-41
1.28 0.98 1.17 9.1477e-41
1.33 0.98 1.16 9.1477e-41
1.39 0.98 1.17 9.1477e-41
1.44 0.98 1.17 3.57e-43
1.42 0.98 1.17 3.57e-43
1.49 0.98 1.17 3.57e-43
1.59 0.98 1.17 3.57e-43
1.63 0.98 1.17 3.57e-43
1.69 0.98 1.17 3.57e-43
1.71 0.98 1.17 3.57e-43
1.76 0.98 1.17 3.57e-43
1.8 0.98 1.17 3.57e-43
1.87 0.98 1.17 3.57e-43
1.91 0.98 1.17 3.57e-43
1.97 0.98 1.17 3.57e-43
2.02 0.98 1.17 3.57e-43
2.07 0.98 1.17 3.57e-43
2.1 0.98 1.17 3.57e-43
2.15 0.98 1.17 3.57e-43
2.19 0.98 1.17 3.57e-43
2.24 0.98 1.17 3.57e-43
2.28 0.98 1.17 3.57e-43
2.32 0.98 1.17 3.57e-43
2.36 0.98 1.17 3.57e-43
2.41 0.98 1.17 3.57e-43
2.45 0.98 1.17 3.57e-43
2.52 0.98 1.17 3.57e-43
2.55 0.98 1.17 3.57e-43
2.59 0.98 1.17 3.57e-43
2.63 0.98 1.04 9.1477e-41
2.69 0.98 1.09 9.1477e-41
2.75 0.98 1.12 9.1477e-41
2.79 0.98 1.13 9.1477e-41
2.83 0.98 1.1 9.1477e-41
2.85 0.98 1.04 9.1477e-41
2.88 0.98 0.96 9.1477e-41
2.9 0.98 0.86 9.1477e-41
2.92 0.98 0.78 9.1477e-41
1.3 1.05 1.21 9.1477e-41
1.34 1.05 1.21 3.57e-43
1.39 1.05 1.21 3.57e-43
1.44 1.05 1.21 3.57e-43
1.42 1.05 1.21 3.57e-43
1.49 1.05 1.21 3.57e-43
1.59 1.05 1.21 3.57e-43
1.63 1.05 1.21 3.57e-43
1.69 1.05 1.21 3.57e-43
1.71 1.05 1.21 3.57e-43
1.76 1.05 1.21 3.57e-43
1.8 1.05 1.21 3.57e-43
1.87 1.05 1.21 3.57e-43
1.91 1.05 1.21 3.57e-43
1.97 1.05 1.21 3.57e-43
2.02 1.05 1.21 3.57e-43
2.07 1.05 1.21 3.57e-43
2.1 1.05 1.08 9.1477e-41
2.22 1.05 1.08 3.57e-43
2.19 1.05 1.08 3.57e-43
2.24 1.05 1.08 3.57e-43
2.28 1.05 1.08 3.57e-43
2.32 1.05 1.08 3.57e-43
2.36 1.05 1.08 3.57e-43
2.41 1.05 1.08 3.57e-43
2.45 1.05 1.08 3.57e-43
2.52 1.05 1.08 3.57e-43
2.55 1.05 1.08 3.57e-43
2.59 1.05 1.04 9.1477e-41
2.68 1.05 1.17 9.1477e-41
2.72 1.05 1.16 9.1477e-41
2.76 1.05 1.16 9.1477e-41
2.8 1.05 1.16 9.1477e-41
2.83 1.05 1.12 9.1477e-41
2.86 1.05 1.06 9.1477e-41
2.88 1.05 0.96 9.1477e-41
2.9 1.05 0.86 9.1477e-41
2.92 1.05 0.77 9.1477e-41
2.89 1.05 0.47 9.1477e-41
1.28 1.12 1.26 9.1477e-41
1.34 1.12 1.26 3.57e-43
1.34 1.12 1.26 3.57e-43
1.39 1.12 1.26 3.57e-43
1.44 1.12 1.26 3.57e-43
1.42 1.12 1.26 3.57e-43
1.49 1.12 1.26 3.57e-43
1.59 1.12 1.26 3.57e-43
1.63 1.12 1.26 3.57e-43
1.69 1.12 1.26 3.57e-43
1.71 1.12 1.26 3.57e-43
1.76 1.12 1.26 3.57e-43
1.8 1.12 1.26 3.57e-43
1.87 1.12 1.26 3.57e-43
1.91 1.12 1.26 3.57e-43
1.97 1.12 1.26 3.57e-43
2.02 1.12 1.26 3.57e-43
2.07 1.12 1.26 3.57e-43
2.1 1.12 1.26 3.57e-43
2.22 1.12 1.26 3.57e-43
2.19 1.12 1.26 3.57e-43
2.24 1.12 1.26 3.57e-43
2.28 1.12 1.26 3.57e-43
2.32 1.12 1.26 3.57e-43
2.36 1.12 1.26 3.57e-43
2.41 1.12 1.26 3.57e-43
2.45 1.12 1.26 3.57e-43
2.52 1.12 1.26 3.57e-43
2.55 1.12 1.26 3.57e-43
2.59 1.12 1.04 9.1477e-41
2.69 1.12 1.22 9.1477e-41
2.73 1.12 1.21 9.1477e-41
2.78 1.12 1.23 9.1477e-41
2.81 1.12 1.2 9.1477e-41
2.84 1.12 1.14 9.1477e-41
2.84 1.12 1.01 9.1477e-41
2.88 1.12 0.96 9.1477e-41
2.89 1.12 0.84 9.1477e-41
2.91 1.12 0.75 9.1477e-41
1.32 1.19 1.32 9.1477e-41
1.39 1.19 1.32 3.57e-43
1.34 1.19 1.32 3.57e-43
1.39 1.19 1.32 3.57e-43
1.44 1.19 1.32 3.57e-43
1.42 1.19 1.32 3.57e-43
1.49 1.19 1.32 3.57e-43
1.59 1.19 1.32 3.57e-43
1.63 1.19 1.32 3.57e-43
1.69 1.19 1.32 3.57e-43
1.71 1.19 1.32 3.57e-43
1.76 1.19 1.32 3.57e-43
1.8 1.19 1.32 3.57e-43
1.87 1.19 1.32 3.57e-43
1.91 1.19 1.32 3.57e-43
1.97 1.19 1.32 3.57e-43
2.02 1.19 1.32 3.57e-43
2.07 1.19 1.32 3.57e-43
2.1 1.19 1.32 3.57e-43
2.22 1.19 1.32 3.57e-43
2.19 1.19 1.32 3.57e-43
2.24 1.19 1.32 3.57e-43
2.28 1.19 1.32 3.57e-43
2.32 1.19 1.32 3.57e-43
2.36 1.19 1.32 3.57e-43
2.41 1.19 1.32 3.57e-43
2.45 1.19 1.32 3.57e-43
2.52 1.19 1.32 3.57e-43
2.55 1.19 1.07 9.1477e-41
2.66 1.19 1.26 9.1477e-41
2.71 1.19 1.27 9.1477e-41
2.75 1.19 1.29 9.1477e-41
2.79 1.19 1.27 9.1477e-41
2.82 1.19 1.21 9.1477e-41
2.85 1.19 1.17 9.1477e-41
2.85 1.19 1.02 9.1477e-41
2.88 1.19 0.96 9.1477e-41
2.89 1.19 0.85 9.1477e-41
2.91 1.19 0.73 9.1477e-41
2.91 1.19 0.52 9.1477e-41
1.32 1.26 1.4 9.1477e-41
1.35 1.26 1.4 3.57e-43
1.39 1.26 1.4 3.57e-43
1.34 1.26 1.18 9.1477e-41
1.4 1.26 1.19 9.1477e-41
1.45 1.26 1.19 3.57e-43
1.42 1.26 1.19 3.57e-43
1.49 1.26 1.19 3.57e-43
1.59 1.26 1.19 3.57e-43
1.63 1.26 1.19 3.57e-43
1.69 1.26 1.19 3.57e-43
1.71 1.26 1.19 3.57e-43
1.76 1.26 1.19 3.57e-43
1.8 1.26 1.19 3.57e-43
1.87 1.26 1.19 3.57e-43
1.91 1.26 1.19 3.57e-43
1.97 1.26 1.19 3.57e-43
2.02 1.26 1.19 3.57e-43
2.07 1.26 1.19 3.57e-43
2.1 1.26 1.19 3.57e-43
2.22 1.26 1.19 3.57e-43
2.19 1.26 1.19 3.57e-43
2.24 1.26 1.19 3.57e-43
2.28 1.26 1.19 3.57e-43
2.32 1.26 1.19 3.57e-43
2.36 1.26 1.19 3.57e-43
2.41 1.26 1.19 3.57e-43
2.45 1.26 1.19 3.57e-43
2.52 1.26 1.19 3.57e-43
2.55 1.26 1.19 3.57e-43
2.66 1.26 1.26 9.1477e-41
2.73 1.26 1.35 9.1477e-41
2.77 1.26 1.34 9.1477e-41
2.8 1.26 1.3 9.1477e-41
2.83 1.26 1.27 9.1477e-41
2.83 1.26 1.1 9.1477e-41
2.85 1.26 1.02 9.1477e-41
2.88 1.26 0.97 9.1477e-41
2.9 1.26 0.87 9.1477e-41
2.9 1.26 0.71 9.1477e-41
2.9 1.26 0.51 9.1477e-41
1.12 1.33 1.26 9.1477e-41
1.31 1.33 1.46 9.1477e-41
1.35 1.33 1.46 3.57e-43
1.35 1.33 1.46 3.57e-43
1.39 1.33 1.46 3.57e-43
1.34 1.33 1.46 3.57e-43
1.4 1.33 1.19 9.1477e-41
1.45 1.33 1.19 3.57e-43
1.42 1.33 1.19 3.57e-43
1.49 1.33 1.19 3.57e-43
1.59 1.33 1.16 9.1477e-41
1.66 1.33 1.19 9.1477e-41
1.71 1.33 1.19 9.1477e-41
1.76 1.33 1.2 9.1477e-41
1.81 1.33 1.2 3.57e-43
1.8 1.33 1.2 3.57e-43
1.87 1.33 1.2 3.57e-43
1.91 1.33 1.2 3.57e-43
1.97 1.33 1.2 3.57e-43
2.02 1.33 1.2 3.57e-43
2.07 1.33 1.2 3.57e-43
2.1 1.33 1.2 3.57e-43
2.22 1.33 1.26 9.1477e-41
2.24 1.33 1.19 9.1477e-41
2.29 1.33 1.21 9.1477e-41
2.34 1.33 1.22 9.1477e-41
2.38 1.33 1.21 9.1477e-41
2.42 1.33 1.21 9.1477e-41
2.47 1.33 1.21 9.1477e-41
2.51 1.33 1.19 9.1477e-41
2.55 1.33 1.17 9.1477e-41
2.59 1.33 1.18 9.1477e-41
2.7 1.33 1.38 9.1477e-41
2.75 1.33 1.4 9.1477e-41
2.78 1.33 1.37 9.1477e-41
2.81 1.33 1.37 3.57e-43
2.83 1.33 1.27 9.1477e-41
2.84 1.33 1.14 9.1477e-41
2.85 1.33 1.03 9.1477e-41
2.88 1.33 0.98 9.1477e-41
2.9 1.33 0.87 9.1477e-41
2.9 1.33 0.7 9.1477e-41
2.89 1.33 0.47 9.1477e-41
1.34 1.4 1.51 9.1477e-41
1.38 1.4 1.51 3.57e-43
1.35 1.4 1.51 3.57e-43
1.39 1.4 1.51 3.57e-43
1.34 1.4 1.18 9.1477e-41
1.32 1.4 1.18 3.57e-43
1.45 1.4 1.18 3.57e-43
1.42 1.4 1.18 3.57e-43
1.49 1.4 1.18 3.57e-43
1.59 1.4 1.18 3.57e-43
1.66 1.4 1.18 3.57e-43
1.71 1.4 1.18 3.57e-43
1.76 1.4 1.2 9.1477e-41
1.4 1.4 1.2 3.57e-43
1.8 1.4 1.2 3.57e-43
1.87 1.4 1.2 3.57e-43
1.91 1.4 1.09 9.1477e-41
1.98 1.4 1.14 9.1477e-41
2.03 1.4 1.13 9.1477e-41
2.07 1.4 1.13 3.57e-43
2.1 1.4 1.13 3.57e-43
2.22 1.4 1.13 3.57e-43
2.24 1.4 1.13 3.57e-43
2.29 1.4 1.21 9.1477e-41
2.27 1.4 1.21 3.57e-43
2.38 1.4 1.21 3.57e-43
2.42 1.4 1.21 3.57e-43
2.47 1.4 1.21 3.57e-43
2.51 1.4 1.21 3.57e-43
2.55 1.4 1.21 3.57e-43
2.59 1.4 1.18 9.1477e-41
2.73 1.4 1.46 9.1477e-41
2.76 1.4 1.44 9.1477e-41
2.79 1.4 1.41 9.1477e-41
2.82 1.4 1.41 3.57e-43
2.83 1.4 1.27 9.1477e-41
2.84 1.4 1.15 9.1477e-41
2.86 1.4 1.05 9.1477e-41
2.92 1.4 1.12 9.1477e-41
2.99 1.4 1.12 3.57e-43
2.9 1.4 0.7 9.1477e-41
1.57 1.47 1.63 3.57e-43
1.28 1.47 1.09 9.1477e-41
1.32 1.47 1.09 3.57e-43
1.45 1.47 1.09 3.57e-43
1.42 1.47 1.04 9.1477e-41
1.79 1.47 1.59 9.1477e-41
1.82 1.47 1.59 3.57e-43
1.66 1.47 1.59 3.57e-43
1.71 1.47 1.59 3.57e-43
1.76 1.47 1.59 3.57e-43
1.4 1.47 1.59 3.57e-43
1.8 1.47 1.59 3.57e-43
1.87 1.47 1.59 3.57e-43
1.91 1.47 1.59 3.57e-43
1.98 1.47 1.59 3.57e-43
2.03 1.47 1.13 9.1477e-41
2.06 1.47 1.13 3.57e-43
2.1 1.47 1.13 3.57e-43
2.22 1.47 1.13 3.57e-43
2.24 1.47 1.13 3.57e-43
2.29 1.47 1.13 3.57e-43
2.27 1.47 1.13 3.57e-43
2.38 1.47 1.21 9.1477e-41
2.45 1.47 1.26 9.1477e-41
2.48 1.47 1.25 9.1477e-41
2.53 1.47 1.25 3.57e-43
2.55 1.47 1.17 9.1477e-41
2.71 1.47 1.52 9.1477e-41
2.74 1.47 1.52 9.1477e-41
2.77 1.47 1.48 9.1477e-41
2.8 1.47 1.48 3.57e-43
2.82 1.47 1.48 3.57e-43
2.83 1.47 1.48 3.57e-43
2.84 1.47 1.15 9.1477e-41
2.85 1.47 1.04 9.1477e-41
2.89 1.47 1 9.1477e-41
2.91 1.47 1 3.57e-43
2.9 1.47 1 3.57e-43
1.35 1.54 1.6 9.1477e-41
1.4 1.54 1.6 9.1477e-41
1.46 1.54 1.62 9.1477e-41
1.52 1.54 1.63 9.1477e-41
1.57 1.54 1.63 9.1477e-41
1.62 1.54 1.63 9.1477e-41
1.67 1.54 1.64 9.1477e-41
1.71 1.54 1.63 9.1477e-41
1.77 1.54 1.64 9.1477e-41
1.81 1.54 1.63 9.1477e-41
1.86 1.54 1.63 9.1477e-41
1.9 1.54 1.62 9.1477e-41
1.95 1.54 1.64 9.1477e-41
1.99 1.54 1.64 9.1477e-41
2.04 1.54 1.64 9.1477e-41
2.08 1.54 1.63 9.1477e-41
2.12 1.54 1.63 9.1477e-41
2.16 1.54 1.62 9.1477e-41
2.21 1.54 1.62 9.1477e-41
2.24 1.54 1.61 9.1477e-41
2.28 1.54 1.61 3.57e-43
2.1 1.54 1.61 3.57e-43
2.22 1.54 1.61 3.57e-43
2.24 1.54 1.19 9.1477e-41
2.41 1.54 1.51 9.1477e-41
2.48 1.54 1.56 9.1477e-41
2.52 1.54 1.58 9.1477e-41
2.56 1.54 1.57 9.1477e-41
2.6 1.54 1.56 9.1477e-41
2.63 1.54 1.56 3.57e-43
2.55 1.54 1.17 9.1477e-41
2.72 1.54 1.57 9.1477e-41
2.75 1.54 1.53 9.1477e-41
2.77 1.54 1.53 3.57e-43
2.8 1.54 1.53 3.57e-43
2.82 1.54 1.53 3.57e-43
2.83 1.54 1.53 3.57e-43
2.84 1.54 1.15 9.1477e-41
2.86 1.54 1.06 9.1477e-41
2.89 1.54 1.01 9.1477e-41
2.91 1.54 0.91 9.1477e-41
2.91 1.54 0.73 9.1477e-41
2.91 1.54 0.56 9.1477e-41
1.37 1.61 1.64 9.1477e-41
1.43 1.61 1.65 9.1477e-41
1.49 1.61 1.67 9.1477e-41
1.54 1.61 1.66 9.1477e-41
1.59 1.61 1.67 9.1477e-41
1.64 1.61 1.68 9.1477e-41
1.69 1.61 1.67 9.1477e-41
1.74 1.61 1.68 9.1477e-41
1.78 1.61 1.67 9.1477e-41
1.83 1.61 1.67 9.1477e-41
1.88 1.61 1.68 9.1477e-41
1.92 1.61 1.68 9.1477e-41
1.97 1.61 1.68 9.1477e-41
2.01 1.61 1.67 9.1477e-41
2.06 1.61 1.67 9.1477e-41
2.09 1.61 1.66 9.1477e-41
2.14 1.61 1.67 9.1477e-41
2.18 1.61 1.66 9.1477e-41
2.22 1.61 1.66 9.1477e-41
2.27 1.61 1.66 9.1477e-41
2.31 1.61 1.67 9.1477e-41
2.34 1.61 1.65 9.1477e-41
2.39 1.61 1.65 9.1477e-41
2.43 1.61 1.66 9.1477e-41
2.47 1.61 1.65 9.1477e-41
2.5 1.61 1.64 9.1477e-41
2.54 1.61 1.63 9.1477e-41
2.58 1.61 1.63 9.1477e-41
2.62 1.61 1.62 9.1477e-41
2.65 1.61 1.6 9.1477e-41
2.69 1.61 1.6 9.1477e-41
2.73 1.61 1.61 9.1477e-41
2.76 1.61 1.57 9.1477e-41
2.78 1.61 1.57 3.57e-43
2.8 1.61 1.57 3.57e-43
2.82 1.61 1.57 3.57e-43
2.83 1.61 1.57 3.57e-43
2.84 1.61 1.15 9.1477e-41
2.86 1.61 1.06 9.1477e-41
2.89 1.61 1.02 9.1477e-41
2.91 1.61 0.91 9.1477e-41
2.91 1.61 0.74 9.1477e-41
2.91 1.61 0.56 9.1477e-41
1.39 1.68 1.67 9.1477e-41
1.45 1.68 1.68 9.1477e-41
1.51 1.68 1.69 9.1477e-41
1.56 1.68 1.69 9.1477e-41
1.61 1.68 1.71 9.1477e-41
1.66 1.68 1.7 9.1477e-41
1.71 1.68 1.7 9.1477e-41
1.76 1.68 1.71 9.1477e-41
1.8 1.68 1.7 9.1477e-41
1.85 1.68 1.71 9.1477e-41
1.89 1.68 1.7 9.1477e-41
1.94 1.68 1.7 9.1477e-41
1.98 1.68 1.7 9.1477e-41
2.03 1.68 1.71 9.1477e-41
2.07 1.68 1.7 9.1477e-41
2.11 1.68 1.7 9.1477e-41
2.16 1.68 1.7 9.1477e-41
2.2 1.68 1.7 9.1477e-41
2.24 1.68 1.7 9.1477e-41
2.28 1.68 1.69 9.1477e-41
2.32 1.68 1.69 9.1477e-41
2.36 1.68 1.69 9.1477e-41
2.4 1.68 1.68 9.1477e-41
2.44 1.68 1.67 9.1477e-41
2.48 1.68 1.68 9.1477e-41
2.52 1.68 1.67 9.1477e-41
2.56 1.68 1.67 9.1477e-41
2.59 1.68 1.66 9.1477e-41
2.63 1.68 1.66 9.1477e-41
2.67 1.68 1.64 9.1477e-41
2.71 1.68 1.65 9.1477e-41
2.74 1.68 1.63 9.1477e-41
2.76 1.68 1.58 9.1477e-41
2.8 1.68 1.58 3.57e-43
2.8 1.68 1.58 3.57e-43
2.82 1.68 1.58 3.57e-43
2.83 1.68 1.58 3.57e-43
2.84 1.68 1.15 9.1477e-41
2.86 1.68 1.08 9.1477e-41
2.89 1.68 1.03 9.1477e-41
2.9 1.68 0.9 9.1477e-41
2.91 1.68 0.73 9.1477e-41
2.91 1.68 0.56 9.1477e-41
1.37 1.75 1.71 9.1477e-41
1.42 1.75 1.7 9.1477e-41
1.47 1.75 1.71 9.1477e-41
1.52 1.75 1.72 9.1477e-41
1.58 1.75 1.72 9.1477e-41
1.63 1.75 1.73 9.1477e-41
1.68 1.75 1.73 9.1477e-41
1.73 1.75 1.73 9.1477e-41
1.78 1.75 1.74 9.1477e-41
1.82 1.75 1.73 9.1477e-41
1.86 1.75 1.73 9.1477e-41
1.91 1.75 1.73 9.1477e-41
1.95 1.75 1.73 9.1477e-41
1.99 1.75 1.72 9.1477e-41
2.04 1.75 1.74 9.1477e-41
2.08 1.75 1.73 9.1477e-41
2.12 1.75 1.72 9.1477e-41
2.17 1.75 1.73 9.1477e-41
2.21 1.75 1.72 9.1477e-41
2.25 1.75 1.72 9.1477e-41
2.3 1.75 1.73 9.1477e-41
2.33 1.75 1.72 9.1477e-41
2.37 1.75 1.71 9.1477e-41
2.41 1.75 1.71 9.1477e-41
2.45 1.75 1.7 9.1477e-41
2.49 1.75 1.7 9.1477e-41
2.52 1.75 1.68 9.1477e-41
2.57 1.75 1.7 9.1477e-41
2.6 1.75 1.68 9.1477e-41
2.64 1.75 1.68 9.1477e-41
2.68 1.75 1.67 9.1477e-41
2.71 1.75 1.67 9.1477e-41
2.75 1.75 1.64 9.1477e-41
2.77 1.75 1.64 3.57e-43
2.8 1.75 1.64 3.57e-43
2.8 1.75 1.64 3.57e-43
2.82 1.75 1.64 3.57e-43
2.83 1.75 1.27 9.1477e-41
2.83 1.75 1.11 9.1477e-41
2.86 1.75 1.08 9.1477e-41
2.89 1.75 1.03 9.1477e-41
2.91 1.75 0.92 9.1477e-41
2.91 1.75 0.74 9.1477e-41
2.92 1.75 0.57 9.1477e-41
1.38 1.82 1.72 9.1477e-41
1.42 1.82 1.71 9.1477e-41
1.49 1.82 1.74 9.1477e-41
1.54 1.82 1.73 9.1477e-41
1.59 1.82 1.74 9.1477e-41
1.64 1.82 1.74 9.1477e-41
1.69 1.82 1.75 9.1477e-41
1.73 1.82 1.74 9.1477e-41
1.79 1.82 1.75 9.1477e-41
1.83 1.82 1.75 9.1477e-41
1.87 1.82 1.75 9.1477e-41
1.92 1.82 1.76 9.1477e-41
1.96 1.82 1.75 9.1477e-41
2.01 1.82 1.75 9.1477e-41
2.05 1.82 1.75 9.1477e-41
2.09 1.82 1.75 9.1477e-41
2.14 1.82 1.75 9.1477e-41
2.18 1.82 1.75 9.1477e-41
2.22 1.82 1.74 9.1477e-41
2.26 1.82 1.74 9.1477e-41
2.3 1.82 1.74 9.1477e-41
2.35 1.82 1.75 9.1477e-41
2.38 1.82 1.74 9.1477e-41
2.42 1.82 1.73 9.1477e-41
2.46 1.82 1.73 9.1477e-41
2.5 1.82 1.73 9.1477e-41
2.54 1.82 1.72 9.1477e-41
2.57 1.82 1.71 9.1477e-41
2.61 1.82 1.69 9.1477e-41
2.65 1.82 1.7 9.1477e-41
2.69 1.82 1.7 9.1477e-41
2.72 1.82 1.68 9.1477e-41
2.75 1.82 1.65 9.1477e-41
2.77 1.82 1.65 3.57e-43
2.8 1.82 1.65 3.57e-43
2.8 1.82 1.65 3.57e-43
2.82 1.82 1.65 3.57e-43
2.83 1.82 1.27 9.1477e-41
2.84 1.82 1.14 9.1477e-41
2.87 1.82 1.11 9.1477e-41
2.9 1.82 1.04 9.1477e-41
2.91 1.82 0.91 9.1477e-41
2.91 1.82 0.75 9.1477e-41
2.92 1.82 0.57 9.1477e-41
1.39 1.89 1.74 9.1477e-41
1.44 1.89 1.74 9.1477e-41
1.5 1.89 1.76 9.1477e-41
1.55 1.89 1.75 9.1477e-41
1.6 1.89 1.76 9.1477e-41
1.65 1.89 1.76 9.1477e-41
1.7 1.89 1.77 9.1477e-41
1.74 1.89 1.76 9.1477e-41
1.79 1.89 1.76 9.1477e-41
1.84 1.89 1.77 9.1477e-41
1.88 1.89 1.77 9.1477e-41
1.93 1.89 1.77 9.1477e-41
1.97 1.89 1.76 9.1477e-41
2.02 1.89 1.77 9.1477e-41
2.06 1.89 1.77 9.1477e-41
2.1 1.89 1.76 9.1477e-41
2.15 1.89 1.76 9.1477e-41
2.19 1.89 1.77 9.1477e-41
2.23 1.89 1.77 9.1477e-41
2.27 1.89 1.76 9.1477e-41
2.31 1.89 1.75 9.1477e-41
2.35 1.89 1.76 9.1477e-41
2.39 1.89 1.75 9.1477e-41
2.43 1.89 1.75 9.1477e-41
2.47 1.89 1.75 9.1477e-41
2.51 1.89 1.74 9.1477e-41
2.54 1.89 1.73 9.1477e-41
2.58 1.89 1.73 9.1477e-41
2.62 1.89 1.73 9.1477e-41
2.65 1.89 1.71 9.1477e-41
2.69 1.89 1.71 9.1477e-41
2.72 1.89 1.68 9.1477e-41
2.75 1.89 1.65 9.1477e-41
2.78 1.89 1.65 3.57e-43
2.8 1.89 1.65 3.57e-43
2.8 1.89 1.65 3.57e-43
2.82 1.89 1.65 3.57e-43
2.83 1.89 1.27 9.1477e-41
2.84 1.89 1.15 9.1477e-41
2.87 1.89 1.11 9.1477e-41
2.89 1.89 1.03 9.1477e-41
2.91 1.89 0.92 9.1477e-41
2.91 1.89 0.75 9.1477e-41
2.92 1.89 0.59 9.1477e-41
1.39 1.96 1.74 9.1477e-41
1.44 1.96 1.75 9.1477e-41
1.51 1.96 1.77 9.1477e-41
1.56 1.96 1.78 9.1477e-41
1.61 1.96 1.77 9.1477e-41
1.66 1.96 1.77 9.1477e-41
1.71 1.96 1.78 9.1477e-41
1.75 1.96 1.77 9.1477e-41
1.81 1.96 1.79 9.1477e-41
1.85 1.96 1.78 9.1477e-41
1.89 1.96 1.78 9.1477e-41
1.93 1.96 1.77 9.1477e-41
1.98 1.96 1.77 9.1477e-41
2.02 1.96 1.78 9.1477e-41
2.06 1.96 1.77 9.1477e-41
2.11 1.96 1.77 9.1477e-41
2.15 1.96 1.77 9.1477e-41
2.2 1.96 1.78 9.1477e-41
2.24 1.96 1.78 9.1477e-41
2.27 1.96 1.77 9.1477e-41
2.32 1.96 1.77 9.1477e-41
2.36 1.96 1.77 9.1477e-41
2.4 1.96 1.77 9.1477e-41
2.43 1.96 1.76 9.1477e-41
2.48 1.96 1.77 9.1477e-41
2.51 1.96 1.75 9.1477e-41
2.55 1.96 1.76 9.1477e-41
2.59 1.96 1.74 9.1477e-41
2.62 1.96 1.74 9.1477e-41
2.66 1.96 1.73 9.1477e-41
2.7 1.96 1.73 9.1477e-41
2.73 1.96 1.71 9.1477e-41
2.75 1.96 1.66 9.1477e-41
2.78 1.96 1.66 3.57e-43
2.8 1.96 1.66 3.57e-43
2.8 1.96 1.66 3.57e-43
2.82 1.96 1.66 3.57e-43
2.83 1.96 1.27 9.1477e-41
2.85 1.96 1.18 9.1477e-41
2.88 1.96 1.14 9.1477e-41
2.9 1.96 1.04 9.1477e-41
2.91 1.96 0.93 9.1477e-41
2.91 1.96 0.75 9.1477e-41
2.93 1.96 0.62 9.1477e-41
1.4 2.03 1.75 9.1477e-41
1.46 2.03 1.77 9.1477e-41
1.52 2.03 1.78 9.1477e-41
1.57 2.03 1.78 9.1477e-41
1.62 2.03 1.8 9.1477e-41
1.67 2.03 1.8 9.1477e-41
1.72 2.03 1.8 9.1477e-41
1.76 2.03 1.79 9.1477e-41
1.81 2.03 1.79 9.1477e-41
1.86 2.03 1.8 9.1477e-41
1.89 2.03 1.78 9.1477e-41
1.94 2.03 1.79 9.1477e-41
1.99 2.03 1.79 9.1477e-41
2.03 2.03 1.79 9.1477e-41
2.07 2.03 1.79 9.1477e-41
2.12 2.03 1.79 9.1477e-41
2.16 2.03 1.79 9.1477e-41
2.2 2.03 1.78 9.1477e-41
2.24 2.03 1.78 9.1477e-41
2.28 2.03 1.79 9.1477e-41
2.32 2.03 1.78 9.1477e-41
2.36 2.03 1.78 9.1477e-41
2.4 2.03 1.78 9.1477e-41
2.44 2.03 1.77 9.1477e-41
2.48 2.03 1.77 9.1477e-41
2.52 2.03 1.77 9.1477e-41
2.55 2.03 1.76 9.1477e-41
2.59 2.03 1.76 9.1477e-41
2.63 2.03 1.75 9.1477e-41
2.67 2.03 1.75 9.1477e-41
2.7 2.03 1.73 9.1477e-41
2.73 2.03 1.71 9.1477e-41
2.76 2.03 1.67 9.1477e-41
2.78 2.03 1.67 3.57e-43
2.8 2.03 1.67 3.57e-43
2.8 2.03 1.67 3.57e-43
2.82 2.03 1.37 9.1477e-41
2.84 2.03 1.28 9.1477e-41
2.86 2.03 1.22 9.1477e-41
2.88 2.03 1.14 9.1477e-41
2.9 2.03 1.05 9.1477e-41
2.91 2.03 0.92 9.1477e-41
2.91 2.03 0.75 9.1477e-41
2.91 2.03 0.54 9.1477e-41
1.41 2.1 1.77 9.1477e-41
1.47 2.1 1.79 9.1477e-41
1.53 2.1 1.8 9.1477e-41
1.57 2.1 1.79 9.1477e-41
1.62 2.1 1.8 9.1477e-41
1.67 2.1 1.8 9.1477e-41
1.71 2.1 1.79 9.1477e-41
1.77 2.1 1.81 9.1477e-41
1.81 2.1 1.8 9.1477e-41
1.87 2.1 1.81 9.1477e-41
1.9 2.1 1.8 9.1477e-41
1.95 2.1 1.8 9.1477e-41
2 2.1 1.81 9.1477e-41
2.04 2.1 1.81 9.1477e-41
2.08 2.1 1.81 9.1477e-41
2.12 2.1 1.8 9.1477e-41
2.16 2.1 1.8 9.1477e-41
2.21 2.1 1.8 9.1477e-41
2.25 2.1 1.8 9.1477e-41
2.29 2.1 1.8 9.1477e-41
2.32 2.1 1.79 9.1477e-41
2.37 2.1 1.8 9.1477e-41
2.4 2.1 1.79 9.1477e-41
2.44 2.1 1.78 9.1477e-41
2.48 2.1 1.79 9.1477e-41
2.52 2.1 1.78 9.1477e-41
2.56 2.1 1.79 9.1477e-41
2.59 2.1 1.76 9.1477e-41
2.63 2.1 1.76 9.1477e-41
2.67 2.1 1.76 9.1477e-41
2.7 2.1 1.74 9.1477e-41
2.73 2.1 1.71 9.1477e-41
2.76 2.1 1.67 9.1477e-41
2.78 2.1 1.61 9.1477e-41
2.79 2.1 1.55 9.1477e-41
2.81 2.1 1.49 9.1477e-41
2.83 2.1 1.42 9.1477e-41
2.85 2.1 1.33 9.1477e-41
2.87 2.1 1.25 9.1477e-41
2.88 2.1 1.15 9.1477e-41
2.9 2.1 1.06 9.1477e-41
2.91 2.1 0.92 9.1477e-41
2.91 2.1 0.75 9.1477e-41
2.91 2.1 0.55 9.1477e-41
1.42 2.17 1.78 9.1477e-41
1.48 2.17 1.8 9.1477e-41
1.53 2.17 1.81 9.1477e-41
1.58 2.17 1.8 9.1477e-41
1.63 2.17 1.8 9.1477e-41
1.68 2.17 1.81 9.1477e-41
1.73 2.17 1.81 9.1477e-41
1.77 2.17 1.8 9.1477e-41
1.82 2.17 1.81 9.1477e-41
1.87 2.17 1.81 9.1477e-41
1.91 2.17 1.81 9.1477e-41
1.96 2.17 1.82 9.1477e-41
2 2.17 1.82 9.1477e-41
2.04 2.17 1.81 9.1477e-41
2.08 2.17 1.81 9.1477e-41
2.12 2.17 1.81 9.1477e-41
2.17 2.17 1.81 9.1477e-41
2.21 2.17 1.81 9.1477e-41
2.25 2.17 1.81 9.1477e-41
2.29 2.17 1.81 9.1477e-41
2.33 2.17 1.81 9.1477e-41
2.37 2.17 1.8 9.1477e-41
2.41 2.17 1.8 9.1477e-41
2.45 2.17 1.79 9.1477e-41
2.49 2.17 1.79 9.1477e-41
2.53 2.17 1.79 9.1477e-41
2.56 2.17 1.79 9.1477e-41
2.6 2.17 1.77 9.1477e-41
2.63 2.17 1.77 9.1477e-41
2.67 2.17 1.77 9.1477e-41
2.7 2.17 1.74 9.1477e-41
2.73 2.17 1.71 9.1477e-41
2.76 2.17 1.68 9.1477e-41
2.78 2.17 1.62 9.1477e-41
2.8 2.17 1.55 9.1477e-41
2.81 2.17 1.49 9.1477e-41
2.84 2.17 1.43 9.1477e-41
2.85 2.17 1.34 9.1477e-41
2.87 2.17 1.26 9.1477e-41
2.89 2.17 1.16 9.1477e-41
2.9 2.17 1.05 9.1477e-41
2.91 2.17 0.92 9.1477e-41
2.91 2.17 0.75 9.1477e-41
2.92 2.17 0.57 9.1477e-41
1.42 2.24 1.79 9.1477e-41
1.48 2.24 1.8 9.1477e-41
1.54 2.24 1.81 9.1477e-41
1.58 2.24 1.81 9.1477e-41
1.63 2.24 1.81 9.1477e-41
1.68 2.24 1.82 9.1477e-41
1.73 2.24 1.82 9.1477e-41
1.78 2.24 1.82 9.1477e-41
1.83 2.24 1.83 9.1477e-41
1.87 2.24 1.82 9.1477e-41
1.91 2.24 1.81 9.1477e-41
1.96 2.24 1.83 9.1477e-41
2.01 2.24 1.83 9.1477e-41
2.04 2.24 1.82 9.1477e-41
2.09 2.24 1.83 9.1477e-41
2.13 2.24 1.82 9.1477e-41
2.17 2.24 1.82 9.1477e-41
2.21 2.24 1.81 9.1477e-41
2.26 2.24 1.82 9.1477e-41
2.29 2.24 1.81 9.1477e-41
2.34 2.24 1.82 9.1477e-41
2.37 2.24 1.8 9.1477e-41
2.41 2.24 1.81 9.1477e-41
2.45 2.24 1.8 9.1477e-41
2.49 2.24 1.8 9.1477e-41
2.53 2.24 1.8 9.1477e-41
2.56 2.24 1.79 9.1477e-41
2.6 2.24 1.79 9.1477e-41
2.63 2.24 1.77 9.1477e-41
2.68 2.24 1.78 9.1477e-41
2.71 2.24 1.75 9.1477e-41
2.73 2.24 1.72 9.1477e-41
2.76 2.24 1.68 9.1477e-41
2.78 2.24 1.61 9.1477e-41
2.8 2.24 1.56 9.1477e-41
2.81 2.24 1.49 9.1477e-41
2.83 2.24 1.4 9.1477e-41
2.85 2.24 1.32 9.1477e-41
2.86 2.24 1.21 9.1477e-41
2.89 2.24 1.16 9.1477e-41
2.9 2.24 1.06 9.1477e-41
2.91 2.24 0.93 9.1477e-41
2.91 2.24 0.75 9.1477e-41
2.92 2.24 0.58 9.1477e-41
1.42 2.31 1.79 9.1477e-41
1.48 2.31 1.8 9.1477e-41
1.54 2.31 1.81 9.1477e-41
1.58 2.31 1.81 9.1477e-41
1.64 2.31 1.82 9.1477e-41
1.69 2.31 1.82 9.1477e-41
1.73 2.31 1.82 9.1477e-41
1.78 2.31 1.82 9.1477e-41
1.83 2.31 1.82 9.1477e-41
1.88 2.31 1.83 9.1477e-41
1.92 2.31 1.83 9.1477e-41
1.96 2.31 1.83 9.1477e-41
2.01 2.31 1.83 9.1477e-41
2.05 2.31 1.83 9.1477e-41
2.09 2.31 1.83 9.1477e-41
2.13 2.31 1.83 9.1477e-41
2.17 2.31 1.82 9.1477e-41
2.21 2.31 1.82 9.1477e-41
2.26 2.31 1.82 9.1477e-41
2.29 2.31 1.81 9.1477e-41
2.34 2.31 1.82 9.1477e-41
2.37 2.31 1.8 9.1477e-41
2.42 2.31 1.81 9.1477e-41
2.45 2.31 1.8 9.1477e-41
2.49 2.31 1.8 9.1477e-41
2.53 2.31 1.8 9.1477e-41
2.57 2.31 1.8 9.1477e-41
2.6 2.31 1.79 9.1477e-41
2.64 2.31 1.78 9.1477e-41
2.68 2.31 1.78 9.1477e-41
2.71 2.31 1.76 9.1477e-41
2.74 2.31 1.74 9.1477e-41
2.76 2.31 1.74 3.57e-43
2.78 2.31 1.74 3.57e-43
2.8 2.31 1.74 3.57e-43
2.81 2.31 1.74 3.57e-43
2.83 2.31 1.74 3.57e-43
2.85 2.31 1.74 3.57e-43
2.86 2.31 1.21 9.1477e-41
2.88 2.31 1.14 9.1477e-41
2.9 2.31 1.07 9.1477e-41
2.91 2.31 0.93 9.1477e-41
2.92 2.31 0.76 9.1477e-41
2.91 2.31 0.56 9.1477e-41
1.42 2.38 1.79 9.1477e-41
1.49 2.38 1.82 9.1477e-41
1.55 2.38 1.82 9.1477e-41
1.59 2.38 1.82 9.1477e-41
1.64 2.38 1.83 9.1477e-41
1.69 2.38 1.82 9.1477e-41
1.74 2.38 1.83 9.1477e-41
1.78 2.38 1.83 9.1477e-41
1.83 2.38 1.83 9.1477e-41
1.88 2.38 1.84 9.1477e-41
1.92 2.38 1.83 9.1477e-41
1.97 2.38 1.84 9.1477e-41
2.01 2.38 1.83 9.1477e-41
2.05 2.38 1.83 9.1477e-41
2.1 2.38 1.83 9.1477e-41
2.14 2.38 1.84 9.1477e-41
2.18 2.38 1.83 9.1477e-41
2.22 2.38 1.83 9.1477e-41
2.26 2.38 1.82 9.1477e-41
2.3 2.38 1.82 9.1477e-41
2.34 2.38 1.82 9.1477e-41
2.38 2.38 1.83 9.1477e-41
2.42 2.38 1.82 9.1477e-41
2.45 2.38 1.81 9.1477e-41
2.5 2.38 1.81 9.1477e-41
2.53 2.38 1.81 9.1477e-41
2.57 2.38 1.8 9.1477e-41
2.6 2.38 1.79 9.1477e-41
2.64 2.38 1.79 9.1477e-41
2.68 2.38 1.79 9.1477e-41
2.71 2.38 1.76 9.1477e-41
2.74 2.38 1.73 9.1477e-41
2.76 2.38 1.73 3.57e-43
2.78 2.38 1.73 3.57e-43
2.8 2.38 1.73 3.57e-43
2.81 2.38 1.73 3.57e-43
2.83 2.38 1.73 3.57e-43
2.85 2.38 1.73 3.57e-43
2.86 2.38 1.21 9.1477e-41
2.88 2.38 1.13 9.1477e-41
2.9 2.38 1.05 9.1477e-41
2.91 2.38 0.93 9.1477e-41
2.92 2.38 0.76 9.1477e-41
2.91 2.38 0.55 9.1477e-41
1.43 2.45 1.79 9.1477e-41
1.49 2.45 1.81 9.1477e-41
1.55 2.45 1.83 9.1477e-41
1.6 2.45 1.83 9.1477e-41
1.64 2.45 1.83 9.1477e-41
1.69 2.45 1.83 9.1477e-41
1.74 2.45 1.84 9.1477e-41
1.79 2.45 1.83 9.1477e-41
1.84 2.45 1.84 9.1477e-41
1.88 2.45 1.83 9.1477e-41
1.92 2.45 1.83 9.1477e-41
1.97 2.45 1.84 9.1477e-41
2.01 2.45 1.83 9.1477e-41
2.05 2.45 1.83 9.1477e-41
2.1 2.45 1.83 9.1477e-41
2.13 2.45 1.83 9.1477e-41
2.18 2.45 1.84 9.1477e-41
2.22 2.45 1.83 9.1477e-41
2.26 2.45 1.83 9.1477e-41
2.3 2.45 1.83 9.1477e-41
2.34 2.45 1.83 9.1477e-41
2.38 2.45 1.82 9.1477e-41
2.42 2.45 1.82 9.1477e-41
2.46 2.45 1.82 9.1477e-41
2.5 2.45 1.81 9.1477e-41
2.53 2.45 1.81 9.1477e-41
2.57 2.45 1.8 9.1477e-41
2.61 2.45 1.8 9.1477e-41
2.64 2.45 1.79 9.1477e-41
2.68 2.45 1.79 9.1477e-41
2.71 2.45 1.76 9.1477e-41
2.73 2.45 1.72 9.1477e-41
2.76 2.45 1.72 3.57e-43
2.78 2.45 1.72 3.57e-43
2.8 2.45 1.72 3.57e-43
2.81 2.45 1.72 3.57e-43
2.83 2.45 1.72 3.57e-43
2.85 2.45 1.72 3.57e-43
2.86 2.45 1.21 9.1477e-41
2.87 2.45 1.12 9.1477e-41
2.9 2.45 1.06 9.1477e-41
2.91 2.45 0.93 9.1477e-41
2.91 2.45 0.75 9.1477e-41
2.91 2.45 0.52 9.1477e-41
1.39 2.52 1.82 9.1477e-41
1.44 2.52 1.81 9.1477e-41
1.5 2.52 1.83 9.1477e-41
1.55 2.52 1.83 9.1477e-41
1.6 2.52 1.83 9.1477e-41
1.65 2.52 1.84 9.1477e-41
1.7 2.52 1.84 9.1477e-41
1.74 2.52 1.84 9.1477e-41
1.79 2.52 1.84 9.1477e-41
1.84 2.52 1.84 9.1477e-41
1.88 2.52 1.84 9.1477e-41
1.92 2.52 1.84 9.1477e-41
1.97 2.52 1.84 9.1477e-41
2.01 2.52 1.83 9.1477e-41
2.06 2.52 1.84 9.1477e-41
2.1 2.52 1.84 9.1477e-41
2.14 2.52 1.83 9.1477e-41
2.19 2.52 1.84 9.1477e-41
2.22 2.52 1.83 9.1477e-41
2.27 2.52 1.84 9.1477e-41
2.3 2.52 1.83 9.1477e-41
2.34 2.52 1.83 9.1477e-41
2.39 2.52 1.84 9.1477e-41
2.42 2.52 1.82 9.1477e-41
2.46 2.52 1.83 9.1477e-41
2.49 2.52 1.8 9.1477e-41
2.53 2.52 1.81 9.1477e-41
2.57 2.52 1.81 9.1477e-41
2.6 2.52 1.79 9.1477e-41
2.65 2.52 1.8 9.1477e-41
2.68 2.52 1.79 9.1477e-41
2.71 2.52 1.76 9.1477e-41
2.74 2.52 1.73 9.1477e-41
2.76 2.52 1.73 3.57e-43
2.78 2.52 1.73 3.57e-43
2.8 2.52 1.73 3.57e-43
2.81 2.52 1.73 3.57e-43
2.83 2.52 1.73 3.57e-43
2.85 2.52 1.73 3.57e-43
2.86 2.52 1.21 9.1477e-41
2.88 2.52 1.14 9.1477e-41
2.9 2.52 1.05 9.1477e-41
2.91 2.52 0.93 9.1477e-41
2.92 2.52 0.76 9.1477e-41
2.9 2.52 0.51 9.1477e-41
1.4 2.59 1.82 9.1477e-41
1.44 2.59 1.81 9.1477e-41
1.5 2.59 1.83 9.1477e-41
1.55 2.59 1.83 9.1477e-41
1.6 2.59 1.83 9.1477e-41
1.65 2.59 1.84 9.1477e-41
1.7 2.59 1.84 9.1477e-41
1.74 2.59 1.84 9.1477e-41
1.79 2.59 1.84 9.1477e-41
1.84 2.59 1.85 9.1477e-41
1.89 2.59 1.85 9.1477e-41
1.93 2.59 1.85 9.1477e-41
1.97 2.59 1.84 9.1477e-41
2.02 2.59 1.85 9.1477e-41
2.06 2.59 1.84 9.1477e-41
2.1 2.59 1.84 9.1477e-41
2.14 2.59 1.83 9.1477e-41
2.18 2.59 1.84 9.1477e-41
2.22 2.59 1.84 9.1477e-41
2.26 2.59 1.83 9.1477e-41
2.31 2.59 1.84 9.1477e-41
2.34 2.59 1.83 9.1477e-41
2.38 2.59 1.83 9.1477e-41
2.42 2.59 1.83 9.1477e-41
2.46 2.59 1.83 9.1477e-41
2.5 2.59 1.83 9.1477e-41
2.54 2.59 1.82 9.1477e-41
2.57 2.59 1.81 9.1477e-41
2.61 2.59 1.8 9.1477e-41
2.65 2.59 1.81 9.1477e-41
2.68 2.59 1.79 9.1477e-41
2.71 2.59 1.76 9.1477e-41
2.74 2.59 1.73 9.1477e-41
2.76 2.59 1.73 3.57e-43
2.78 2.59 1.73 3.57e-43
2.8 2.59 1.73 3.57e-43
2.81 2.59 1.73 3.57e-43
2.83 2.59 1.73 3.57e-43
2.85 2.59 1.73 3.57e-43
2.86 2.59 1.21 9.1477e-41
2.88 2.59 1.14 9.1477e-41
2.9 2.59 1.06 9.1477e-41
2.91 2.59 0.93 9.1477e-41
2.92 2.59 0.76 9.1477e-41
2.89 2.59 0.46 9.1477e-41
1.4 2.66 1.83 9.1477e-41
1.44 2.66 1.81 9.1477e-41
1.5 2.66 1.83 9.1477e-41
1.56 2.66 1.84 9.1477e-41
1.6 2.66 1.83 9.1477e-41
1.66 2.66 1.85 9.1477e-41
1.7 2.66 1.84 9.1477e-41
1.74 2.66 1.83 9.1477e-41
1.8 2.66 1.85 9.1477e-41
1.84 2.66 1.85 9.1477e-41
1.89 2.66 1.85 9.1477e-41
1.93 2.66 1.85 9.1477e-41
1.98 2.66 1.85 9.1477e-41
2.02 2.66 1.85 9.1477e-41
2.06 2.66 1.84 9.1477e-41
2.1 2.66 1.85 9.1477e-41
2.14 2.66 1.84 9.1477e-41
2.19 2.66 1.84 9.1477e-41
2.22 2.66 1.84 9.1477e-41
2.27 2.66 1.84 9.1477e-41
2.31 2.66 1.84 9.1477e-41
2.34 2.66 1.83 9.1477e-41
2.39 2.66 1.84 9.1477e-41
2.42 2.66 1.81 9.1477e-41
2.46 2.66 1.83 9.1477e-41
2.5 2.66 1.83 9.1477e-41
2.54 2.66 1.83 9.1477e-41
2.57 2.66 1.81 9.1477e-41
2.61 2.66 1.81 9.1477e-41
2.65 2.66 1.81 9.1477e-41
2.69 2.66 1.8 9.1477e-41
2.71 2.66 1.76 9.1477e-41
2.74 2.66 1.73 9.1477e-41
2.76 2.66 1.73 3.57e-43
2.78 2.66 1.73 3.57e-43
2.8 2.66 1.73 3.57e-43
2.81 2.66 1.73 3.57e-43
2.83 2.66 1.73 3.57e-43
2.85 2.66 1.73 3.57e-43
2.86 2.66 1.21 9.1477e-41
2.88 2.66 1.14 9.1477e-41
2.9 2.66 1.04 9.1477e-41
2.91 2.66 0.92 9.1477e-41
2.92 2.66 0.76 9.1477e-41
2.89 2.66 0.45 9.1477e-41
1.4 2.73 1.83 9.1477e-41
1.44 2.73 1.82 9.1477e-41
1.5 2.73 1.83 9.1477e-41
1.56 2.73 1.84 9.1477e-41
1.61 2.73 1.84 9.1477e-41
1.66 2.73 1.85 9.1477e-41
1.71 2.73 1.85 9.1477e-41
1.75 2.73 1.85 9.1477e-41
1.8 2.73 1.85 9.1477e-41
1.84 2.73 1.85 9.1477e-41
1.89 2.73 1.86 9.1477e-41
1.93 2.73 1.85 9.1477e-41
1.98 2.73 1.85 9.1477e-41
2.02 2.73 1.85 9.1477e-41
2.06 2.73 1.85 9.1477e-41
2.1 2.73 1.85 9.1477e-41
2.15 2.73 1.85 9.1477e-41
2.19 2.73 1.84 9.1477e-41
2.23 2.73 1.85 9.1477e-41
2.27 2.73 1.84 9.1477e-41
2.31 2.73 1.84 9.1477e-41
2.34 2.73 1.83 9.1477e-41
2.39 2.73 1.84 9.1477e-41
2.42 2.73 1.83 9.1477e-41
2.46 2.73 1.83 9.1477e-41
2.5 2.73 1.82 9.1477e-41
2.54 2.73 1.82 9.1477e-41
2.58 2.73 1.82 9.1477e-41
2.61 2.73 1.8 9.1477e-41
2.65 2.73 1.82 9.1477e-41
2.68 2.73 1.79 9.1477e-41
2.71 2.73 1.76 9.1477e-41
2.74 2.73 1.73 9.1477e-41
2.77 2.73 1.73 3.57e-43
2.78 2.73 1.73 3.57e-43
2.8 2.73 1.73 3.57e-43
2.81 2.73 1.73 3.57e-43
2.83 2.73 1.73 3.57e-43
2.85 2.73 1.73 3.57e-43
2.86 2.73 1.21 9.1477e-41
2.88 2.73 1.14 9.1477e-41
2.9 2.73 1.05 9.1477e-41
2.91 2.73 0.92 9.1477e-41
2.92 2.73 0.76 9.1477e-41
2.89 2.73 0.45 9.1477e-41
1.4 2.8 1.83 9.1477e-41
1.44 2.8 1.82 9.1477e-41
1.51 2.8 1.84 9.1477e-41
1.55 2.8 1.83 9.1477e-41
1.61 2.8 1.85 9.1477e-41
1.65 2.8 1.84 9.1477e-41
1.7 2.8 1.84 9.1477e-41
1.75 2.8 1.85 9.1477e-41
1.8 2.8 1.85 9.1477e-41
1.84 2.8 1.85 9.1477e-41
1.89 2.8 1.85 9.1477e-41
1.93 2.8 1.85 9.1477e-41
1.98 2.8 1.85 9.1477e-41
2.02 2.8 1.85 9.1477e-41
2.06 2.8 1.85 9.1477e-41
2.1 2.8 1.85 9.1477e-41
2.15 2.8 1.85 9.1477e-41
2.19 2.8 1.84 9.1477e-41
2.23 2.8 1.85 9.1477e-41
2.27 2.8 1.85 9.1477e-41
2.31 2.8 1.84 9.1477e-41
2.35 2.8 1.84 9.1477e-41
2.39 2.8 1.84 9.1477e-41
2.43 2.8 1.84 9.1477e-41
2.47 2.8 1.84 9.1477e-41
2.5 2.8 1.83 9.1477e-41
2.54 2.8 1.83 9.1477e-41
2.58 2.8 1.82 9.1477e-41
2.61 2.8 1.81 9.1477e-41
2.65 2.8 1.81 9.1477e-41
2.68 2.8 1.79 9.1477e-41
2.71 2.8 1.77 9.1477e-41
2.74 2.8 1.74 9.1477e-41
2.76 2.8 1.74 3.57e-43
2.78 2.8 1.74 3.57e-43
2.8 2.8 1.74 3.57e-43
2.81 2.8 1.74 3.57e-43
2.83 2.8 1.74 3.57e-43
2.85 2.8 1.74 3.57e-43
2.86 2.8 1.21 9.1477e-41
2.88 2.8 1.14 9.1477e-41
2.9 2.8 1.05 9.1477e-41
2.91 2.8 0.93 9.1477e-41
2.92 2.8 0.77 9.1477e-41
2.92 2.8 0.6 9.1477e-41
1.4 2.87 1.83 9.1477e-41
1.44 2.87 1.81 9.1477e-41
1.51 2.87 1.84 9.1477e-41
1.56 2.87 1.85 9.1477e-41
1.61 2.87 1.84 9.1477e-41
1.66 2.87 1.85 9.1477e-41
1.71 2.87 1.85 9.1477e-41
1.75 2.87 1.86 9.1477e-41
1.8 2.87 1.85 9.1477e-41
1.84 2.87 1.85 9.1477e-41
1.89 2.87 1.86 9.1477e-41
1.94 2.87 1.86 9.1477e-41
1.97 2.87 1.84 9.1477e-41
2.02 2.87 1.85 9.1477e-41
2.06 2.87 1.85 9.1477e-41
2.1 2.87 1.85 9.1477e-41
2.15 2.87 1.85 9.1477e-41
2.19 2.87 1.85 9.1477e-41
2.23 2.87 1.85 9.1477e-41
2.27 2.87 1.86 9.1477e-41
2.31 2.87 1.85 9.1477e-41
2.35 2.87 1.84 9.1477e-41
2.39 2.87 1.84 9.1477e-41
2.43 2.87 1.84 9.1477e-41
2.47 2.87 1.84 9.1477e-41
2.5 2.87 1.83 9.1477e-41
2.54 2.87 1.83 9.1477e-41
2.57 2.87 1.81 9.1477e-41
2.61 2.87 1.81 9.1477e-41
2.65 2.87 1.81 9.1477e-41
2.69 2.87 1.8 9.1477e-41
2.71 2.87 1.77 9.1477e-41
2.74 2.87 1.73 9.1477e-41
2.77 2.87 1.73 3.57e-43
2.78 2.87 1.73 3.57e-43
2.8 2.87 1.73 3.57e-43
2.81 2.87 1.73 3.57e-43
2.83 2.87 1.73 3.57e-43
2.85 2.87 1.73 3.57e-43
2.86 2.87 1.21 9.1477e-41
2.88 2.87 1.14 9.1477e-41
2.9 2.87 1.04 9.1477e-41
2.91 2.87 0.91 9.1477e-41
2.92 2.87 0.77 9.1477e-41
2.92 2.87 0.58 9.1477e-41
1.41 2.94 1.84 9.1477e-41
1.44 2.94 1.82 9.1477e-41
1.51 2.94 1.84 9.1477e-41
1.56 2.94 1.85 9.1477e-41
1.61 2.94 1.85 9.1477e-41
1.66 2.94 1.85 9.1477e-41
1.71 2.94 1.85 9.1477e-41
1.75 2.94 1.86 9.1477e-41
1.8 2.94 1.85 9.1477e-41
1.85 2.94 1.87 9.1477e-41
1.89 2.94 1.86 9.1477e-41
1.93 2.94 1.85 9.1477e-41
1.98 2.94 1.85 9.1477e-41
2.02 2.94 1.86 9.1477e-41
2.07 2.94 1.86 9.1477e-41
2.1 2.94 1.85 9.1477e-41
2.15 2.94 1.86 9.1477e-41
2.19 2.94 1.85 9.1477e-41
2.23 2.94 1.86 9.1477e-41
2.27 2.94 1.85 9.1477e-41
2.31 2.94 1.85 9.1477e-41
2.35 2.94 1.84 9.1477e-41
2.39 2.94 1.84 9.1477e-41
2.43 2.94 1.84 9.1477e-41
2.47 2.94 1.84 9.1477e-41
2.5 2.94 1.82 9.1477e-41
2.54 2.94 1.83 9.1477e-41
2.58 2.94 1.82 9.1477e-41
2.61 2.94 1.81 9.1477e-41
2.65 2.94 1.82 9.1477e-41
2.69 2.94 1.8 9.1477e-41
2.71 2.94 1.76 9.1477e-41
2.73 2.94 1.72 9.1477e-41
2.77 2.94 1.72 3.57e-43
2.78 2.94 1.72 3.57e-43
2.8 2.94 1.72 3.57e-43
2.81 2.94 1.72 3.57e-43
2.83 2.94 1.72 3.57e-43
2.85 2.94 1.32 9.1477e-41
2.85 2.94 1.18 9.1477e-41
2.88 2.94 1.14 9.1477e-41
2.9 2.94 1.04 9.1477e-41
2.91 2.94 0.91 9.1477e-41
2.92 2.94 0.79 9.1477e-41
2.92 2.94 0.59 9.1477e-41
1.44 3.01 1.82 9.1477e-41
1.5 3.01 1.83 9.1477e-41
1.56 3.01 1.84 9.1477e-41
1.61 3.01 1.84 9.1477e-41
1.66 3.01 1.85 9.1477e-41
1.7 3.01 1.84 9.1477e-41
1.75 3.01 1.85 9.1477e-41
1.8 3.01 1.86 9.1477e-41
1.84 3.01 1.85 9.1477e-41
1.89 3.01 1.86 9.1477e-41
1.93 3.01 1.85 9.1477e-41
1.97 3.01 1.84 9.1477e-41
2.02 3.01 1.85 9.1477e-41
2.06 3.01 1.85 9.1477e-41
2.1 3.01 1.85 9.1477e-41
2.15 3.01 1.85 9.1477e-41
2.19 3.01 1.85 9.1477e-41
2.23 3.01 1.86 9.1477e-41
2.27 3.01 1.85 9.1477e-41
2.31 3.01 1.85 9.1477e-41
2.35 3.01 1.84 9.1477e-41
2.39 3.01 1.84 9.1477e-41
2.43 3.01 1.84 9.1477e-41
2.47 3.01 1.84 9.1477e-41
2.5 3.01 1.83 9.1477e-41
2.54 3.01 1.83 9.1477e-41
2.58 3.01 1.83 9.1477e-41
2.61 3.01 1.81 9.1477e-41
2.65 3.01 1.82 9.1477e-41
2.68 3.01 1.79 9.1477e-41
2.71 3.01 1.76 9.1477e-41
2.74 3.01 1.73 9.1477e-41
2.77 3.01 1.73 3.57e-43
2.78 3.01 1.73 3.57e-43
2.8 3.01 1.73 3.57e-43
2.81 3.01 1.73 3.57e-43
2.83 3.01 1.73 3.57e-43
2.85 3.01 1.32 9.1477e-41
2.85 3.01 1.17 9.1477e-41
2.88 3.01 1.13 9.1477e-41
2.9 3.01 1.04 9.1477e-41
2.91 3.01 0.92 9.1477e-41
2.93 3.01 0.81 9.1477e-41
2.91 3.01 0.52 9.1477e-41
1.44 3.08 1.82 9.1477e-41
1.51 3.08 1.84 9.1477e-41
1.56 3.08 1.84 9.1477e-41
1.61 3.08 1.84 9.1477e-41
1.65 3.08 1.84 9.1477e-41
1.71 3.08 1.85 9.1477e-41
1.75 3.08 1.85 9.1477e-41
1.8 3.08 1.85 9.1477e-41
1.85 3.08 1.86 9.1477e-41
1.89 3.08 1.85 9.1477e-41
1.93 3.08 1.85 9.1477e-41
1.98 3.08 1.85 9.1477e-41
2.02 3.08 1.85 9.1477e-41
2.07 3.08 1.86 9.1477e-41
2.1 3.08 1.85 9.1477e-41
2.15 3.08 1.85 9.1477e-41
2.19 3.08 1.86 9.1477e-41
2.23 3.08 1.85 9.1477e-41
2.27 3.08 1.85 9.1477e-41
2.31 3.08 1.84 9.1477e-41
2.35 3.08 1.84 9.1477e-41
2.39 3.08 1.84 9.1477e-41
2.43 3.08 1.84 9.1477e-41
2.47 3.08 1.84 9.1477e-41
2.51 3.08 1.84 9.1477e-41
2.54 3.08 1.84 9.1477e-41
2.58 3.08 1.82 9.1477e-41
2.61 3.08 1.81 9.1477e-41
2.65 3.08 1.82 9.1477e-41
2.68 3.08 1.79 9.1477e-41
2.71 3.08 1.76 9.1477e-41
2.73 3.08 1.72 9.1477e-41
2.76 3.08 1.72 3.57e-43
2.78 3.08 1.72 3.57e-43
2.8 3.08 1.72 3.57e-43
2.81 3.08 1.72 3.57e-43
2.83 3.08 1.72 3.57e-43
2.85 3.08 1.32 9.1477e-41
2.85 3.08 1.17 9.1477e-41
2.87 3.08 1.12 9.1477e-41
2.89 3.08 1.03 9.1477e-41
2.91 3.08 0.92 9.1477e-41
2.93 3.08 0.81 9.1477e-41
2.88 3.08 0.42 9.1477e-41
1.44 3.15 1.82 9.1477e-41
1.5 3.15 1.83 9.1477e-41
1.56 3.15 1.84 9.1477e-41
1.61 3.15 1.84 9.1477e-41
1.66 3.15 1.85 9.1477e-41
1.71 3.15 1.85 9.1477e-41
1.74 3.15 1.84 9.1477e-41
1.79 3.15 1.84 9.1477e-41
1.85 3.15 1.86 9.1477e-41
1.89 3.15 1.86 9.1477e-41
1.93 3.15 1.85 9.1477e-41
1.98 3.15 1.86 9.1477e-41
2.02 3.15 1.86 9.1477e-41
2.07 3.15 1.86 9.1477e-41
2.1 3.15 1.85 9.1477e-41
2.14 3.15 1.84 9.1477e-41
2.19 3.15 1.84 9.1477e-41
2.23 3.15 1.86 9.1477e-41
2.27 3.15 1.85 9.1477e-41
2.31 3.15 1.84 9.1477e-41
2.35 3.15 1.84 9.1477e-41
2.39 3.15 1.85 9.1477e-41
2.42 3.15 1.83 9.1477e-41
2.46 3.15 1.83 9.1477e-41
2.5 3.15 1.83 9.1477e-41
2.54 3.15 1.82 9.1477e-41
2.58 3.15 1.82 9.1477e-41
2.61 3.15 1.81 9.1477e-41
2.65 3.15 1.82 9.1477e-41
2.68 3.15 1.79 9.1477e-41
2.71 3.15 1.77 9.1477e-41
2.73 3.15 1.72 9.1477e-41
2.76 3.15 1.72 3.57e-43
2.78 3.15 1.72 3.57e-43
2.8 3.15 1.72 3.57e-43
2.81 3.15 1.72 3.57e-43
2.83 3.15 1.72 3.57e-43
2.85 3.15 1.32 9.1477e-41
2.85 3.15 1.17 9.1477e-41
2.88 3.15 1.14 9.1477e-41
2.89 3.15 1.03 9.1477e-41
2.91 3.15 0.93 9.1477e-41
2.93 3.15 0.82 9.1477e-41
2.89 3.15 0.45 9.1477e-41
1.44 3.22 1.82 9.1477e-41
1.51 3.22 1.84 9.1477e-41
1.56 3.22 1.84 9.1477e-41
1.61 3.22 1.84 9.1477e-41
1.66 3.22 1.85 9.1477e-41
1.71 3.22 1.85 9.1477e-41
1.75 3.22 1.85 9.1477e-41
1.8 3.22 1.85 9.1477e-41
1.84 3.22 1.84 9.1477e-41
1.89 3.22 1.86 9.1477e-41
1.93 3.22 1.85 9.1477e-41
1.98 3.22 1.85 9.1477e-41
2.02 3.22 1.86 9.1477e-41
2.06 3.22 1.85 9.1477e-41
2.11 3.22 1.86 9.1477e-41
2.14 3.22 1.84 9.1477e-41
2.19 3.22 1.85 9.1477e-41
2.23 3.22 1.85 9.1477e-41
2.27 3.22 1.85 9.1477e-41
2.31 3.22 1.84 9.1477e-41
2.35 3.22 1.84 9.1477e-41
2.39 3.22 1.84 9.1477e-41
2.43 3.22 1.84 9.1477e-41
2.47 3.22 1.84 9.1477e-41
2.5 3.22 1.83 9.1477e-41
2.54 3.22 1.82 9.1477e-41
2.57 3.22 1.81 9.1477e-41
2.61 3.22 1.81 9.1477e-41
2.65 3.22 1.82 9.1477e-41
2.68 3.22 1.79 9.1477e-41
2.71 3.22 1.76 9.1477e-41
2.73 3.22 1.72 9.1477e-41
2.76 3.22 1.72 3.57e-43
2.78 3.22 1.72 3.57e-43
2.8 3.22 1.72 3.57e-43
2.81 3.22 1.72 3.57e-43
2.83 3.22 1.72 3.57e-43
2.85 3.22 1.32 9.1477e-41
2.85 3.22 1.18 9.1477e-41
2.88 3.22 1.13 9.1477e-41
2.89 3.22 1.02 9.1477e-41
2.91 3.22 0.92 9.1477e-41
2.92 3.22 0.79 9.1477e-41
2.88 3.22 0.42 9.1477e-41
1.44 3.29 1.82 9.1477e-41
1.5 3.29 1.83 9.1477e-41
1.55 3.29 1.83 9.1477e-41
1.61 3.29 1.84 9.1477e-41
1.66 3.29 1.85 9.1477e-41
1.7 3.29 1.84 9.1477e-41
1.75 3.29 1.85 9.1477e-41
1.8 3.29 1.85 9.1477e-41
1.84 3.29 1.85 9.1477e-41
1.89 3.29 1.85 9.1477e-41
1.93 3.29 1.85 9.1477e-41
1.98 3.29 1.85 9.1477e-41
2.02 3.29 1.85 9.1477e-41
2.06 3.29 1.84 9.1477e-41
2.1 3.29 1.85 9.1477e-41
2.15 3.29 1.85 9.1477e-41
2.19 3.29 1.84 9.1477e-41
2.23 3.29 1.85 9.1477e-41
2.27 3.29 1.84 9.1477e-41
2.31 3.29 1.84 9.1477e-41
2.35 3.29 1.84 9.1477e-41
2.39 3.29 1.84 9.1477e-41
2.43 3.29 1.84 9.1477e-41
2.47 3.29 1.84 9.1477e-41
2.5 3.29 1.83 9.1477e-41
2.54 3.29 1.84 9.1477e-41
2.57 3.29 1.81 9.1477e-41
2.61 3.29 1.81 9.1477e-41
2.65 3.29 1.82 9.1477e-41
2.68 3.29 1.78 9.1477e-41
2.71 3.29 1.76 9.1477e-41
2.73 3.29 1.71 9.1477e-41
2.76 3.29 1.71 3.57e-43
2.78 3.29 1.71 3.57e-43
2.8 3.29 1.71 3.57e-43
2.81 3.29 1.71 3.57e-43
2.83 3.29 1.71 3.57e-43
2.85 3.29 1.32 9.1477e-41
2.85 3.29 1.17 9.1477e-41
2.88 3.29 1.13 9.1477e-41
2.89 3.29 1 9.1477e-41
2.91 3.29 0.91 9.1477e-41
2.92 3.29 0.79 9.1477e-41
2.88 3.29 0.4 9.1477e-41
1.44 3.36 1.82 9.1477e-41
1.5 3.36 1.83 9.1477e-41
1.56 3.36 1.84 9.1477e-41
1.61 3.36 1.84 9.1477e-41
1.65 3.36 1.84 9.1477e-41
1.7 3.36 1.84 9.1477e-41
1.75 3.36 1.85 9.1477e-41
1.8 3.36 1.85 9.1477e-41
1.84 3.36 1.84 9.1477e-41
1.89 3.36 1.85 9.1477e-41
1.93 3.36 1.85 9.1477e-41
1.98 3.36 1.85 9.1477e-41
2.01 3.36 1.84 9.1477e-41
2.06 3.36 1.85 9.1477e-41
2.1 3.36 1.84 9.1477e-41
2.14 3.36 1.84 9.1477e-41
2.18 3.36 1.84 9.1477e-41
2.23 3.36 1.85 9.1477e-41
2.27 3.36 1.85 9.1477e-41
2.3 3.36 1.83 9.1477e-41
2.35 3.36 1.84 9.1477e-41
2.39 3.36 1.84 9.1477e-41
2.42 3.36 1.83 9.1477e-41
2.46 3.36 1.83 9.1477e-41
2.51 3.36 1.84 9.1477e-41
2.54 3.36 1.83 9.1477e-41
2.57 3.36 1.81 9.1477e-41
2.61 3.36 1.81 9.1477e-41
2.65 3.36 1.81 9.1477e-41
2.68 3.36 1.78 9.1477e-41
2.71 3.36 1.76 9.1477e-41
2.73 3.36 1.72 9.1477e-41
2.75 3.36 1.66 9.1477e-41
2.78 3.36 1.66 3.57e-43
2.8 3.36 1.66 3.57e-43
2.81 3.36 1.66 3.57e-43
2.83 3.36 1.66 3.57e-43
2.85 3.36 1.32 9.1477e-41
2.85 3.36 1.17 9.1477e-41
2.87 3.36 1.12 9.1477e-41
2.89 3.36 1 9.1477e-41
2.9 3.36 0.9 9.1477e-41
2.92 3.36 0.78 9.1477e-41
1.44 3.43 1.81 9.1477e-41
1.5 3.43 1.83 9.1477e-41
1.55 3.43 1.83 9.1477e-41
1.6 3.43 1.83 9.1477e-41
1.65 3.43 1.84 9.1477e-41
1.69 3.43 1.83 9.1477e-41
1.74 3.43 1.84 9.1477e-41
1.79 3.43 1.83 9.1477e-41
1.84 3.43 1.85 9.1477e-41
1.89 3.43 1.85 9.1477e-41
1.93 3.43 1.85 9.1477e-41
1.97 3.43 1.84 9.1477e-41
2.01 3.43 1.84 9.1477e-41
2.06 3.43 1.84 9.1477e-41
2.1 3.43 1.85 9.1477e-41
2.15 3.43 1.85 9.1477e-41
2.19 3.43 1.84 9.1477e-41
2.23 3.43 1.86 9.1477e-41
2.27 3.43 1.85 9.1477e-41
2.3 3.43 1.83 9.1477e-41
2.34 3.43 1.83 9.1477e-41
2.38 3.43 1.83 9.1477e-41
2.42 3.43 1.83 9.1477e-41
2.46 3.43 1.83 9.1477e-41
2.5 3.43 1.82 9.1477e-41
2.54 3.43 1.83 9.1477e-41
2.57 3.43 1.81 9.1477e-41
2.61 3.43 1.81 9.1477e-41
2.67 3.43 1.86 9.1477e-41
2.67 3.43 1.75 9.1477e-41
2.72 3.43 1.8 9.1477e-41
2.73 3.43 1.71 9.1477e-41
2.75 3.43 1.65 9.1477e-41
2.77 3.43 1.65 3.57e-43
2.8 3.43 1.65 3.57e-43
2.81 3.43 1.65 3.57e-43
2.83 3.43 1.65 3.57e-43
2.85 3.43 1.32 9.1477e-41
2.85 3.43 1.18 9.1477e-41
2.87 3.43 1.11 9.1477e-41
2.88 3.43 0.97 9.1477e-41
2.9 3.43 0.87 9.1477e-41
2.91 3.43 0.75 9.1477e-41
