# .PCD v.7 - Point Cloud Data file format
VERSION .7
FIELDS x y z rgb
SIZE 4 4 4 4
TYPE F F F F
WIDTH 702
HEIGHT 1
POINTS 702
DATA ascii
3.16 0 0.65 9.1477e-41
3.22 0 0.69 9.1477e-41
3.26 0 0.7 9.1477e-41
3.3 0 0.7 3.57e-43
3.25 0 0.7 3.57e-43
3.3 0 0.7 3.57e-43
3.35 0 0.7 3.57e-43
3.4 0 0.7 3.57e-43
3.45 0 0.7 3.57e-43
3.5 0 0.7 3.57e-43
3.55 0 0.7 3.57e-43
3.6 0 0.7 3.57e-43
3.65 0 0.7 3.57e-43
3.7 0 0.7 3.57e-43
3.75 0 0.7 3.57e-43
3.8 0 0.7 3.57e-43
3.85 0 0.7 3.57e-43
3.9 0 0.7 3.57e-43
4.01 0 0.61 9.1477e-41
4.05 0 0.6 9.1477e-41
4.09 0 0.59 9.1477e-41
4.18 0 0.64 9.1477e-41
4.23 0 0.55 9.1477e-41
3.01 0.21 0.77 9.1477e-41
3.06 0.21 0.81 9.1477e-41
3.1 0.21 0.8 9.1477e-41
3.15 0.21 0.83 9.1477e-41
3.21 0.21 0.93 9.1477e-41
3.26 0.21 0.94 9.1477e-41
3.3 0.21 0.93 9.1477e-41
3.35 0.21 0.94 9.1477e-41
3.39 0.21 0.94 9.1477e-41
3.43 0.21 0.94 9.1477e-41
3.47 0.21 0.96 9.1477e-41
3.51 0.21 0.94 9.1477e-41
3.56 0.21 0.94 9.1477e-41
3.6 0.21 0.94 9.1477e-41
3.64 0.21 0.95 9.1477e-41
3.68 0.21 0.95 9.1477e-41
3.72 0.21 0.94 9.1477e-41
3.77 0.21 0.96 9.1477e-41
3.81 0.21 0.93 9.1477e-41
3.85 0.21 0.93 9.1477e-41
3.89 0.21 0.94 9.1477e-41
3.93 0.21 0.94 9.1477e-41
3.97 0.21 0.93 9.1477e-41
4.01 0.21 0.93 9.1477e-41
4.05 0.21 0.92 9.1477e-41
4.09 0.21 0.93 9.1477e-41
4.18 0.21 0.91 9.1477e-41
4.22 0.21 0.9 9.1477e-41
4.26 0.21 0.84 9.1477e-41
4.31 0.21 0.78 9.1477e-41
4.35 0.21 0.77 9.1477e-41
4.4 0.21 0.76 9.1477e-41
4.44 0.21 0.74 9.1477e-41
4.49 0.21 0.67 9.1477e-41
2.95 0.42 0.9 9.1477e-41
3 0.42 0.92 9.1477e-41
3.06 0.42 1 9.1477e-41
3.1 0.42 1.01 9.1477e-41
3.15 0.42 1.01 9.1477e-41
3.19 0.42 1.01 9.1477e-41
3.23 0.42 1 9.1477e-41
3.28 0.42 1.03 9.1477e-41
3.31 0.42 1.01 9.1477e-41
3.36 0.42 1.02 9.1477e-41
3.4 0.42 1.03 9.1477e-41
3.44 0.42 1.02 9.1477e-41
3.48 0.42 1.03 9.1477e-41
3.52 0.42 1.02 9.1477e-41
3.57 0.42 1.03 9.1477e-41
3.61 0.42 1.02 9.1477e-41
3.65 0.42 1.01 9.1477e-41
3.69 0.42 1.02 9.1477e-41
3.73 0.42 1.02 9.1477e-41
3.77 0.42 1.02 9.1477e-41
3.81 0.42 1.02 9.1477e-41
3.85 0.42 1.01 9.1477e-41
3.89 0.42 1.02 9.1477e-41
3.93 0.42 1.01 9.1477e-41
3.97 0.42 1.02 9.1477e-41
4.01 0.42 1.01 9.1477e-41
4.05 0.42 1.01 9.1477e-41
4.09 0.42 1.01 9.1477e-41
4.18 0.42 0.99 9.1477e-41
4.22 0.42 0.98 9.1477e-41
4.26 0.42 0.98 9.1477e-41
4.3 0.42 0.98 9.1477e-41
4.34 0.42 0.97 9.1477e-41
4.38 0.42 0.96 9.1477e-41
4.42 0.42 0.96 3.57e-43
4.49 0.42 0.67 9.1477e-41
4.52 0.42 0.81 9.1477e-41
2.93 0.63 1 9.1477e-41
2.99 0.63 1.07 9.1477e-41
3.03 0.63 1.08 9.1477e-41
3.08 0.63 1.08 9.1477e-41
3.12 0.63 1.08 9.1477e-41
3.16 0.63 1.07 9.1477e-41
3.2 0.63 1.09 9.1477e-41
3.24 0.63 1.08 9.1477e-41
3.29 0.63 1.09 9.1477e-41
3.33 0.63 1.09 9.1477e-41
3.37 0.63 1.08 9.1477e-41
3.41 0.63 1.08 9.1477e-41
3.45 0.63 1.09 9.1477e-41
3.49 0.63 1.08 9.1477e-41
3.53 0.63 1.09 9.1477e-41
3.57 0.63 1.08 9.1477e-41
3.61 0.63 1.09 9.1477e-41
3.65 0.63 1.1 9.1477e-41
3.69 0.63 1.09 9.1477e-41
3.73 0.63 1.1 9.1477e-41
3.77 0.63 1.09 9.1477e-41
3.81 0.63 1.08 9.1477e-41
3.85 0.63 1.09 9.1477e-41
3.89 0.63 1.08 9.1477e-41
3.93 0.63 1.08 9.1477e-41
3.97 0.63 1.08 9.1477e-41
4.01 0.63 1.07 9.1477e-41
4.05 0.63 1.07 9.1477e-41
4.09 0.63 1.07 9.1477e-41
4.18 0.63 1.06 9.1477e-41
4.22 0.63 1.06 9.1477e-41
4.26 0.63 1.05 9.1477e-41
4.3 0.63 1.04 9.1477e-41
4.34 0.63 1.05 9.1477e-41
4.38 0.63 1.03 9.1477e-41
4.42 0.63 1.03 9.1477e-41
4.46 0.63 1.02 9.1477e-41
4.5 0.63 1 9.1477e-41
4.55 0.63 0.93 9.1477e-41
2.96 0.84 1.11 9.1477e-41
3 0.84 1.11 9.1477e-41
3.04 0.84 1.1 9.1477e-41
3.07 0.84 1.1 3.57e-43
3.12 0.84 1.08 9.1477e-41
3.14 0.84 1.08 3.57e-43
3.2 0.84 1.08 3.57e-43
3.24 0.84 1.08 9.1477e-41
3.29 0.84 1.14 9.1477e-41
3.33 0.84 1.13 9.1477e-41
3.37 0.84 1.13 3.57e-43
3.41 0.84 1.13 3.57e-43
3.45 0.84 1.13 3.57e-43
3.49 0.84 1.13 3.57e-43
3.53 0.84 1.13 3.57e-43
3.57 0.84 1.13 3.57e-43
3.61 0.84 1.13 3.57e-43
3.65 0.84 1.13 3.57e-43
3.69 0.84 1.13 3.57e-43
3.73 0.84 1.13 3.57e-43
3.77 0.84 1.13 3.57e-43
3.81 0.84 1.13 3.57e-43
3.85 0.84 1.13 3.57e-43
3.89 0.84 1.13 3.57e-43
3.93 0.84 1.13 3.57e-43
3.97 0.84 1.13 3.57e-43
4.01 0.84 1.13 3.57e-43
4.05 0.84 1.13 3.57e-43
4.09 0.84 1.13 3.57e-43
4.14 0.84 1.13 3.57e-43
4.18 0.84 1.13 3.57e-43
4.22 0.84 1.13 3.57e-43
4.26 0.84 1.05 9.1477e-41
4.3 0.84 1.02 9.1477e-41
4.34 0.84 1.02 9.1477e-41
4.38 0.84 1.01 9.1477e-41
4.42 0.84 1.07 9.1477e-41
4.46 0.84 1.08 9.1477e-41
4.5 0.84 1.08 9.1477e-41
4.54 0.84 1.03 9.1477e-41
2.99 1.05 1.26 9.1477e-41
3.03 1.05 1.26 3.57e-43
3.04 1.05 1.26 3.57e-43
3.07 1.05 1.26 3.57e-43
3.12 1.05 1.26 3.57e-43
3.14 1.05 1.26 3.57e-43
3.2 1.05 1.26 3.57e-43
3.24 1.05 1.26 3.57e-43
3.29 1.05 1.26 3.57e-43
3.33 1.05 1.26 3.57e-43
3.37 1.05 1.26 3.57e-43
3.41 1.05 1.26 3.57e-43
3.45 1.05 1.26 3.57e-43
3.49 1.05 1.26 3.57e-43
3.53 1.05 1.26 3.57e-43
3.57 1.05 1.26 3.57e-43
3.61 1.05 1.26 3.57e-43
3.65 1.05 1.26 3.57e-43
3.69 1.05 1.26 3.57e-43
3.73 1.05 1.26 3.57e-43
3.77 1.05 1.26 3.57e-43
3.81 1.05 1.26 3.57e-43
3.85 1.05 1.26 3.57e-43
3.89 1.05 1.26 3.57e-43
3.93 1.05 1.26 3.57e-43
3.97 1.05 1.26 3.57e-43
4.01 1.05 1.26 3.57e-43
4.05 1.05 1.26 3.57e-43
4.09 1.05 1.26 3.57e-43
4.14 1.05 1.26 3.57e-43
4.18 1.05 1.26 3.57e-43
4.22 1.05 1.26 3.57e-43
4.26 1.05 1.26 3.57e-43
4.3 1.05 1.26 3.57e-43
4.34 1.05 1.26 3.57e-43
4.38 1.05 1.01 9.1477e-41
4.41 1.05 1.18 9.1477e-41
4.45 1.05 1.19 9.1477e-41
4.49 1.05 1.2 9.1477e-41
4.53 1.05 1.13 9.1477e-41
2.78 1.26 1.24 9.1477e-41
2.82 1.26 1.24 9.1477e-41
2.85 1.26 1.19 9.1477e-41
2.97 1.26 1.34 9.1477e-41
3.04 1.26 1.43 9.1477e-41
3.07 1.26 1.43 3.57e-43
3.04 1.26 1.1 9.1477e-41
3.1 1.26 1.16 9.1477e-41
3.13 1.26 1.16 3.57e-43
3.14 1.26 1.16 3.57e-43
3.2 1.26 1.09 9.1477e-41
3.26 1.26 1.15 9.1477e-41
3.3 1.26 1.15 9.1477e-41
3.34 1.26 1.16 9.1477e-41
3.38 1.26 1.15 9.1477e-41
3.42 1.26 1.16 9.1477e-41
3.46 1.26 1.15 9.1477e-41
3.5 1.26 1.15 9.1477e-41
3.54 1.26 1.15 3.57e-43
3.57 1.26 1.08 9.1477e-41
3.62 1.26 1.2 9.1477e-41
3.66 1.26 1.19 9.1477e-41
3.7 1.26 1.19 9.1477e-41
3.74 1.26 1.18 9.1477e-41
3.78 1.26 1.2 9.1477e-41
3.82 1.26 1.18 9.1477e-41
3.86 1.26 1.18 3.57e-43
3.89 1.26 1.08 9.1477e-41
3.94 1.26 1.17 9.1477e-41
3.98 1.26 1.16 9.1477e-41
4.02 1.26 1.17 9.1477e-41
4.06 1.26 1.18 9.1477e-41
4.09 1.26 1.18 9.1477e-41
4.17 1.26 1.18 9.1477e-41
4.21 1.26 1.16 9.1477e-41
4.25 1.26 1.15 9.1477e-41
4.29 1.26 1.14 9.1477e-41
4.33 1.26 1.1 9.1477e-41
4.37 1.26 1.1 3.57e-43
4.41 1.26 1.18 9.1477e-41
4.43 1.26 1.38 9.1477e-41
4.47 1.26 1.37 9.1477e-41
4.51 1.26 1.34 9.1477e-41
4.58 1.26 1.11 9.1477e-41
4.62 1.26 1.1 9.1477e-41
3.03 1.47 1.57 9.1477e-41
3.07 1.47 1.58 9.1477e-41
3.11 1.47 1.59 9.1477e-41
3.15 1.47 1.59 9.1477e-41
3.19 1.47 1.6 9.1477e-41
3.23 1.47 1.61 9.1477e-41
3.27 1.47 1.61 9.1477e-41
3.31 1.47 1.61 9.1477e-41
3.34 1.47 1.61 9.1477e-41
3.38 1.47 1.62 9.1477e-41
3.42 1.47 1.61 9.1477e-41
3.45 1.47 1.62 9.1477e-41
3.49 1.47 1.62 9.1477e-41
3.52 1.47 1.61 9.1477e-41
3.56 1.47 1.62 9.1477e-41
3.6 1.47 1.62 9.1477e-41
3.63 1.47 1.62 9.1477e-41
3.67 1.47 1.62 9.1477e-41
3.7 1.47 1.61 9.1477e-41
3.74 1.47 1.61 9.1477e-41
3.78 1.47 1.62 9.1477e-41
3.81 1.47 1.6 9.1477e-41
3.85 1.47 1.61 9.1477e-41
3.88 1.47 1.61 9.1477e-41
3.92 1.47 1.6 9.1477e-41
3.95 1.47 1.61 9.1477e-41
3.99 1.47 1.59 9.1477e-41
4.02 1.47 1.6 9.1477e-41
4.06 1.47 1.59 9.1477e-41
4.09 1.47 1.59 9.1477e-41
4.17 1.47 1.58 9.1477e-41
4.2 1.47 1.58 3.57e-43
4.25 1.47 1.58 3.57e-43
4.29 1.47 1.58 3.57e-43
4.33 1.47 1.58 3.57e-43
4.37 1.47 1.58 3.57e-43
4.41 1.47 1.18 9.1477e-41
4.42 1.47 1.54 9.1477e-41
4.46 1.47 1.52 9.1477e-41
4.51 1.47 1.39 9.1477e-41
4.59 1.47 0.93 9.1477e-41
3.06 1.68 1.68 9.1477e-41
3.1 1.68 1.68 9.1477e-41
3.14 1.68 1.68 9.1477e-41
3.18 1.68 1.7 9.1477e-41
3.21 1.68 1.69 9.1477e-41
3.25 1.68 1.7 9.1477e-41
3.29 1.68 1.7 9.1477e-41
3.32 1.68 1.71 9.1477e-41
3.36 1.68 1.7 9.1477e-41
3.4 1.68 1.71 9.1477e-41
3.43 1.68 1.71 9.1477e-41
3.47 1.68 1.71 9.1477e-41
3.5 1.68 1.71 9.1477e-41
3.54 1.68 1.7 9.1477e-41
3.57 1.68 1.7 9.1477e-41
3.61 1.68 1.7 9.1477e-41
3.64 1.68 1.71 9.1477e-41
3.68 1.68 1.71 9.1477e-41
3.71 1.68 1.7 9.1477e-41
3.75 1.68 1.71 9.1477e-41
3.78 1.68 1.71 9.1477e-41
3.82 1.68 1.7 9.1477e-41
3.85 1.68 1.7 9.1477e-41
3.89 1.68 1.7 9.1477e-41
3.92 1.68 1.69 9.1477e-41
3.96 1.68 1.7 9.1477e-41
3.99 1.68 1.7 9.1477e-41
4.03 1.68 1.69 9.1477e-41
4.06 1.68 1.69 9.1477e-41
4.09 1.68 1.69 9.1477e-41
4.16 1.68 1.68 9.1477e-41
4.2 1.68 1.68 9.1477e-41
4.23 1.68 1.68 9.1477e-41
4.27 1.68 1.67 9.1477e-41
4.31 1.68 1.66 9.1477e-41
4.34 1.68 1.66 9.1477e-41
4.38 1.68 1.64 9.1477e-41
4.41 1.68 1.64 9.1477e-41
4.45 1.68 1.62 9.1477e-41
4.49 1.68 1.52 9.1477e-41
4.59 1.68 0.95 9.1477e-41
3.07 1.89 1.72 9.1477e-41
3.11 1.89 1.74 9.1477e-41
3.15 1.89 1.73 9.1477e-41
3.19 1.89 1.74 9.1477e-41
3.22 1.89 1.75 9.1477e-41
3.26 1.89 1.75 9.1477e-41
3.3 1.89 1.76 9.1477e-41
3.33 1.89 1.76 9.1477e-41
3.37 1.89 1.75 9.1477e-41
3.4 1.89 1.76 9.1477e-41
3.44 1.89 1.76 9.1477e-41
3.47 1.89 1.75 9.1477e-41
3.51 1.89 1.76 9.1477e-41
3.55 1.89 1.76 9.1477e-41
3.58 1.89 1.76 9.1477e-41
3.61 1.89 1.76 9.1477e-41
3.65 1.89 1.76 9.1477e-41
3.68 1.89 1.76 9.1477e-41
3.72 1.89 1.76 9.1477e-41
3.75 1.89 1.76 9.1477e-41
3.79 1.89 1.76 9.1477e-41
3.82 1.89 1.74 9.1477e-41
3.86 1.89 1.75 9.1477e-41
3.89 1.89 1.75 9.1477e-41
3.92 1.89 1.75 9.1477e-41
3.96 1.89 1.75 9.1477e-41
3.99 1.89 1.75 9.1477e-41
4.03 1.89 1.75 9.1477e-41
4.06 1.89 1.74 9.1477e-41
4.09 1.89 1.75 9.1477e-41
4.16 1.89 1.74 9.1477e-41
4.2 1.89 1.74 9.1477e-41
4.23 1.89 1.72 9.1477e-41
4.27 1.89 1.72 9.1477e-41
4.3 1.89 1.71 9.1477e-41
4.34 1.89 1.7 9.1477e-41
4.37 1.89 1.7 9.1477e-41
4.41 1.89 1.7 9.1477e-41
4.45 1.89 1.66 9.1477e-41
4.49 1.89 1.56 9.1477e-41
4.57 1.89 1.15 9.1477e-41
3.08 2.1 1.75 9.1477e-41
3.12 2.1 1.76 9.1477e-41
3.15 2.1 1.76 9.1477e-41
3.19 2.1 1.77 9.1477e-41
3.23 2.1 1.77 9.1477e-41
3.27 2.1 1.78 9.1477e-41
3.3 2.1 1.77 9.1477e-41
3.34 2.1 1.78 9.1477e-41
3.37 2.1 1.78 9.1477e-41
3.41 2.1 1.79 9.1477e-41
3.44 2.1 1.79 9.1477e-41
3.48 2.1 1.79 9.1477e-41
3.51 2.1 1.79 9.1477e-41
3.55 2.1 1.78 9.1477e-41
3.58 2.1 1.8 9.1477e-41
3.62 2.1 1.79 9.1477e-41
3.65 2.1 1.79 9.1477e-41
3.69 2.1 1.79 9.1477e-41
3.72 2.1 1.78 9.1477e-41
3.76 2.1 1.79 9.1477e-41
3.79 2.1 1.79 9.1477e-41
3.82 2.1 1.78 9.1477e-41
3.86 2.1 1.77 9.1477e-41
3.89 2.1 1.79 9.1477e-41
3.92 2.1 1.78 9.1477e-41
3.96 2.1 1.78 9.1477e-41
3.99 2.1 1.78 9.1477e-41
4.03 2.1 1.78 9.1477e-41
4.06 2.1 1.78 9.1477e-41
4.09 2.1 1.77 9.1477e-41
4.16 2.1 1.75 9.1477e-41
4.2 2.1 1.76 9.1477e-41
4.23 2.1 1.76 9.1477e-41
4.27 2.1 1.75 9.1477e-41
4.3 2.1 1.74 9.1477e-41
4.34 2.1 1.74 9.1477e-41
4.37 2.1 1.73 9.1477e-41
4.41 2.1 1.73 9.1477e-41
4.44 2.1 1.69 9.1477e-41
4.49 2.1 1.61 9.1477e-41
4.54 2.1 1.41 9.1477e-41
3.09 2.31 1.77 9.1477e-41
3.12 2.31 1.78 9.1477e-41
3.16 2.31 1.79 9.1477e-41
3.2 2.31 1.79 9.1477e-41
3.24 2.31 1.8 9.1477e-41
3.27 2.31 1.8 9.1477e-41
3.31 2.31 1.79 9.1477e-41
3.34 2.31 1.8 9.1477e-41
3.38 2.31 1.8 9.1477e-41
3.41 2.31 1.8 9.1477e-41
3.45 2.31 1.81 9.1477e-41
3.48 2.31 1.8 9.1477e-41
3.52 2.31 1.81 9.1477e-41
3.55 2.31 1.81 9.1477e-41
3.59 2.31 1.81 9.1477e-41
3.62 2.31 1.8 9.1477e-41
3.65 2.31 1.81 9.1477e-41
3.69 2.31 1.81 9.1477e-41
3.72 2.31 1.8 9.1477e-41
3.76 2.31 1.8 9.1477e-41
3.79 2.31 1.8 9.1477e-41
3.82 2.31 1.8 9.1477e-41
3.86 2.31 1.8 9.1477e-41
3.89 2.31 1.8 9.1477e-41
3.93 2.31 1.8 9.1477e-41
3.96 2.31 1.8 9.1477e-41
3.99 2.31 1.8 9.1477e-41
4.03 2.31 1.79 9.1477e-41
4.06 2.31 1.8 9.1477e-41
4.09 2.31 1.79 9.1477e-41
4.16 2.31 1.78 9.1477e-41
4.2 2.31 1.78 9.1477e-41
4.23 2.31 1.78 9.1477e-41
4.27 2.31 1.77 9.1477e-41
4.3 2.31 1.76 9.1477e-41
4.34 2.31 1.75 9.1477e-41
4.37 2.31 1.75 9.1477e-41
4.4 2.31 1.74 9.1477e-41
4.44 2.31 1.7 9.1477e-41
4.48 2.31 1.65 9.1477e-41
4.57 2.31 1.11 9.1477e-41
3.04 2.52 1.74 9.1477e-41
3.09 2.52 1.78 9.1477e-41
3.12 2.52 1.78 9.1477e-41
3.17 2.52 1.8 9.1477e-41
3.2 2.52 1.81 9.1477e-41
3.24 2.52 1.81 9.1477e-41
3.27 2.52 1.81 9.1477e-41
3.31 2.52 1.81 9.1477e-41
3.35 2.52 1.82 9.1477e-41
3.38 2.52 1.81 9.1477e-41
3.42 2.52 1.82 9.1477e-41
3.45 2.52 1.82 9.1477e-41
3.48 2.52 1.81 9.1477e-41
3.52 2.52 1.83 9.1477e-41
3.55 2.52 1.81 9.1477e-41
3.59 2.52 1.82 9.1477e-41
3.62 2.52 1.81 9.1477e-41
3.66 2.52 1.82 9.1477e-41
3.69 2.52 1.83 9.1477e-41
3.72 2.52 1.81 9.1477e-41
3.76 2.52 1.82 9.1477e-41
3.79 2.52 1.82 9.1477e-41
3.83 2.52 1.81 9.1477e-41
3.86 2.52 1.81 9.1477e-41
3.89 2.52 1.82 9.1477e-41
3.93 2.52 1.81 9.1477e-41
3.96 2.52 1.81 9.1477e-41
3.99 2.52 1.82 9.1477e-41
4.03 2.52 1.81 9.1477e-41
4.06 2.52 1.8 9.1477e-41
4.09 2.52 1.81 9.1477e-41
4.16 2.52 1.79 9.1477e-41
4.2 2.52 1.8 9.1477e-41
4.23 2.52 1.79 9.1477e-41
4.27 2.52 1.78 9.1477e-41
4.3 2.52 1.77 9.1477e-41
4.33 2.52 1.77 9.1477e-41
4.37 2.52 1.77 9.1477e-41
4.4 2.52 1.76 9.1477e-41
4.44 2.52 1.71 9.1477e-41
4.48 2.52 1.67 9.1477e-41
4.57 2.52 1.12 9.1477e-41
3.04 2.73 1.74 9.1477e-41
3.09 2.73 1.77 9.1477e-41
3.13 2.73 1.8 9.1477e-41
3.16 2.73 1.79 9.1477e-41
3.2 2.73 1.81 9.1477e-41
3.24 2.73 1.82 9.1477e-41
3.28 2.73 1.82 9.1477e-41
3.31 2.73 1.82 9.1477e-41
3.35 2.73 1.82 9.1477e-41
3.38 2.73 1.83 9.1477e-41
3.42 2.73 1.82 9.1477e-41
3.45 2.73 1.82 9.1477e-41
3.49 2.73 1.83 9.1477e-41
3.52 2.73 1.83 9.1477e-41
3.56 2.73 1.83 9.1477e-41
3.59 2.73 1.83 9.1477e-41
3.62 2.73 1.83 9.1477e-41
3.66 2.73 1.82 9.1477e-41
3.69 2.73 1.82 9.1477e-41
3.73 2.73 1.83 9.1477e-41
3.76 2.73 1.82 9.1477e-41
3.79 2.73 1.83 9.1477e-41
3.83 2.73 1.82 9.1477e-41
3.86 2.73 1.82 9.1477e-41
3.89 2.73 1.82 9.1477e-41
3.93 2.73 1.82 9.1477e-41
3.96 2.73 1.82 9.1477e-41
3.99 2.73 1.81 9.1477e-41
4.03 2.73 1.82 9.1477e-41
4.06 2.73 1.82 9.1477e-41
4.09 2.73 1.82 9.1477e-41
4.16 2.73 1.8 9.1477e-41
4.2 2.73 1.8 9.1477e-41
4.23 2.73 1.78 9.1477e-41
4.26 2.73 1.79 9.1477e-41
4.3 2.73 1.78 9.1477e-41
4.33 2.73 1.77 9.1477e-41
4.37 2.73 1.77 9.1477e-41
4.4 2.73 1.76 9.1477e-41
4.44 2.73 1.7 9.1477e-41
4.48 2.73 1.66 9.1477e-41
3.04 2.94 1.74 9.1477e-41
3.09 2.94 1.77 9.1477e-41
3.13 2.94 1.8 9.1477e-41
3.16 2.94 1.8 9.1477e-41
3.2 2.94 1.81 9.1477e-41
3.24 2.94 1.82 9.1477e-41
3.27 2.94 1.81 9.1477e-41
3.31 2.94 1.81 9.1477e-41
3.35 2.94 1.83 9.1477e-41
3.38 2.94 1.82 9.1477e-41
3.42 2.94 1.82 9.1477e-41
3.45 2.94 1.83 9.1477e-41
3.48 2.94 1.82 9.1477e-41
3.52 2.94 1.84 9.1477e-41
3.55 2.94 1.82 9.1477e-41
3.59 2.94 1.84 9.1477e-41
3.62 2.94 1.82 9.1477e-41
3.66 2.94 1.82 9.1477e-41
3.69 2.94 1.83 9.1477e-41
3.72 2.94 1.82 9.1477e-41
3.76 2.94 1.83 9.1477e-41
3.79 2.94 1.82 9.1477e-41
3.83 2.94 1.82 9.1477e-41
3.86 2.94 1.82 9.1477e-41
3.89 2.94 1.81 9.1477e-41
3.93 2.94 1.82 9.1477e-41
3.96 2.94 1.82 9.1477e-41
3.99 2.94 1.81 9.1477e-41
4.03 2.94 1.81 9.1477e-41
4.06 2.94 1.82 9.1477e-41
4.09 2.94 1.81 9.1477e-41
4.16 2.94 1.81 9.1477e-41
4.2 2.94 1.81 9.1477e-41
4.23 2.94 1.8 9.1477e-41
4.26 2.94 1.79 9.1477e-41
4.3 2.94 1.78 9.1477e-41
4.33 2.94 1.77 9.1477e-41
4.37 2.94 1.78 9.1477e-41
4.4 2.94 1.75 9.1477e-41
4.44 2.94 1.7 9.1477e-41
4.48 2.94 1.63 9.1477e-41
4.57 2.94 1.14 9.1477e-41
3.08 3.15 1.76 9.1477e-41
3.13 3.15 1.79 9.1477e-41
3.16 3.15 1.79 9.1477e-41
3.2 3.15 1.81 9.1477e-41
3.24 3.15 1.82 9.1477e-41
3.27 3.15 1.81 9.1477e-41
3.31 3.15 1.81 9.1477e-41
3.35 3.15 1.82 9.1477e-41
3.38 3.15 1.81 9.1477e-41
3.42 3.15 1.82 9.1477e-41
3.45 3.15 1.82 9.1477e-41
3.48 3.15 1.82 9.1477e-41
3.52 3.15 1.83 9.1477e-41
3.55 3.15 1.82 9.1477e-41
3.59 3.15 1.83 9.1477e-41
3.62 3.15 1.82 9.1477e-41
3.66 3.15 1.83 9.1477e-41
3.69 3.15 1.83 9.1477e-41
3.72 3.15 1.81 9.1477e-41
3.76 3.15 1.83 9.1477e-41
3.79 3.15 1.83 9.1477e-41
3.83 3.15 1.81 9.1477e-41
3.86 3.15 1.81 9.1477e-41
3.89 3.15 1.82 9.1477e-41
3.93 3.15 1.82 9.1477e-41
3.96 3.15 1.82 9.1477e-41
3.99 3.15 1.81 9.1477e-41
4.03 3.15 1.81 9.1477e-41
4.06 3.15 1.82 9.1477e-41
4.09 3.15 1.81 9.1477e-41
4.16 3.15 1.8 9.1477e-41
4.2 3.15 1.8 9.1477e-41
4.23 3.15 1.8 9.1477e-41
4.26 3.15 1.79 9.1477e-41
4.3 3.15 1.78 9.1477e-41
4.33 3.15 1.77 9.1477e-41
4.37 3.15 1.76 9.1477e-41
4.4 3.15 1.74 9.1477e-41
4.44 3.15 1.69 9.1477e-41
4.49 3.15 1.59 9.1477e-41
3.08 3.36 1.74 9.1477e-41
3.12 3.36 1.77 9.1477e-41
3.16 3.36 1.79 9.1477e-41
3.2 3.36 1.8 9.1477e-41
3.24 3.36 1.81 9.1477e-41
3.27 3.36 1.8 9.1477e-41
3.31 3.36 1.8 9.1477e-41
3.34 3.36 1.81 9.1477e-41
3.38 3.36 1.82 9.1477e-41
3.41 3.36 1.81 9.1477e-41
3.45 3.36 1.81 9.1477e-41
3.48 3.36 1.8 9.1477e-41
3.52 3.36 1.81 9.1477e-41
3.55 3.36 1.81 9.1477e-41
3.59 3.36 1.81 9.1477e-41
3.62 3.36 1.81 9.1477e-41
3.66 3.36 1.82 9.1477e-41
3.69 3.36 1.8 9.1477e-41
3.72 3.36 1.81 9.1477e-41
3.76 3.36 1.81 9.1477e-41
3.79 3.36 1.8 9.1477e-41
3.82 3.36 1.8 9.1477e-41
3.86 3.36 1.81 9.1477e-41
3.89 3.36 1.8 9.1477e-41
3.93 3.36 1.8 9.1477e-41
3.96 3.36 1.8 9.1477e-41
3.99 3.36 1.8 9.1477e-41
4.03 3.36 1.8 9.1477e-41
4.06 3.36 1.81 9.1477e-41
4.09 3.36 1.81 9.1477e-41
4.16 3.36 1.79 9.1477e-41
4.2 3.36 1.78 9.1477e-41
4.23 3.36 1.78 9.1477e-41
4.27 3.36 1.77 9.1477e-41
4.3 3.36 1.76 9.1477e-41
4.33 3.36 1.77 9.1477e-41
4.37 3.36 1.75 9.1477e-41
4.41 3.36 1.72 9.1477e-41
4.45 3.36 1.67 9.1477e-41
4.49 3.36 1.55 9.1477e-41
2.93 3.57 0.44 9.1477e-41
3 3.57 0.52 9.1477e-41
3.05 3.57 0.52 9.1477e-41
3.09 3.57 0.52 9.1477e-41
3.14 3.57 0.51 9.1477e-41
3.19 3.57 0.53 9.1477e-41
3.25 3.57 0.64 9.1477e-41
3.33 3.57 0.84 9.1477e-41
3.39 3.57 0.96 9.1477e-41
3.44 3.57 1 9.1477e-41
3.48 3.57 1.04 9.1477e-41
3.53 3.57 1.05 9.1477e-41
3.57 3.57 1.07 9.1477e-41
3.61 3.57 1.07 9.1477e-41
3.65 3.57 1.09 9.1477e-41
3.69 3.57 1.09 9.1477e-41
3.74 3.57 1.13 9.1477e-41
3.78 3.57 1.12 9.1477e-41
3.82 3.57 1.21 9.1477e-41
3.86 3.57 1.1 9.1477e-41
3.9 3.57 1.1 9.1477e-41
3.94 3.57 1.1 9.1477e-41
3.97 3.57 1.09 9.1477e-41
4.01 3.57 1.08 9.1477e-41
4.05 3.57 1.07 9.1477e-41
4.09 3.57 1.08 9.1477e-41
4.18 3.57 1.01 9.1477e-41
4.22 3.57 0.95 9.1477e-41
4.26 3.57 0.91 9.1477e-41
4.3 3.57 0.88 9.1477e-41
4.36 3.57 0.58 9.1477e-41
4.41 3.57 0.51 9.1477e-41
4.45 3.57 0.61 9.1477e-41
4.49 3.57 0.61 9.1477e-41
