# .PCD v.7 - Point Cloud Data file format
VERSION .7
FIELDS x y z rgb
SIZE 4 4 4 4
TYPE F F F F
WIDTH 1890
HEIGHT 1
POINTS 1890
DATA ascii
1.63 0.49 1.05 9.1477e-41
1.69 0.49 1.05 9.1477e-41
1.74 0.49 1.06 9.1477e-41
1.79 0.49 1.06 9.1477e-41
1.84 0.49 1.06 9.1477e-41
1.9 0.49 1.06 9.1477e-41
1.94 0.49 1.06 9.1477e-41
1.99 0.49 1.06 9.1477e-41
2.04 0.49 1.06 9.1477e-41
2.09 0.49 1.05 9.1477e-41
2.13 0.49 1.05 9.1477e-41
2.19 0.49 1.06 9.1477e-41
2.23 0.49 1.05 9.1477e-41
2.27 0.49 1.04 9.1477e-41
2.32 0.49 1.04 9.1477e-41
2.36 0.49 1.05 9.1477e-41
2.41 0.49 1.04 9.1477e-41
2.45 0.49 1.04 9.1477e-41
2.5 0.49 1.03 9.1477e-41
2.54 0.49 1.03 9.1477e-41
2.58 0.49 1.02 9.1477e-41
2.62 0.49 1.01 9.1477e-41
2.67 0.49 1.02 9.1477e-41
2.71 0.49 1.02 9.1477e-41
2.75 0.49 1.02 3.57e-43
2.7 0.49 0.64 9.1477e-41
2.82 0.49 0.91 9.1477e-41
2.86 0.49 0.89 9.1477e-41
2.89 0.49 0.82 9.1477e-41
2.91 0.49 0.75 9.1477e-41
2.93 0.49 0.64 9.1477e-41
1.37 0.56 1.06 9.1477e-41
1.43 0.56 1.06 9.1477e-41
1.49 0.56 1.06 9.1477e-41
1.54 0.56 1.07 9.1477e-41
1.59 0.56 1.07 9.1477e-41
1.64 0.56 1.07 9.1477e-41
1.7 0.56 1.07 9.1477e-41
1.75 0.56 1.08 9.1477e-41
1.81 0.56 1.08 9.1477e-41
1.85 0.56 1.08 9.1477e-41
1.9 0.56 1.08 9.1477e-41
1.95 0.56 1.07 9.1477e-41
2 0.56 1.08 9.1477e-41
2.05 0.56 1.08 9.1477e-41
2.1 0.56 1.08 9.1477e-41
2.15 0.56 1.08 9.1477e-41
2.19 0.56 1.07 9.1477e-41
2.24 0.56 1.08 9.1477e-41
2.28 0.56 1.07 9.1477e-41
2.33 0.56 1.07 9.1477e-41
2.37 0.56 1.07 9.1477e-41
2.42 0.56 1.06 9.1477e-41
2.46 0.56 1.06 9.1477e-41
2.5 0.56 1.05 9.1477e-41
2.55 0.56 1.05 9.1477e-41
2.59 0.56 1.04 9.1477e-41
2.63 0.56 1.03 9.1477e-41
2.68 0.56 1.04 9.1477e-41
2.72 0.56 1.03 9.1477e-41
2.76 0.56 1.03 9.1477e-41
2.8 0.56 1.02 9.1477e-41
2.84 0.56 1.01 9.1477e-41
2.87 0.56 0.95 9.1477e-41
2.9 0.56 0.87 9.1477e-41
2.93 0.56 0.81 9.1477e-41
2.95 0.56 0.7 9.1477e-41
1.28 0.63 0.99 9.1477e-41
1.38 0.63 1.07 9.1477e-41
1.45 0.63 1.09 9.1477e-41
1.5 0.63 1.08 9.1477e-41
1.55 0.63 1.09 9.1477e-41
1.6 0.63 1.09 9.1477e-41
1.66 0.63 1.1 9.1477e-41
1.72 0.63 1.11 9.1477e-41
1.77 0.63 1.1 9.1477e-41
1.81 0.63 1.09 9.1477e-41
1.86 0.63 1.1 9.1477e-41
1.91 0.63 1.1 9.1477e-41
1.96 0.63 1.1 9.1477e-41
2.01 0.63 1.11 9.1477e-41
2.06 0.63 1.11 9.1477e-41
2.11 0.63 1.11 9.1477e-41
2.15 0.63 1.09 9.1477e-41
2.2 0.63 1.09 9.1477e-41
2.24 0.63 1.09 9.1477e-41
2.29 0.63 1.09 9.1477e-41
2.33 0.63 1.08 9.1477e-41
2.38 0.63 1.09 9.1477e-41
2.42 0.63 1.08 9.1477e-41
2.47 0.63 1.07 9.1477e-41
2.51 0.63 1.08 9.1477e-41
2.55 0.63 1.07 9.1477e-41
2.6 0.63 1.07 9.1477e-41
2.64 0.63 1.07 9.1477e-41
2.68 0.63 1.06 9.1477e-41
2.73 0.63 1.05 9.1477e-41
2.77 0.63 1.05 9.1477e-41
2.81 0.63 1.05 9.1477e-41
2.85 0.63 1.02 9.1477e-41
2.88 0.63 0.97 9.1477e-41
2.91 0.63 0.91 9.1477e-41
2.93 0.63 0.84 9.1477e-41
2.96 0.63 0.75 9.1477e-41
2.93 0.63 0.43 9.1477e-41
1.33 0.7 1.08 9.1477e-41
1.4 0.7 1.1 9.1477e-41
1.46 0.7 1.1 9.1477e-41
1.51 0.7 1.11 9.1477e-41
1.57 0.7 1.13 9.1477e-41
1.62 0.7 1.11 9.1477e-41
1.67 0.7 1.12 9.1477e-41
1.73 0.7 1.12 9.1477e-41
1.78 0.7 1.12 9.1477e-41
1.82 0.7 1.12 9.1477e-41
1.88 0.7 1.13 9.1477e-41
1.93 0.7 1.13 9.1477e-41
1.97 0.7 1.13 9.1477e-41
2.02 0.7 1.12 9.1477e-41
2.07 0.7 1.12 9.1477e-41
2.11 0.7 1.12 9.1477e-41
2.16 0.7 1.12 9.1477e-41
2.21 0.7 1.12 9.1477e-41
2.25 0.7 1.11 9.1477e-41
2.3 0.7 1.12 9.1477e-41
2.34 0.7 1.11 9.1477e-41
2.39 0.7 1.1 9.1477e-41
2.43 0.7 1.1 9.1477e-41
2.48 0.7 1.1 9.1477e-41
2.52 0.7 1.09 9.1477e-41
2.56 0.7 1.09 9.1477e-41
2.6 0.7 1.08 9.1477e-41
2.65 0.7 1.08 9.1477e-41
2.69 0.7 1.08 9.1477e-41
2.73 0.7 1.07 9.1477e-41
2.78 0.7 1.08 9.1477e-41
2.82 0.7 1.07 9.1477e-41
2.85 0.7 1.04 9.1477e-41
2.89 0.7 1 9.1477e-41
2.91 0.7 0.94 9.1477e-41
2.94 0.7 0.87 9.1477e-41
2.96 0.7 0.76 9.1477e-41
1.35 0.77 1.11 9.1477e-41
1.41 0.77 1.12 9.1477e-41
1.47 0.77 1.13 9.1477e-41
1.52 0.77 1.13 9.1477e-41
1.57 0.77 1.13 9.1477e-41
1.62 0.77 1.12 9.1477e-41
1.67 0.77 1.12 9.1477e-41
1.71 0.77 1.1 9.1477e-41
1.74 0.77 1.06 9.1477e-41
1.8 0.77 1.07 9.1477e-41
1.83 0.77 1.04 9.1477e-41
1.89 0.77 1.05 9.1477e-41
1.94 0.77 1.04 9.1477e-41
1.99 0.77 1.05 9.1477e-41
2.04 0.77 1.05 9.1477e-41
2.09 0.77 1.07 9.1477e-41
2.13 0.77 1.05 9.1477e-41
2.18 0.77 1.06 9.1477e-41
2.24 0.77 1.09 9.1477e-41
2.3 0.77 1.12 9.1477e-41
2.35 0.77 1.12 9.1477e-41
2.39 0.77 1.11 9.1477e-41
2.44 0.77 1.12 9.1477e-41
2.48 0.77 1.11 9.1477e-41
2.52 0.77 1.11 9.1477e-41
2.57 0.77 1.1 9.1477e-41
2.61 0.77 1.11 9.1477e-41
2.65 0.77 1.11 9.1477e-41
2.69 0.77 1.09 9.1477e-41
2.74 0.77 1.09 9.1477e-41
2.78 0.77 1.08 9.1477e-41
2.82 0.77 1.08 9.1477e-41
2.86 0.77 1.06 9.1477e-41
2.89 0.77 1.02 9.1477e-41
2.91 0.77 0.94 9.1477e-41
2.94 0.77 0.87 9.1477e-41
2.96 0.77 0.77 9.1477e-41
1.25 0.84 1.04 9.1477e-41
1.37 0.84 1.13 9.1477e-41
1.42 0.84 1.13 9.1477e-41
1.43 0.84 1.05 9.1477e-41
1.48 0.84 1.04 9.1477e-41
1.54 0.84 1.06 9.1477e-41
1.59 0.84 1.06 3.57e-43
1.67 0.84 1.06 3.57e-43
1.71 0.84 1.1 9.1477e-41
1.75 0.84 1.1 3.57e-43
1.8 0.84 1.1 3.57e-43
1.83 0.84 1.1 3.57e-43
1.89 0.84 1.1 3.57e-43
1.94 0.84 1.1 3.57e-43
1.99 0.84 1.1 3.57e-43
2.04 0.84 1.1 3.57e-43
2.09 0.84 1.1 3.57e-43
2.13 0.84 1.1 3.57e-43
2.18 0.84 1.1 3.57e-43
2.24 0.84 1.09 9.1477e-41
2.29 0.84 1.09 9.1477e-41
2.33 0.84 1.08 9.1477e-41
2.38 0.84 1.08 9.1477e-41
2.42 0.84 1.07 9.1477e-41
2.46 0.84 1.06 9.1477e-41
2.51 0.84 1.06 9.1477e-41
2.55 0.84 1.05 9.1477e-41
2.6 0.84 1.07 9.1477e-41
2.66 0.84 1.12 9.1477e-41
2.7 0.84 1.11 9.1477e-41
2.74 0.84 1.11 9.1477e-41
2.79 0.84 1.11 9.1477e-41
2.83 0.84 1.11 9.1477e-41
2.86 0.84 1.08 9.1477e-41
2.89 0.84 1.03 9.1477e-41
2.92 0.84 0.96 9.1477e-41
2.94 0.84 0.88 9.1477e-41
2.97 0.84 0.78 9.1477e-41
1.29 0.91 1.1 9.1477e-41
1.36 0.91 1.12 9.1477e-41
1.38 0.91 1.12 3.57e-43
1.43 0.91 1.12 3.57e-43
1.48 0.91 1.04 9.1477e-41
1.58 0.91 1.14 9.1477e-41
1.63 0.91 1.14 9.1477e-41
1.69 0.91 1.14 3.57e-43
1.71 0.91 1.14 3.57e-43
1.75 0.91 1.14 3.57e-43
1.8 0.91 1.14 3.57e-43
1.83 0.91 1.14 3.57e-43
1.89 0.91 1.14 3.57e-43
1.94 0.91 1.14 3.57e-43
1.99 0.91 1.14 3.57e-43
2.04 0.91 1.14 3.57e-43
2.09 0.91 1.14 3.57e-43
2.13 0.91 1.14 3.57e-43
2.18 0.91 1.14 3.57e-43
2.24 0.91 1.14 3.57e-43
2.29 0.91 1.14 3.57e-43
2.33 0.91 1.14 3.57e-43
2.38 0.91 1.14 3.57e-43
2.42 0.91 1.14 3.57e-43
2.46 0.91 1.14 3.57e-43
2.51 0.91 1.14 3.57e-43
2.55 0.91 1.14 3.57e-43
2.6 0.91 1.14 3.57e-43
2.66 0.91 1.12 9.1477e-41
2.68 0.91 1.06 9.1477e-41
2.72 0.91 1.03 9.1477e-41
2.79 0.91 1.13 9.1477e-41
2.83 0.91 1.12 9.1477e-41
2.87 0.91 1.1 9.1477e-41
2.9 0.91 1.04 9.1477e-41
2.92 0.91 0.96 9.1477e-41
2.95 0.91 0.89 9.1477e-41
2.97 0.91 0.78 9.1477e-41
1.33 0.98 1.16 9.1477e-41
1.38 0.98 1.16 9.1477e-41
1.44 0.98 1.16 3.57e-43
1.43 0.98 1.16 3.57e-43
1.48 0.98 1.16 3.57e-43
1.58 0.98 1.16 3.57e-43
1.63 0.98 1.16 3.57e-43
1.69 0.98 1.16 3.57e-43
1.71 0.98 1.16 3.57e-43
1.75 0.98 1.16 3.57e-43
1.8 0.98 1.16 3.57e-43
1.83 0.98 1.16 3.57e-43
1.89 0.98 1.16 3.57e-43
1.94 0.98 1.16 3.57e-43
1.99 0.98 1.16 3.57e-43
2.04 0.98 1.16 3.57e-43
2.09 0.98 1.16 3.57e-43
2.13 0.98 1.16 3.57e-43
2.18 0.98 1.16 3.57e-43
2.24 0.98 1.16 3.57e-43
2.29 0.98 1.16 3.57e-43
2.33 0.98 1.16 3.57e-43
2.38 0.98 1.16 3.57e-43
2.42 0.98 1.16 3.57e-43
2.46 0.98 1.16 3.57e-43
2.51 0.98 1.16 3.57e-43
2.55 0.98 1.16 3.57e-43
2.6 0.98 1.16 3.57e-43
2.66 0.98 1.16 3.57e-43
2.68 0.98 1.06 9.1477e-41
2.75 0.98 1.12 9.1477e-41
2.79 0.98 1.11 9.1477e-41
2.84 0.98 1.15 9.1477e-41
2.87 0.98 1.1 9.1477e-41
2.9 0.98 1.06 9.1477e-41
2.92 0.98 0.96 9.1477e-41
2.94 0.98 0.88 9.1477e-41
2.96 0.98 0.77 9.1477e-41
2.93 0.98 0.4 9.1477e-41
1.33 1.05 1.25 9.1477e-41
1.35 1.05 1.25 3.57e-43
1.38 1.05 1.25 3.57e-43
1.44 1.05 1.25 3.57e-43
1.43 1.05 1.25 3.57e-43
1.48 1.05 1.25 3.57e-43
1.58 1.05 1.25 3.57e-43
1.63 1.05 1.25 3.57e-43
1.69 1.05 1.25 3.57e-43
1.71 1.05 1.25 3.57e-43
1.75 1.05 1.25 3.57e-43
1.8 1.05 1.25 3.57e-43
1.83 1.05 1.25 3.57e-43
1.89 1.05 1.25 3.57e-43
1.94 1.05 1.25 3.57e-43
1.99 1.05 1.25 3.57e-43
2.04 1.05 1.25 3.57e-43
2.09 1.05 1.07 9.1477e-41
2.22 1.05 1.27 9.1477e-41
2.27 1.05 1.27 3.57e-43
2.24 1.05 1.27 3.57e-43
2.29 1.05 1.27 3.57e-43
2.33 1.05 1.27 3.57e-43
2.38 1.05 1.27 3.57e-43
2.42 1.05 1.27 3.57e-43
2.46 1.05 1.27 3.57e-43
2.51 1.05 1.27 3.57e-43
2.55 1.05 1.27 3.57e-43
2.6 1.05 1.27 3.57e-43
2.66 1.05 1.12 9.1477e-41
2.72 1.05 1.19 9.1477e-41
2.76 1.05 1.18 9.1477e-41
2.81 1.05 1.18 9.1477e-41
2.85 1.05 1.17 9.1477e-41
2.88 1.05 1.14 9.1477e-41
2.9 1.05 1.04 9.1477e-41
2.92 1.05 0.96 9.1477e-41
2.94 1.05 0.86 9.1477e-41
2.96 1.05 0.75 9.1477e-41
2.93 1.05 0.42 9.1477e-41
1.34 1.12 1.27 9.1477e-41
1.39 1.12 1.27 3.57e-43
1.38 1.12 1.27 3.57e-43
1.44 1.12 1.27 3.57e-43
1.43 1.12 1.27 3.57e-43
1.48 1.12 1.27 3.57e-43
1.58 1.12 1.27 3.57e-43
1.63 1.12 1.27 3.57e-43
1.69 1.12 1.27 3.57e-43
1.71 1.12 1.27 3.57e-43
1.75 1.12 1.27 3.57e-43
1.8 1.12 1.27 3.57e-43
1.83 1.12 1.27 3.57e-43
1.89 1.12 1.27 3.57e-43
1.94 1.12 1.27 3.57e-43
1.99 1.12 1.27 3.57e-43
2.04 1.12 1.27 3.57e-43
2.09 1.12 1.27 3.57e-43
2.22 1.12 1.27 3.57e-43
2.27 1.12 1.27 3.57e-43
2.24 1.12 1.27 3.57e-43
2.29 1.12 1.27 3.57e-43
2.33 1.12 1.27 3.57e-43
2.38 1.12 1.27 3.57e-43
2.42 1.12 1.27 3.57e-43
2.46 1.12 1.27 3.57e-43
2.51 1.12 1.27 3.57e-43
2.55 1.12 1.27 3.57e-43
2.6 1.12 1.27 3.57e-43
2.66 1.12 1.12 9.1477e-41
2.74 1.12 1.23 9.1477e-41
2.78 1.12 1.25 9.1477e-41
2.82 1.12 1.24 9.1477e-41
2.86 1.12 1.2 9.1477e-41
2.89 1.12 1.17 9.1477e-41
2.89 1.12 1.01 9.1477e-41
2.92 1.12 0.96 9.1477e-41
2.94 1.12 0.85 9.1477e-41
2.96 1.12 0.74 9.1477e-41
2.94 1.12 0.46 9.1477e-41
1.34 1.19 1.36 9.1477e-41
1.38 1.19 1.33 9.1477e-41
1.46 1.19 1.33 3.57e-43
1.38 1.19 1.33 3.57e-43
1.44 1.19 1.33 3.57e-43
1.43 1.19 1.33 3.57e-43
1.48 1.19 1.33 3.57e-43
1.58 1.19 1.33 3.57e-43
1.63 1.19 1.33 3.57e-43
1.69 1.19 1.33 3.57e-43
1.71 1.19 1.33 3.57e-43
1.75 1.19 1.33 3.57e-43
1.8 1.19 1.33 3.57e-43
1.83 1.19 1.33 3.57e-43
1.89 1.19 1.33 3.57e-43
1.94 1.19 1.33 3.57e-43
1.99 1.19 1.33 3.57e-43
2.04 1.19 1.33 3.57e-43
2.09 1.19 1.33 3.57e-43
2.22 1.19 1.33 3.57e-43
2.27 1.19 1.33 3.57e-43
2.24 1.19 1.33 3.57e-43
2.29 1.19 1.33 3.57e-43
2.33 1.19 1.33 3.57e-43
2.38 1.19 1.33 3.57e-43
2.42 1.19 1.33 3.57e-43
2.46 1.19 1.33 3.57e-43
2.51 1.19 1.33 3.57e-43
2.55 1.19 1.33 3.57e-43
2.6 1.19 1.07 9.1477e-41
2.71 1.19 1.3 9.1477e-41
2.76 1.19 1.3 9.1477e-41
2.8 1.19 1.3 9.1477e-41
2.84 1.19 1.29 9.1477e-41
2.87 1.19 1.29 3.57e-43
2.89 1.19 1.17 9.1477e-41
2.89 1.19 1.02 9.1477e-41
2.92 1.19 0.97 9.1477e-41
2.94 1.19 0.87 9.1477e-41
2.95 1.19 0.71 9.1477e-41
2.95 1.19 0.52 9.1477e-41
1.38 1.26 1.46 3.57e-43
1.46 1.26 1.19 9.1477e-41
1.51 1.26 1.2 9.1477e-41
1.56 1.26 1.19 9.1477e-41
1.61 1.26 1.19 9.1477e-41
1.66 1.26 1.19 3.57e-43
1.69 1.26 1.19 3.57e-43
1.71 1.26 1.19 3.57e-43
1.75 1.26 1.19 3.57e-43
1.8 1.26 1.19 3.57e-43
1.83 1.26 1.19 3.57e-43
1.89 1.26 1.19 3.57e-43
1.94 1.26 1.19 3.57e-43
1.99 1.26 1.19 3.57e-43
2.04 1.26 1.19 3.57e-43
2.09 1.26 1.19 3.57e-43
2.22 1.26 1.19 3.57e-43
2.27 1.26 1.19 3.57e-43
2.24 1.26 1.19 3.57e-43
2.29 1.26 1.19 3.57e-43
2.33 1.26 1.19 3.57e-43
2.38 1.26 1.19 3.57e-43
2.42 1.26 1.19 3.57e-43
2.46 1.26 1.19 3.57e-43
2.51 1.26 1.19 3.57e-43
2.55 1.26 1.19 3.57e-43
2.6 1.26 1.19 3.57e-43
2.71 1.26 1.3 9.1477e-41
2.78 1.26 1.38 9.1477e-41
2.82 1.26 1.36 9.1477e-41
2.84 1.26 1.31 9.1477e-41
2.88 1.26 1.31 3.57e-43
2.89 1.26 1.17 9.1477e-41
2.89 1.26 1.03 9.1477e-41
2.92 1.26 0.98 9.1477e-41
2.94 1.26 0.88 9.1477e-41
2.95 1.26 0.71 9.1477e-41
2.95 1.26 0.5 9.1477e-41
1.18 1.33 1.26 9.1477e-41
1.36 1.33 1.46 9.1477e-41
1.4 1.33 1.46 3.57e-43
1.38 1.33 1.46 3.57e-43
1.46 1.33 1.46 3.57e-43
1.38 1.33 1.46 3.57e-43
1.46 1.33 1.19 9.1477e-41
1.5 1.33 1.19 3.57e-43
1.56 1.33 1.19 3.57e-43
1.61 1.33 1.19 3.57e-43
1.66 1.33 1.19 9.1477e-41
1.7 1.33 1.17 9.1477e-41
1.75 1.33 1.18 9.1477e-41
1.8 1.33 1.18 9.1477e-41
1.86 1.33 1.18 3.57e-43
1.83 1.33 1.18 3.57e-43
1.89 1.33 1.18 3.57e-43
1.94 1.33 1.18 3.57e-43
1.99 1.33 1.18 3.57e-43
2.04 1.33 1.18 3.57e-43
2.09 1.33 1.18 3.57e-43
2.22 1.33 1.18 3.57e-43
2.27 1.33 1.26 9.1477e-41
2.28 1.33 1.19 9.1477e-41
2.33 1.33 1.2 9.1477e-41
2.39 1.33 1.22 9.1477e-41
2.43 1.33 1.22 9.1477e-41
2.47 1.33 1.21 9.1477e-41
2.51 1.33 1.21 9.1477e-41
2.55 1.33 1.19 9.1477e-41
2.59 1.33 1.18 9.1477e-41
2.63 1.33 1.18 9.1477e-41
2.75 1.33 1.4 9.1477e-41
2.79 1.33 1.42 9.1477e-41
2.82 1.33 1.38 9.1477e-41
2.86 1.33 1.38 3.57e-43
2.88 1.33 1.28 9.1477e-41
2.88 1.33 1.14 9.1477e-41
2.92 1.33 1.13 9.1477e-41
2.96 1.33 1.11 9.1477e-41
2.97 1.33 0.97 9.1477e-41
2.95 1.33 0.72 9.1477e-41
2.94 1.33 0.48 9.1477e-41
1.61 1.4 1.62 3.57e-43
1.6 1.4 1.53 9.1477e-41
1.38 1.4 1.53 3.57e-43
1.5 1.4 1.53 3.57e-43
1.56 1.4 1.53 3.57e-43
1.61 1.4 1.53 3.57e-43
1.66 1.4 1.53 3.57e-43
1.7 1.4 1.53 3.57e-43
1.75 1.4 1.53 3.57e-43
1.8 1.4 1.18 9.1477e-41
1.46 1.4 1.18 3.57e-43
1.83 1.4 1.18 3.57e-43
1.89 1.4 1.18 3.57e-43
1.94 1.4 1.04 9.1477e-41
2.03 1.4 1.13 9.1477e-41
2.07 1.4 1.13 9.1477e-41
2.12 1.4 1.13 3.57e-43
2.22 1.4 1.27 9.1477e-41
2.13 1.4 1.27 3.57e-43
2.28 1.4 1.27 3.57e-43
2.33 1.4 1.2 9.1477e-41
2.41 1.4 1.29 9.1477e-41
2.45 1.4 1.29 3.57e-43
2.47 1.4 1.29 3.57e-43
2.51 1.4 1.29 3.57e-43
2.55 1.4 1.29 3.57e-43
2.59 1.4 1.29 3.57e-43
2.63 1.4 1.18 9.1477e-41
2.77 1.4 1.49 9.1477e-41
2.81 1.4 1.46 9.1477e-41
2.83 1.4 1.42 9.1477e-41
2.86 1.4 1.42 3.57e-43
2.88 1.4 1.28 9.1477e-41
2.88 1.4 1.15 9.1477e-41
2.9 1.4 1.04 9.1477e-41
2.95 1.4 1.07 9.1477e-41
3.03 1.4 1.24 9.1477e-41
3.07 1.4 1.24 3.57e-43
2.94 1.4 0.48 9.1477e-41
1.61 1.47 1.62 3.57e-43
1.34 1.47 1.09 9.1477e-41
1.38 1.47 1.09 3.57e-43
1.5 1.47 1.09 3.57e-43
1.56 1.47 1.19 9.1477e-41
1.83 1.47 1.19 3.57e-43
1.66 1.47 1.19 3.57e-43
1.7 1.47 1.19 3.57e-43
1.75 1.47 1.19 3.57e-43
1.8 1.47 1.19 3.57e-43
1.46 1.47 1.19 3.57e-43
1.83 1.47 1.19 3.57e-43
1.89 1.47 1.19 3.57e-43
1.94 1.47 1.19 3.57e-43
2.03 1.47 1.19 3.57e-43
2.07 1.47 1.13 9.1477e-41
2.24 1.47 1.41 9.1477e-41
2.31 1.47 1.47 9.1477e-41
2.35 1.47 1.47 3.57e-43
2.28 1.47 1.47 3.57e-43
2.33 1.47 1.47 3.57e-43
2.41 1.47 1.29 9.1477e-41
2.47 1.47 1.32 9.1477e-41
2.49 1.47 1.32 3.57e-43
2.51 1.47 1.32 3.57e-43
2.55 1.47 1.32 3.57e-43
2.59 1.47 1.18 9.1477e-41
2.75 1.47 1.54 9.1477e-41
2.79 1.47 1.53 9.1477e-41
2.82 1.47 1.5 9.1477e-41
2.85 1.47 1.5 3.57e-43
2.86 1.47 1.5 3.57e-43
2.88 1.47 1.5 3.57e-43
2.88 1.47 1.15 9.1477e-41
2.9 1.47 1.05 9.1477e-41
2.93 1.47 1.01 9.1477e-41
2.95 1.47 0.91 9.1477e-41
2.95 1.47 0.73 9.1477e-41
2.96 1.47 0.56 9.1477e-41
1.4 1.54 1.61 9.1477e-41
1.46 1.54 1.62 9.1477e-41
1.52 1.54 1.63 9.1477e-41
1.56 1.54 1.62 9.1477e-41
1.61 1.54 1.62 9.1477e-41
1.67 1.54 1.64 9.1477e-41
1.71 1.54 1.63 9.1477e-41
1.77 1.54 1.65 9.1477e-41
1.81 1.54 1.64 9.1477e-41
1.86 1.54 1.64 9.1477e-41
1.91 1.54 1.65 9.1477e-41
1.95 1.54 1.64 9.1477e-41
2 1.54 1.65 9.1477e-41
2.04 1.54 1.64 9.1477e-41
2.08 1.54 1.64 9.1477e-41
2.13 1.54 1.64 9.1477e-41
2.17 1.54 1.63 9.1477e-41
2.21 1.54 1.64 9.1477e-41
2.25 1.54 1.63 9.1477e-41
2.3 1.54 1.64 9.1477e-41
2.33 1.54 1.62 9.1477e-41
2.37 1.54 1.62 9.1477e-41
2.41 1.54 1.61 9.1477e-41
2.45 1.54 1.61 9.1477e-41
2.49 1.54 1.6 9.1477e-41
2.53 1.54 1.6 3.57e-43
2.47 1.54 1.6 3.57e-43
2.49 1.54 1.28 9.1477e-41
2.65 1.54 1.59 9.1477e-41
2.68 1.54 1.59 3.57e-43
2.59 1.54 1.18 9.1477e-41
2.76 1.54 1.58 9.1477e-41
2.79 1.54 1.55 9.1477e-41
2.82 1.54 1.55 3.57e-43
2.85 1.54 1.55 3.57e-43
2.86 1.54 1.55 3.57e-43
2.88 1.54 1.55 3.57e-43
2.88 1.54 1.15 9.1477e-41
2.9 1.54 1.07 9.1477e-41
2.93 1.54 1.01 9.1477e-41
2.95 1.54 0.91 9.1477e-41
2.95 1.54 0.73 9.1477e-41
2.96 1.54 0.55 9.1477e-41
1.42 1.61 1.64 9.1477e-41
1.49 1.61 1.66 9.1477e-41
1.54 1.61 1.67 9.1477e-41
1.59 1.61 1.66 9.1477e-41
1.64 1.61 1.68 9.1477e-41
1.69 1.61 1.67 9.1477e-41
1.74 1.61 1.68 9.1477e-41
1.79 1.61 1.67 9.1477e-41
1.83 1.61 1.68 9.1477e-41
1.88 1.61 1.68 9.1477e-41
1.93 1.61 1.69 9.1477e-41
1.97 1.61 1.68 9.1477e-41
2.01 1.61 1.67 9.1477e-41
2.06 1.61 1.67 9.1477e-41
2.1 1.61 1.68 9.1477e-41
2.14 1.61 1.67 9.1477e-41
2.19 1.61 1.68 9.1477e-41
2.23 1.61 1.68 9.1477e-41
2.27 1.61 1.67 9.1477e-41
2.31 1.61 1.67 9.1477e-41
2.35 1.61 1.67 9.1477e-41
2.4 1.61 1.67 9.1477e-41
2.43 1.61 1.66 9.1477e-41
2.47 1.61 1.65 9.1477e-41
2.51 1.61 1.65 9.1477e-41
2.55 1.61 1.64 9.1477e-41
2.59 1.61 1.64 9.1477e-41
2.62 1.61 1.63 9.1477e-41
2.66 1.61 1.63 9.1477e-41
2.7 1.61 1.61 9.1477e-41
2.74 1.61 1.62 9.1477e-41
2.77 1.61 1.6 9.1477e-41
2.8 1.61 1.57 9.1477e-41
2.83 1.61 1.57 3.57e-43
2.85 1.61 1.57 3.57e-43
2.86 1.61 1.57 3.57e-43
2.88 1.61 1.57 3.57e-43
2.88 1.61 1.15 9.1477e-41
2.91 1.61 1.08 9.1477e-41
2.93 1.61 1.02 9.1477e-41
2.95 1.61 0.91 9.1477e-41
2.95 1.61 0.73 9.1477e-41
2.96 1.61 0.55 9.1477e-41
1.45 1.68 1.67 9.1477e-41
1.51 1.68 1.7 9.1477e-41
1.56 1.68 1.69 9.1477e-41
1.61 1.68 1.71 9.1477e-41
1.66 1.68 1.7 9.1477e-41
1.71 1.68 1.71 9.1477e-41
1.76 1.68 1.7 9.1477e-41
1.8 1.68 1.7 9.1477e-41
1.85 1.68 1.71 9.1477e-41
1.89 1.68 1.7 9.1477e-41
1.94 1.68 1.71 9.1477e-41
1.99 1.68 1.71 9.1477e-41
2.03 1.68 1.7 9.1477e-41
2.07 1.68 1.7 9.1477e-41
2.11 1.68 1.7 9.1477e-41
2.16 1.68 1.7 9.1477e-41
2.2 1.68 1.7 9.1477e-41
2.24 1.68 1.71 9.1477e-41
2.28 1.68 1.7 9.1477e-41
2.33 1.68 1.7 9.1477e-41
2.37 1.68 1.7 9.1477e-41
2.4 1.68 1.69 9.1477e-41
2.44 1.68 1.68 9.1477e-41
2.48 1.68 1.68 9.1477e-41
2.52 1.68 1.68 9.1477e-41
2.56 1.68 1.68 9.1477e-41
2.6 1.68 1.68 9.1477e-41
2.64 1.68 1.67 9.1477e-41
2.67 1.68 1.66 9.1477e-41
2.71 1.68 1.66 9.1477e-41
2.75 1.68 1.65 9.1477e-41
2.78 1.68 1.63 9.1477e-41
2.81 1.68 1.6 9.1477e-41
2.83 1.68 1.6 3.57e-43
2.85 1.68 1.6 3.57e-43
2.86 1.68 1.6 3.57e-43
2.88 1.68 1.6 3.57e-43
2.88 1.68 1.15 9.1477e-41
2.9 1.68 1.07 9.1477e-41
2.94 1.68 1.03 9.1477e-41
2.95 1.68 0.92 9.1477e-41
2.95 1.68 0.73 9.1477e-41
2.96 1.68 0.56 9.1477e-41
1.42 1.75 1.7 9.1477e-41
1.46 1.75 1.69 9.1477e-41
1.52 1.75 1.72 9.1477e-41
1.58 1.75 1.72 9.1477e-41
1.63 1.75 1.73 9.1477e-41
1.67 1.75 1.72 9.1477e-41
1.72 1.75 1.72 9.1477e-41
1.77 1.75 1.73 9.1477e-41
1.82 1.75 1.73 9.1477e-41
1.86 1.75 1.73 9.1477e-41
1.91 1.75 1.73 9.1477e-41
1.96 1.75 1.74 9.1477e-41
1.99 1.75 1.72 9.1477e-41
2.04 1.75 1.73 9.1477e-41
2.09 1.75 1.74 9.1477e-41
2.13 1.75 1.73 9.1477e-41
2.17 1.75 1.73 9.1477e-41
2.21 1.75 1.72 9.1477e-41
2.26 1.75 1.73 9.1477e-41
2.3 1.75 1.73 9.1477e-41
2.33 1.75 1.72 9.1477e-41
2.38 1.75 1.72 9.1477e-41
2.41 1.75 1.72 9.1477e-41
2.45 1.75 1.71 9.1477e-41
2.5 1.75 1.72 9.1477e-41
2.53 1.75 1.7 9.1477e-41
2.57 1.75 1.7 9.1477e-41
2.61 1.75 1.7 9.1477e-41
2.65 1.75 1.7 9.1477e-41
2.68 1.75 1.69 9.1477e-41
2.71 1.75 1.67 9.1477e-41
2.76 1.75 1.67 9.1477e-41
2.78 1.75 1.64 9.1477e-41
2.81 1.75 1.64 3.57e-43
2.83 1.75 1.64 3.57e-43
2.85 1.75 1.64 3.57e-43
2.86 1.75 1.64 3.57e-43
2.88 1.75 1.64 3.57e-43
2.88 1.75 1.15 9.1477e-41
2.91 1.75 1.1 9.1477e-41
2.94 1.75 1.04 9.1477e-41
2.96 1.75 0.93 9.1477e-41
2.96 1.75 0.74 9.1477e-41
2.97 1.75 0.59 9.1477e-41
1.43 1.82 1.72 9.1477e-41
1.48 1.82 1.72 9.1477e-41
1.54 1.82 1.74 9.1477e-41
1.59 1.82 1.74 9.1477e-41
1.64 1.82 1.75 9.1477e-41
1.69 1.82 1.74 9.1477e-41
1.74 1.82 1.76 9.1477e-41
1.79 1.82 1.75 9.1477e-41
1.83 1.82 1.75 9.1477e-41
1.87 1.82 1.75 9.1477e-41
1.92 1.82 1.76 9.1477e-41
1.97 1.82 1.76 9.1477e-41
2.01 1.82 1.75 9.1477e-41
2.05 1.82 1.75 9.1477e-41
2.1 1.82 1.75 9.1477e-41
2.14 1.82 1.75 9.1477e-41
2.18 1.82 1.76 9.1477e-41
2.22 1.82 1.75 9.1477e-41
2.26 1.82 1.74 9.1477e-41
2.3 1.82 1.74 9.1477e-41
2.35 1.82 1.75 9.1477e-41
2.38 1.82 1.74 9.1477e-41
2.42 1.82 1.74 9.1477e-41
2.46 1.82 1.73 9.1477e-41
2.5 1.82 1.73 9.1477e-41
2.54 1.82 1.73 9.1477e-41
2.58 1.82 1.72 9.1477e-41
2.62 1.82 1.72 9.1477e-41
2.65 1.82 1.71 9.1477e-41
2.69 1.82 1.71 9.1477e-41
2.72 1.82 1.68 9.1477e-41
2.76 1.82 1.69 9.1477e-41
2.79 1.82 1.66 9.1477e-41
2.82 1.82 1.66 3.57e-43
2.83 1.82 1.66 3.57e-43
2.85 1.82 1.66 3.57e-43
2.86 1.82 1.66 3.57e-43
2.88 1.82 1.28 9.1477e-41
2.88 1.82 1.14 9.1477e-41
2.91 1.82 1.11 9.1477e-41
2.94 1.82 1.04 9.1477e-41
2.96 1.82 0.93 9.1477e-41
2.96 1.82 0.74 9.1477e-41
2.96 1.82 0.56 9.1477e-41
1.44 1.89 1.74 9.1477e-41
1.49 1.89 1.74 9.1477e-41
1.55 1.89 1.75 9.1477e-41
1.6 1.89 1.76 9.1477e-41
1.65 1.89 1.77 9.1477e-41
1.7 1.89 1.77 9.1477e-41
1.75 1.89 1.77 9.1477e-41
1.79 1.89 1.76 9.1477e-41
1.84 1.89 1.76 9.1477e-41
1.89 1.89 1.78 9.1477e-41
1.93 1.89 1.77 9.1477e-41
1.97 1.89 1.76 9.1477e-41
2.02 1.89 1.77 9.1477e-41
2.06 1.89 1.77 9.1477e-41
2.1 1.89 1.76 9.1477e-41
2.15 1.89 1.76 9.1477e-41
2.19 1.89 1.77 9.1477e-41
2.23 1.89 1.77 9.1477e-41
2.27 1.89 1.76 9.1477e-41
2.31 1.89 1.76 9.1477e-41
2.35 1.89 1.76 9.1477e-41
2.39 1.89 1.75 9.1477e-41
2.43 1.89 1.76 9.1477e-41
2.47 1.89 1.75 9.1477e-41
2.51 1.89 1.75 9.1477e-41
2.54 1.89 1.74 9.1477e-41
2.59 1.89 1.74 9.1477e-41
2.62 1.89 1.73 9.1477e-41
2.66 1.89 1.73 9.1477e-41
2.69 1.89 1.71 9.1477e-41
2.73 1.89 1.71 9.1477e-41
2.77 1.89 1.7 9.1477e-41
2.79 1.89 1.66 9.1477e-41
2.82 1.89 1.66 3.57e-43
2.83 1.89 1.66 3.57e-43
2.85 1.89 1.66 3.57e-43
2.86 1.89 1.66 3.57e-43
2.88 1.89 1.28 9.1477e-41
2.88 1.89 1.15 9.1477e-41
2.92 1.89 1.12 9.1477e-41
2.94 1.89 1.04 9.1477e-41
2.95 1.89 0.92 9.1477e-41
2.96 1.89 0.74 9.1477e-41
2.96 1.89 0.56 9.1477e-41
1.44 1.96 1.74 9.1477e-41
1.5 1.96 1.76 9.1477e-41
1.56 1.96 1.77 9.1477e-41
1.61 1.96 1.77 9.1477e-41
1.66 1.96 1.77 9.1477e-41
1.7 1.96 1.77 9.1477e-41
1.76 1.96 1.78 9.1477e-41
1.8 1.96 1.78 9.1477e-41
1.85 1.96 1.79 9.1477e-41
1.89 1.96 1.78 9.1477e-41
1.94 1.96 1.78 9.1477e-41
1.98 1.96 1.78 9.1477e-41
2.02 1.96 1.78 9.1477e-41
2.07 1.96 1.79 9.1477e-41
2.11 1.96 1.78 9.1477e-41
2.15 1.96 1.78 9.1477e-41
2.2 1.96 1.78 9.1477e-41
2.24 1.96 1.78 9.1477e-41
2.28 1.96 1.78 9.1477e-41
2.32 1.96 1.78 9.1477e-41
2.36 1.96 1.77 9.1477e-41
2.4 1.96 1.78 9.1477e-41
2.44 1.96 1.77 9.1477e-41
2.47 1.96 1.76 9.1477e-41
2.52 1.96 1.77 9.1477e-41
2.55 1.96 1.76 9.1477e-41
2.59 1.96 1.76 9.1477e-41
2.63 1.96 1.75 9.1477e-41
2.66 1.96 1.74 9.1477e-41
2.7 1.96 1.73 9.1477e-41
2.74 1.96 1.73 9.1477e-41
2.77 1.96 1.71 9.1477e-41
2.79 1.96 1.67 9.1477e-41
2.82 1.96 1.67 3.57e-43
2.83 1.96 1.67 3.57e-43
2.85 1.96 1.67 3.57e-43
2.86 1.96 1.67 3.57e-43
2.88 1.96 1.28 9.1477e-41
2.89 1.96 1.19 9.1477e-41
2.92 1.96 1.14 9.1477e-41
2.94 1.96 1.04 9.1477e-41
2.95 1.96 0.92 9.1477e-41
2.96 1.96 0.74 9.1477e-41
2.96 1.96 0.56 9.1477e-41
1.45 2.03 1.75 9.1477e-41
1.51 2.03 1.77 9.1477e-41
1.56 2.03 1.78 9.1477e-41
1.62 2.03 1.79 9.1477e-41
1.66 2.03 1.78 9.1477e-41
1.72 2.03 1.8 9.1477e-41
1.76 2.03 1.78 9.1477e-41
1.81 2.03 1.8 9.1477e-41
1.86 2.03 1.8 9.1477e-41
1.9 2.03 1.79 9.1477e-41
1.94 2.03 1.79 9.1477e-41
1.99 2.03 1.79 9.1477e-41
2.03 2.03 1.8 9.1477e-41
2.07 2.03 1.79 9.1477e-41
2.12 2.03 1.8 9.1477e-41
2.16 2.03 1.79 9.1477e-41
2.2 2.03 1.79 9.1477e-41
2.24 2.03 1.79 9.1477e-41
2.28 2.03 1.79 9.1477e-41
2.32 2.03 1.79 9.1477e-41
2.36 2.03 1.78 9.1477e-41
2.4 2.03 1.79 9.1477e-41
2.44 2.03 1.77 9.1477e-41
2.48 2.03 1.78 9.1477e-41
2.52 2.03 1.77 9.1477e-41
2.56 2.03 1.78 9.1477e-41
2.59 2.03 1.76 9.1477e-41
2.63 2.03 1.76 9.1477e-41
2.67 2.03 1.75 9.1477e-41
2.7 2.03 1.74 9.1477e-41
2.74 2.03 1.74 9.1477e-41
2.77 2.03 1.72 9.1477e-41
2.79 2.03 1.67 9.1477e-41
2.82 2.03 1.67 3.57e-43
2.83 2.03 1.67 3.57e-43
2.85 2.03 1.46 9.1477e-41
2.86 2.03 1.38 9.1477e-41
2.88 2.03 1.3 9.1477e-41
2.91 2.03 1.25 9.1477e-41
2.93 2.03 1.16 9.1477e-41
2.94 2.03 1.06 9.1477e-41
2.96 2.03 0.93 9.1477e-41
2.96 2.03 0.74 9.1477e-41
2.96 2.03 0.55 9.1477e-41
1.46 2.1 1.76 9.1477e-41
1.52 2.1 1.79 9.1477e-41
1.57 2.1 1.78 9.1477e-41
1.62 2.1 1.8 9.1477e-41
1.68 2.1 1.81 9.1477e-41
1.72 2.1 1.8 9.1477e-41
1.76 2.1 1.79 9.1477e-41
1.82 2.1 1.81 9.1477e-41
1.86 2.1 1.8 9.1477e-41
1.91 2.1 1.81 9.1477e-41
1.95 2.1 1.8 9.1477e-41
1.99 2.1 1.8 9.1477e-41
2.04 2.1 1.81 9.1477e-41
2.08 2.1 1.81 9.1477e-41
2.12 2.1 1.81 9.1477e-41
2.17 2.1 1.81 9.1477e-41
2.21 2.1 1.8 9.1477e-41
2.25 2.1 1.8 9.1477e-41
2.29 2.1 1.8 9.1477e-41
2.33 2.1 1.81 9.1477e-41
2.37 2.1 1.79 9.1477e-41
2.41 2.1 1.8 9.1477e-41
2.45 2.1 1.79 9.1477e-41
2.49 2.1 1.79 9.1477e-41
2.52 2.1 1.77 9.1477e-41
2.56 2.1 1.78 9.1477e-41
2.6 2.1 1.77 9.1477e-41
2.63 2.1 1.77 9.1477e-41
2.67 2.1 1.76 9.1477e-41
2.7 2.1 1.74 9.1477e-41
2.74 2.1 1.75 9.1477e-41
2.77 2.1 1.72 9.1477e-41
2.8 2.1 1.68 9.1477e-41
2.82 2.1 1.62 9.1477e-41
2.84 2.1 1.56 9.1477e-41
2.86 2.1 1.49 9.1477e-41
2.87 2.1 1.42 9.1477e-41
2.9 2.1 1.36 9.1477e-41
2.91 2.1 1.26 9.1477e-41
2.93 2.1 1.17 9.1477e-41
2.94 2.1 1.05 9.1477e-41
2.95 2.1 0.92 9.1477e-41
2.96 2.1 0.74 9.1477e-41
2.96 2.1 0.55 9.1477e-41
1.47 2.17 1.78 9.1477e-41
1.52 2.17 1.79 9.1477e-41
1.57 2.17 1.79 9.1477e-41
1.63 2.17 1.8 9.1477e-41
1.68 2.17 1.81 9.1477e-41
1.73 2.17 1.81 9.1477e-41
1.77 2.17 1.81 9.1477e-41
1.82 2.17 1.81 9.1477e-41
1.87 2.17 1.81 9.1477e-41
1.91 2.17 1.81 9.1477e-41
1.95 2.17 1.81 9.1477e-41
2 2.17 1.82 9.1477e-41
2.04 2.17 1.81 9.1477e-41
2.09 2.17 1.82 9.1477e-41
2.13 2.17 1.82 9.1477e-41
2.16 2.17 1.8 9.1477e-41
2.21 2.17 1.81 9.1477e-41
2.25 2.17 1.81 9.1477e-41
2.29 2.17 1.81 9.1477e-41
2.33 2.17 1.81 9.1477e-41
2.37 2.17 1.8 9.1477e-41
2.41 2.17 1.81 9.1477e-41
2.45 2.17 1.8 9.1477e-41
2.49 2.17 1.8 9.1477e-41
2.53 2.17 1.79 9.1477e-41
2.57 2.17 1.8 9.1477e-41
2.6 2.17 1.78 9.1477e-41
2.64 2.17 1.78 9.1477e-41
2.68 2.17 1.78 9.1477e-41
2.71 2.17 1.77 9.1477e-41
2.75 2.17 1.76 9.1477e-41
2.78 2.17 1.73 9.1477e-41
2.8 2.17 1.69 9.1477e-41
2.82 2.17 1.63 9.1477e-41
2.84 2.17 1.57 9.1477e-41
2.86 2.17 1.5 9.1477e-41
2.88 2.17 1.44 9.1477e-41
2.9 2.17 1.35 9.1477e-41
2.91 2.17 1.26 9.1477e-41
2.93 2.17 1.15 9.1477e-41
2.94 2.17 1.06 9.1477e-41
2.96 2.17 0.93 9.1477e-41
2.96 2.17 0.75 9.1477e-41
2.96 2.17 0.55 9.1477e-41
1.47 2.24 1.78 9.1477e-41
1.53 2.24 1.8 9.1477e-41
1.58 2.24 1.81 9.1477e-41
1.63 2.24 1.8 9.1477e-41
1.68 2.24 1.81 9.1477e-41
1.73 2.24 1.81 9.1477e-41
1.78 2.24 1.82 9.1477e-41
1.82 2.24 1.81 9.1477e-41
1.88 2.24 1.83 9.1477e-41
1.91 2.24 1.82 9.1477e-41
1.96 2.24 1.82 9.1477e-41
2.01 2.24 1.83 9.1477e-41
2.04 2.24 1.82 9.1477e-41
2.09 2.24 1.82 9.1477e-41
2.13 2.24 1.82 9.1477e-41
2.17 2.24 1.82 9.1477e-41
2.21 2.24 1.81 9.1477e-41
2.26 2.24 1.82 9.1477e-41
2.29 2.24 1.81 9.1477e-41
2.34 2.24 1.82 9.1477e-41
2.38 2.24 1.82 9.1477e-41
2.41 2.24 1.81 9.1477e-41
2.45 2.24 1.81 9.1477e-41
2.49 2.24 1.79 9.1477e-41
2.53 2.24 1.8 9.1477e-41
2.57 2.24 1.8 9.1477e-41
2.6 2.24 1.79 9.1477e-41
2.64 2.24 1.78 9.1477e-41
2.68 2.24 1.78 9.1477e-41
2.71 2.24 1.77 9.1477e-41
2.75 2.24 1.76 9.1477e-41
2.78 2.24 1.73 9.1477e-41
2.8 2.24 1.69 9.1477e-41
2.82 2.24 1.69 3.57e-43
2.84 2.24 1.69 3.57e-43
2.86 2.24 1.69 3.57e-43
2.88 2.24 1.69 3.57e-43
2.9 2.24 1.35 9.1477e-41
2.9 2.24 1.2 9.1477e-41
2.93 2.24 1.15 9.1477e-41
2.94 2.24 1.06 9.1477e-41
2.96 2.24 0.94 9.1477e-41
2.96 2.24 0.75 9.1477e-41
2.96 2.24 0.56 9.1477e-41
1.43 2.31 1.8 9.1477e-41
1.47 2.31 1.79 9.1477e-41
1.53 2.31 1.81 9.1477e-41
1.58 2.31 1.81 9.1477e-41
1.63 2.31 1.81 9.1477e-41
1.68 2.31 1.82 9.1477e-41
1.73 2.31 1.82 9.1477e-41
1.78 2.31 1.82 9.1477e-41
1.83 2.31 1.82 9.1477e-41
1.87 2.31 1.82 9.1477e-41
1.92 2.31 1.83 9.1477e-41
1.96 2.31 1.83 9.1477e-41
2 2.31 1.82 9.1477e-41
2.05 2.31 1.83 9.1477e-41
2.1 2.31 1.83 9.1477e-41
2.13 2.31 1.82 9.1477e-41
2.17 2.31 1.82 9.1477e-41
2.22 2.31 1.83 9.1477e-41
2.25 2.31 1.81 9.1477e-41
2.29 2.31 1.81 9.1477e-41
2.34 2.31 1.83 9.1477e-41
2.38 2.31 1.82 9.1477e-41
2.41 2.31 1.81 9.1477e-41
2.45 2.31 1.81 9.1477e-41
2.49 2.31 1.8 9.1477e-41
2.53 2.31 1.8 9.1477e-41
2.57 2.31 1.8 9.1477e-41
2.61 2.31 1.81 9.1477e-41
2.65 2.31 1.8 9.1477e-41
2.68 2.31 1.78 9.1477e-41
2.72 2.31 1.78 9.1477e-41
2.75 2.31 1.76 9.1477e-41
2.78 2.31 1.73 9.1477e-41
2.8 2.31 1.69 9.1477e-41
2.83 2.31 1.69 3.57e-43
2.84 2.31 1.69 3.57e-43
2.86 2.31 1.69 3.57e-43
2.88 2.31 1.69 3.57e-43
2.9 2.31 1.69 3.57e-43
2.9 2.31 1.2 9.1477e-41
2.92 2.31 1.13 9.1477e-41
2.94 2.31 1.06 9.1477e-41
2.96 2.31 0.93 9.1477e-41
2.96 2.31 0.75 9.1477e-41
2.96 2.31 0.55 9.1477e-41
1.44 2.38 1.81 9.1477e-41
1.48 2.38 1.8 9.1477e-41
1.54 2.38 1.81 9.1477e-41
1.59 2.38 1.82 9.1477e-41
1.64 2.38 1.82 9.1477e-41
1.68 2.38 1.82 9.1477e-41
1.73 2.38 1.82 9.1477e-41
1.78 2.38 1.83 9.1477e-41
1.84 2.38 1.84 9.1477e-41
1.88 2.38 1.83 9.1477e-41
1.92 2.38 1.84 9.1477e-41
1.96 2.38 1.83 9.1477e-41
2.01 2.38 1.83 9.1477e-41
2.05 2.38 1.83 9.1477e-41
2.09 2.38 1.83 9.1477e-41
2.14 2.38 1.83 9.1477e-41
2.17 2.38 1.82 9.1477e-41
2.21 2.38 1.82 9.1477e-41
2.26 2.38 1.82 9.1477e-41
2.3 2.38 1.82 9.1477e-41
2.34 2.38 1.83 9.1477e-41
2.38 2.38 1.82 9.1477e-41
2.42 2.38 1.83 9.1477e-41
2.46 2.38 1.82 9.1477e-41
2.5 2.38 1.82 9.1477e-41
2.53 2.38 1.81 9.1477e-41
2.57 2.38 1.8 9.1477e-41
2.61 2.38 1.8 9.1477e-41
2.65 2.38 1.8 9.1477e-41
2.68 2.38 1.78 9.1477e-41
2.72 2.38 1.79 9.1477e-41
2.75 2.38 1.77 9.1477e-41
2.78 2.38 1.74 9.1477e-41
2.8 2.38 1.74 3.57e-43
2.83 2.38 1.74 3.57e-43
2.84 2.38 1.74 3.57e-43
2.86 2.38 1.74 3.57e-43
2.88 2.38 1.74 3.57e-43
2.9 2.38 1.74 3.57e-43
2.9 2.38 1.2 9.1477e-41
2.92 2.38 1.13 9.1477e-41
2.94 2.38 1.06 9.1477e-41
2.96 2.38 0.93 9.1477e-41
2.96 2.38 0.76 9.1477e-41
2.95 2.38 0.52 9.1477e-41
1.44 2.45 1.82 9.1477e-41
1.48 2.45 1.8 9.1477e-41
1.54 2.45 1.81 9.1477e-41
1.6 2.45 1.83 9.1477e-41
1.64 2.45 1.83 9.1477e-41
1.69 2.45 1.83 9.1477e-41
1.74 2.45 1.83 9.1477e-41
1.79 2.45 1.83 9.1477e-41
1.83 2.45 1.83 9.1477e-41
1.88 2.45 1.84 9.1477e-41
1.92 2.45 1.83 9.1477e-41
1.97 2.45 1.84 9.1477e-41
2.01 2.45 1.84 9.1477e-41
2.06 2.45 1.84 9.1477e-41
2.1 2.45 1.83 9.1477e-41
2.14 2.45 1.83 9.1477e-41
2.18 2.45 1.84 9.1477e-41
2.22 2.45 1.83 9.1477e-41
2.27 2.45 1.84 9.1477e-41
2.3 2.45 1.82 9.1477e-41
2.34 2.45 1.83 9.1477e-41
2.38 2.45 1.82 9.1477e-41
2.42 2.45 1.82 9.1477e-41
2.46 2.45 1.83 9.1477e-41
2.5 2.45 1.82 9.1477e-41
2.54 2.45 1.82 9.1477e-41
2.57 2.45 1.81 9.1477e-41
2.61 2.45 1.81 9.1477e-41
2.64 2.45 1.79 9.1477e-41
2.68 2.45 1.79 9.1477e-41
2.72 2.45 1.79 9.1477e-41
2.75 2.45 1.77 9.1477e-41
2.78 2.45 1.75 9.1477e-41
2.8 2.45 1.75 3.57e-43
2.83 2.45 1.75 3.57e-43
2.84 2.45 1.75 3.57e-43
2.86 2.45 1.75 3.57e-43
2.88 2.45 1.75 3.57e-43
2.9 2.45 1.75 3.57e-43
2.9 2.45 1.2 9.1477e-41
2.92 2.45 1.12 9.1477e-41
2.95 2.45 1.07 9.1477e-41
2.96 2.45 0.94 9.1477e-41
2.96 2.45 0.75 9.1477e-41
2.95 2.45 0.51 9.1477e-41
1.45 2.52 1.83 9.1477e-41
1.48 2.52 1.8 9.1477e-41
1.55 2.52 1.82 9.1477e-41
1.6 2.52 1.83 9.1477e-41
1.65 2.52 1.84 9.1477e-41
1.69 2.52 1.83 9.1477e-41
1.74 2.52 1.83 9.1477e-41
1.79 2.52 1.84 9.1477e-41
1.83 2.52 1.83 9.1477e-41
1.88 2.52 1.84 9.1477e-41
1.93 2.52 1.85 9.1477e-41
1.97 2.52 1.84 9.1477e-41
2.01 2.52 1.83 9.1477e-41
2.06 2.52 1.85 9.1477e-41
2.1 2.52 1.83 9.1477e-41
2.14 2.52 1.83 9.1477e-41
2.19 2.52 1.84 9.1477e-41
2.22 2.52 1.84 9.1477e-41
2.27 2.52 1.84 9.1477e-41
2.3 2.52 1.82 9.1477e-41
2.34 2.52 1.83 9.1477e-41
2.38 2.52 1.83 9.1477e-41
2.42 2.52 1.82 9.1477e-41
2.47 2.52 1.84 9.1477e-41
2.5 2.52 1.82 9.1477e-41
2.54 2.52 1.82 9.1477e-41
2.57 2.52 1.8 9.1477e-41
2.61 2.52 1.81 9.1477e-41
2.65 2.52 1.8 9.1477e-41
2.69 2.52 1.8 9.1477e-41
2.72 2.52 1.8 9.1477e-41
2.75 2.52 1.77 9.1477e-41
2.78 2.52 1.74 9.1477e-41
2.8 2.52 1.74 3.57e-43
2.83 2.52 1.74 3.57e-43
2.84 2.52 1.74 3.57e-43
2.86 2.52 1.74 3.57e-43
2.88 2.52 1.74 3.57e-43
2.9 2.52 1.74 3.57e-43
2.9 2.52 1.2 9.1477e-41
2.92 2.52 1.12 9.1477e-41
2.95 2.52 1.07 9.1477e-41
2.96 2.52 0.93 9.1477e-41
2.96 2.52 0.76 9.1477e-41
2.94 2.52 0.47 9.1477e-41
1.45 2.59 1.83 9.1477e-41
1.48 2.59 1.8 9.1477e-41
1.55 2.59 1.82 9.1477e-41
1.61 2.59 1.84 9.1477e-41
1.64 2.59 1.83 9.1477e-41
1.7 2.59 1.84 9.1477e-41
1.74 2.59 1.84 9.1477e-41
1.79 2.59 1.84 9.1477e-41
1.84 2.59 1.84 9.1477e-41
1.89 2.59 1.85 9.1477e-41
1.93 2.59 1.85 9.1477e-41
1.97 2.59 1.84 9.1477e-41
2.01 2.59 1.84 9.1477e-41
2.06 2.59 1.84 9.1477e-41
2.1 2.59 1.84 9.1477e-41
2.15 2.59 1.85 9.1477e-41
2.18 2.59 1.84 9.1477e-41
2.23 2.59 1.85 9.1477e-41
2.27 2.59 1.84 9.1477e-41
2.3 2.59 1.83 9.1477e-41
2.35 2.59 1.84 9.1477e-41
2.38 2.59 1.83 9.1477e-41
2.42 2.59 1.83 9.1477e-41
2.47 2.59 1.84 9.1477e-41
2.5 2.59 1.83 9.1477e-41
2.54 2.59 1.82 9.1477e-41
2.57 2.59 1.81 9.1477e-41
2.61 2.59 1.81 9.1477e-41
2.65 2.59 1.81 9.1477e-41
2.69 2.59 1.8 9.1477e-41
2.72 2.59 1.8 9.1477e-41
2.75 2.59 1.77 9.1477e-41
2.78 2.59 1.74 9.1477e-41
2.8 2.59 1.74 3.57e-43
2.83 2.59 1.74 3.57e-43
2.84 2.59 1.74 3.57e-43
2.86 2.59 1.74 3.57e-43
2.88 2.59 1.74 3.57e-43
2.9 2.59 1.74 3.57e-43
2.9 2.59 1.2 9.1477e-41
2.92 2.59 1.12 9.1477e-41
2.94 2.59 1.05 9.1477e-41
2.96 2.59 0.93 9.1477e-41
2.96 2.59 0.75 9.1477e-41
2.94 2.59 0.45 9.1477e-41
1.46 2.66 1.83 9.1477e-41
1.49 2.66 1.81 9.1477e-41
1.55 2.66 1.83 9.1477e-41
1.6 2.66 1.83 9.1477e-41
1.65 2.66 1.84 9.1477e-41
1.7 2.66 1.84 9.1477e-41
1.74 2.66 1.84 9.1477e-41
1.79 2.66 1.84 9.1477e-41
1.84 2.66 1.85 9.1477e-41
1.89 2.66 1.85 9.1477e-41
1.93 2.66 1.85 9.1477e-41
1.97 2.66 1.84 9.1477e-41
2.02 2.66 1.85 9.1477e-41
2.06 2.66 1.85 9.1477e-41
2.1 2.66 1.85 9.1477e-41
2.14 2.66 1.84 9.1477e-41
2.18 2.66 1.84 9.1477e-41
2.23 2.66 1.85 9.1477e-41
2.27 2.66 1.85 9.1477e-41
2.31 2.66 1.84 9.1477e-41
2.35 2.66 1.84 9.1477e-41
2.39 2.66 1.84 9.1477e-41
2.42 2.66 1.83 9.1477e-41
2.46 2.66 1.83 9.1477e-41
2.5 2.66 1.83 9.1477e-41
2.54 2.66 1.83 9.1477e-41
2.58 2.66 1.82 9.1477e-41
2.61 2.66 1.82 9.1477e-41
2.65 2.66 1.8 9.1477e-41
2.69 2.66 1.8 9.1477e-41
2.72 2.66 1.8 9.1477e-41
2.75 2.66 1.77 9.1477e-41
2.78 2.66 1.75 9.1477e-41
2.8 2.66 1.75 3.57e-43
2.83 2.66 1.75 3.57e-43
2.84 2.66 1.75 3.57e-43
2.86 2.66 1.75 3.57e-43
2.88 2.66 1.75 3.57e-43
2.9 2.66 1.75 3.57e-43
2.9 2.66 1.2 9.1477e-41
2.92 2.66 1.13 9.1477e-41
2.94 2.66 1.05 9.1477e-41
2.96 2.66 0.93 9.1477e-41
2.96 2.66 0.76 9.1477e-41
2.93 2.66 0.44 9.1477e-41
1.46 2.73 1.83 9.1477e-41
1.49 2.73 1.81 9.1477e-41
1.56 2.73 1.84 9.1477e-41
1.61 2.73 1.84 9.1477e-41
1.65 2.73 1.84 9.1477e-41
1.7 2.73 1.84 9.1477e-41
1.75 2.73 1.85 9.1477e-41
1.8 2.73 1.85 9.1477e-41
1.84 2.73 1.85 9.1477e-41
1.89 2.73 1.86 9.1477e-41
1.93 2.73 1.85 9.1477e-41
1.98 2.73 1.85 9.1477e-41
2.02 2.73 1.85 9.1477e-41
2.06 2.73 1.84 9.1477e-41
2.1 2.73 1.85 9.1477e-41
2.14 2.73 1.84 9.1477e-41
2.19 2.73 1.85 9.1477e-41
2.23 2.73 1.86 9.1477e-41
2.27 2.73 1.85 9.1477e-41
2.31 2.73 1.84 9.1477e-41
2.35 2.73 1.84 9.1477e-41
2.38 2.73 1.83 9.1477e-41
2.43 2.73 1.84 9.1477e-41
2.47 2.73 1.84 9.1477e-41
2.5 2.73 1.83 9.1477e-41
2.54 2.73 1.83 9.1477e-41
2.58 2.73 1.82 9.1477e-41
2.61 2.73 1.82 9.1477e-41
2.65 2.73 1.81 9.1477e-41
2.69 2.73 1.81 9.1477e-41
2.72 2.73 1.8 9.1477e-41
2.75 2.73 1.76 9.1477e-41
2.78 2.73 1.74 9.1477e-41
2.8 2.73 1.74 3.57e-43
2.83 2.73 1.74 3.57e-43
2.84 2.73 1.74 3.57e-43
2.86 2.73 1.74 3.57e-43
2.88 2.73 1.74 3.57e-43
2.9 2.73 1.74 3.57e-43
2.9 2.73 1.2 9.1477e-41
2.92 2.73 1.13 9.1477e-41
2.94 2.73 1.05 9.1477e-41
2.95 2.73 0.91 9.1477e-41
2.96 2.73 0.76 9.1477e-41
2.93 2.73 0.4 9.1477e-41
1.46 2.8 1.83 9.1477e-41
1.49 2.8 1.82 9.1477e-41
1.55 2.8 1.83 9.1477e-41
1.6 2.8 1.83 9.1477e-41
1.65 2.8 1.84 9.1477e-41
1.7 2.8 1.84 9.1477e-41
1.75 2.8 1.85 9.1477e-41
1.79 2.8 1.84 9.1477e-41
1.84 2.8 1.85 9.1477e-41
1.89 2.8 1.85 9.1477e-41
1.93 2.8 1.85 9.1477e-41
1.98 2.8 1.85 9.1477e-41
2.02 2.8 1.85 9.1477e-41
2.06 2.8 1.85 9.1477e-41
2.1 2.8 1.85 9.1477e-41
2.14 2.8 1.84 9.1477e-41
2.19 2.8 1.84 9.1477e-41
2.23 2.8 1.85 9.1477e-41
2.27 2.8 1.85 9.1477e-41
2.31 2.8 1.84 9.1477e-41
2.35 2.8 1.84 9.1477e-41
2.38 2.8 1.83 9.1477e-41
2.42 2.8 1.83 9.1477e-41
2.47 2.8 1.85 9.1477e-41
2.5 2.8 1.83 9.1477e-41
2.54 2.8 1.84 9.1477e-41
2.58 2.8 1.82 9.1477e-41
2.61 2.8 1.81 9.1477e-41
2.65 2.8 1.81 9.1477e-41
2.69 2.8 1.8 9.1477e-41
2.73 2.8 1.81 9.1477e-41
2.75 2.8 1.77 9.1477e-41
2.78 2.8 1.74 9.1477e-41
2.8 2.8 1.74 3.57e-43
2.83 2.8 1.74 3.57e-43
2.84 2.8 1.74 3.57e-43
2.86 2.8 1.74 3.57e-43
2.88 2.8 1.74 3.57e-43
2.9 2.8 1.74 3.57e-43
2.9 2.8 1.2 9.1477e-41
2.92 2.8 1.14 9.1477e-41
2.94 2.8 1.05 9.1477e-41
2.95 2.8 0.91 9.1477e-41
2.96 2.8 0.76 9.1477e-41
2.97 2.8 0.59 9.1477e-41
1.45 2.87 1.83 9.1477e-41
1.49 2.87 1.82 9.1477e-41
1.55 2.87 1.83 9.1477e-41
1.61 2.87 1.84 9.1477e-41
1.66 2.87 1.85 9.1477e-41
1.71 2.87 1.85 9.1477e-41
1.75 2.87 1.85 9.1477e-41
1.8 2.87 1.85 9.1477e-41
1.84 2.87 1.85 9.1477e-41
1.89 2.87 1.85 9.1477e-41
1.93 2.87 1.85 9.1477e-41
1.97 2.87 1.84 9.1477e-41
2.02 2.87 1.85 9.1477e-41
2.06 2.87 1.84 9.1477e-41
2.1 2.87 1.85 9.1477e-41
2.15 2.87 1.86 9.1477e-41
2.19 2.87 1.85 9.1477e-41
2.23 2.87 1.85 9.1477e-41
2.27 2.87 1.85 9.1477e-41
2.31 2.87 1.84 9.1477e-41
2.34 2.87 1.83 9.1477e-41
2.39 2.87 1.85 9.1477e-41
2.43 2.87 1.84 9.1477e-41
2.47 2.87 1.85 9.1477e-41
2.51 2.87 1.84 9.1477e-41
2.54 2.87 1.84 9.1477e-41
2.58 2.87 1.82 9.1477e-41
2.62 2.87 1.83 9.1477e-41
2.65 2.87 1.82 9.1477e-41
2.69 2.87 1.8 9.1477e-41
2.73 2.87 1.81 9.1477e-41
2.75 2.87 1.76 9.1477e-41
2.78 2.87 1.73 9.1477e-41
2.8 2.87 1.73 3.57e-43
2.83 2.87 1.73 3.57e-43
2.84 2.87 1.73 3.57e-43
2.86 2.87 1.73 3.57e-43
2.88 2.87 1.73 3.57e-43
2.9 2.87 1.73 3.57e-43
2.9 2.87 1.2 9.1477e-41
2.92 2.87 1.13 9.1477e-41
2.94 2.87 1.04 9.1477e-41
2.95 2.87 0.91 9.1477e-41
2.97 2.87 0.78 9.1477e-41
1.46 2.94 1.83 9.1477e-41
1.49 2.94 1.82 9.1477e-41
1.56 2.94 1.85 9.1477e-41
1.61 2.94 1.84 9.1477e-41
1.66 2.94 1.85 9.1477e-41
1.7 2.94 1.84 9.1477e-41
1.75 2.94 1.85 9.1477e-41
1.8 2.94 1.85 9.1477e-41
1.85 2.94 1.86 9.1477e-41
1.89 2.94 1.85 9.1477e-41
1.94 2.94 1.86 9.1477e-41
1.98 2.94 1.85 9.1477e-41
2.02 2.94 1.86 9.1477e-41
2.06 2.94 1.85 9.1477e-41
2.11 2.94 1.86 9.1477e-41
2.15 2.94 1.85 9.1477e-41
2.19 2.94 1.85 9.1477e-41
2.23 2.94 1.86 9.1477e-41
2.27 2.94 1.84 9.1477e-41
2.31 2.94 1.85 9.1477e-41
2.35 2.94 1.84 9.1477e-41
2.39 2.94 1.84 9.1477e-41
2.43 2.94 1.84 9.1477e-41
2.47 2.94 1.84 9.1477e-41
2.5 2.94 1.83 9.1477e-41
2.54 2.94 1.84 9.1477e-41
2.58 2.94 1.83 9.1477e-41
2.61 2.94 1.82 9.1477e-41
2.65 2.94 1.82 9.1477e-41
2.69 2.94 1.81 9.1477e-41
2.72 2.94 1.8 9.1477e-41
2.75 2.94 1.77 9.1477e-41
2.78 2.94 1.75 9.1477e-41
2.81 2.94 1.75 3.57e-43
2.83 2.94 1.75 3.57e-43
2.84 2.94 1.75 3.57e-43
2.86 2.94 1.75 3.57e-43
2.88 2.94 1.75 3.57e-43
2.9 2.94 1.75 3.57e-43
2.9 2.94 1.2 9.1477e-41
2.92 2.94 1.13 9.1477e-41
2.94 2.94 1.04 9.1477e-41
2.95 2.94 0.91 9.1477e-41
2.97 2.94 0.79 9.1477e-41
2.96 2.94 0.55 9.1477e-41
1.46 3.01 1.83 9.1477e-41
1.49 3.01 1.81 9.1477e-41
1.56 3.01 1.84 9.1477e-41
1.61 3.01 1.84 9.1477e-41
1.66 3.01 1.85 9.1477e-41
1.7 3.01 1.84 9.1477e-41
1.75 3.01 1.85 9.1477e-41
1.8 3.01 1.85 9.1477e-41
1.84 3.01 1.85 9.1477e-41
1.89 3.01 1.86 9.1477e-41
1.93 3.01 1.85 9.1477e-41
1.98 3.01 1.85 9.1477e-41
2.02 3.01 1.86 9.1477e-41
2.07 3.01 1.86 9.1477e-41
2.1 3.01 1.85 9.1477e-41
2.15 3.01 1.85 9.1477e-41
2.19 3.01 1.85 9.1477e-41
2.23 3.01 1.86 9.1477e-41
2.27 3.01 1.85 9.1477e-41
2.32 3.01 1.86 9.1477e-41
2.35 3.01 1.84 9.1477e-41
2.39 3.01 1.84 9.1477e-41
2.43 3.01 1.85 9.1477e-41
2.46 3.01 1.83 9.1477e-41
2.51 3.01 1.84 9.1477e-41
2.54 3.01 1.84 9.1477e-41
2.58 3.01 1.82 9.1477e-41
2.61 3.01 1.82 9.1477e-41
2.65 3.01 1.81 9.1477e-41
2.69 3.01 1.81 9.1477e-41
2.72 3.01 1.8 9.1477e-41
2.75 3.01 1.78 9.1477e-41
2.78 3.01 1.74 9.1477e-41
2.81 3.01 1.74 3.57e-43
2.83 3.01 1.74 3.57e-43
2.84 3.01 1.74 3.57e-43
2.86 3.01 1.74 3.57e-43
2.88 3.01 1.74 3.57e-43
2.9 3.01 1.35 9.1477e-41
2.89 3.01 1.16 9.1477e-41
2.92 3.01 1.13 9.1477e-41
2.94 3.01 1.03 9.1477e-41
2.95 3.01 0.91 9.1477e-41
2.97 3.01 0.81 9.1477e-41
2.93 3.01 0.4 9.1477e-41
1.49 3.08 1.81 9.1477e-41
1.55 3.08 1.83 9.1477e-41
1.6 3.08 1.83 9.1477e-41
1.65 3.08 1.84 9.1477e-41
1.69 3.08 1.83 9.1477e-41
1.75 3.08 1.85 9.1477e-41
1.8 3.08 1.85 9.1477e-41
1.84 3.08 1.84 9.1477e-41
1.89 3.08 1.86 9.1477e-41
1.93 3.08 1.85 9.1477e-41
1.98 3.08 1.86 9.1477e-41
2.02 3.08 1.85 9.1477e-41
2.06 3.08 1.85 9.1477e-41
2.1 3.08 1.85 9.1477e-41
2.15 3.08 1.85 9.1477e-41
2.19 3.08 1.85 9.1477e-41
2.23 3.08 1.86 9.1477e-41
2.27 3.08 1.86 9.1477e-41
2.31 3.08 1.85 9.1477e-41
2.35 3.08 1.84 9.1477e-41
2.39 3.08 1.85 9.1477e-41
2.43 3.08 1.85 9.1477e-41
2.47 3.08 1.84 9.1477e-41
2.5 3.08 1.83 9.1477e-41
2.54 3.08 1.84 9.1477e-41
2.58 3.08 1.82 9.1477e-41
2.61 3.08 1.82 9.1477e-41
2.65 3.08 1.82 9.1477e-41
2.69 3.08 1.81 9.1477e-41
2.72 3.08 1.79 9.1477e-41
2.75 3.08 1.77 9.1477e-41
2.78 3.08 1.73 9.1477e-41
2.8 3.08 1.73 3.57e-43
2.83 3.08 1.73 3.57e-43
2.84 3.08 1.73 3.57e-43
2.86 3.08 1.73 3.57e-43
2.88 3.08 1.73 3.57e-43
2.9 3.08 1.35 9.1477e-41
2.89 3.08 1.17 9.1477e-41
2.92 3.08 1.13 9.1477e-41
2.94 3.08 1.03 9.1477e-41
2.96 3.08 0.93 9.1477e-41
2.97 3.08 0.82 9.1477e-41
2.93 3.08 0.41 9.1477e-41
1.46 3.15 1.83 9.1477e-41
1.49 3.15 1.82 9.1477e-41
1.55 3.15 1.83 9.1477e-41
1.61 3.15 1.84 9.1477e-41
1.66 3.15 1.85 9.1477e-41
1.71 3.15 1.85 9.1477e-41
1.75 3.15 1.85 9.1477e-41
1.8 3.15 1.85 9.1477e-41
1.84 3.15 1.85 9.1477e-41
1.89 3.15 1.86 9.1477e-41
1.93 3.15 1.85 9.1477e-41
1.98 3.15 1.86 9.1477e-41
2.02 3.15 1.86 9.1477e-41
2.06 3.15 1.85 9.1477e-41
2.1 3.15 1.85 9.1477e-41
2.15 3.15 1.86 9.1477e-41
2.19 3.15 1.84 9.1477e-41
2.23 3.15 1.86 9.1477e-41
2.27 3.15 1.84 9.1477e-41
2.31 3.15 1.85 9.1477e-41
2.35 3.15 1.85 9.1477e-41
2.39 3.15 1.85 9.1477e-41
2.43 3.15 1.84 9.1477e-41
2.46 3.15 1.83 9.1477e-41
2.51 3.15 1.84 9.1477e-41
2.54 3.15 1.82 9.1477e-41
2.58 3.15 1.83 9.1477e-41
2.61 3.15 1.82 9.1477e-41
2.65 3.15 1.82 9.1477e-41
2.69 3.15 1.81 9.1477e-41
2.72 3.15 1.8 9.1477e-41
2.75 3.15 1.77 9.1477e-41
2.78 3.15 1.73 9.1477e-41
2.8 3.15 1.73 3.57e-43
2.83 3.15 1.73 3.57e-43
2.84 3.15 1.73 3.57e-43
2.86 3.15 1.73 3.57e-43
2.88 3.15 1.73 3.57e-43
2.9 3.15 1.35 9.1477e-41
2.89 3.15 1.17 9.1477e-41
2.92 3.15 1.12 9.1477e-41
2.93 3.15 1.02 9.1477e-41
2.95 3.15 0.92 9.1477e-41
2.97 3.15 0.81 9.1477e-41
1.49 3.22 1.81 9.1477e-41
1.55 3.22 1.83 9.1477e-41
1.61 3.22 1.84 9.1477e-41
1.66 3.22 1.85 9.1477e-41
1.7 3.22 1.84 9.1477e-41
1.75 3.22 1.85 9.1477e-41
1.79 3.22 1.84 9.1477e-41
1.84 3.22 1.85 9.1477e-41
1.89 3.22 1.85 9.1477e-41
1.93 3.22 1.85 9.1477e-41
1.98 3.22 1.85 9.1477e-41
2.01 3.22 1.84 9.1477e-41
2.06 3.22 1.85 9.1477e-41
2.1 3.22 1.85 9.1477e-41
2.15 3.22 1.85 9.1477e-41
2.19 3.22 1.84 9.1477e-41
2.23 3.22 1.85 9.1477e-41
2.27 3.22 1.85 9.1477e-41
2.31 3.22 1.85 9.1477e-41
2.35 3.22 1.84 9.1477e-41
2.39 3.22 1.84 9.1477e-41
2.43 3.22 1.84 9.1477e-41
2.47 3.22 1.84 9.1477e-41
2.51 3.22 1.84 9.1477e-41
2.54 3.22 1.84 9.1477e-41
2.58 3.22 1.83 9.1477e-41
2.61 3.22 1.82 9.1477e-41
2.65 3.22 1.81 9.1477e-41
2.69 3.22 1.8 9.1477e-41
2.72 3.22 1.79 9.1477e-41
2.75 3.22 1.76 9.1477e-41
2.78 3.22 1.74 9.1477e-41
2.8 3.22 1.74 3.57e-43
2.83 3.22 1.74 3.57e-43
2.84 3.22 1.74 3.57e-43
2.86 3.22 1.74 3.57e-43
2.88 3.22 1.74 3.57e-43
2.9 3.22 1.35 9.1477e-41
2.89 3.22 1.18 9.1477e-41
2.92 3.22 1.12 9.1477e-41
2.93 3.22 1.01 9.1477e-41
2.96 3.22 0.93 9.1477e-41
2.97 3.22 0.8 9.1477e-41
1.49 3.29 1.81 9.1477e-41
1.55 3.29 1.82 9.1477e-41
1.61 3.29 1.84 9.1477e-41
1.65 3.29 1.84 9.1477e-41
1.7 3.29 1.84 9.1477e-41
1.75 3.29 1.85 9.1477e-41
1.79 3.29 1.84 9.1477e-41
1.85 3.29 1.86 9.1477e-41
1.89 3.29 1.85 9.1477e-41
1.93 3.29 1.85 9.1477e-41
1.97 3.29 1.84 9.1477e-41
2.02 3.29 1.85 9.1477e-41
2.06 3.29 1.85 9.1477e-41
2.1 3.29 1.85 9.1477e-41
2.15 3.29 1.85 9.1477e-41
2.19 3.29 1.84 9.1477e-41
2.23 3.29 1.85 9.1477e-41
2.27 3.29 1.85 9.1477e-41
2.31 3.29 1.84 9.1477e-41
2.34 3.29 1.83 9.1477e-41
2.39 3.29 1.85 9.1477e-41
2.43 3.29 1.84 9.1477e-41
2.47 3.29 1.84 9.1477e-41
2.51 3.29 1.84 9.1477e-41
2.54 3.29 1.83 9.1477e-41
2.58 3.29 1.83 9.1477e-41
2.61 3.29 1.82 9.1477e-41
2.65 3.29 1.81 9.1477e-41
2.69 3.29 1.81 9.1477e-41
2.72 3.29 1.79 9.1477e-41
2.75 3.29 1.76 9.1477e-41
2.78 3.29 1.74 9.1477e-41
2.79 3.29 1.74 3.57e-43
2.83 3.29 1.74 3.57e-43
2.84 3.29 1.74 3.57e-43
2.86 3.29 1.74 3.57e-43
2.88 3.29 1.74 3.57e-43
2.9 3.29 1.35 9.1477e-41
2.89 3.29 1.17 9.1477e-41
2.92 3.29 1.12 9.1477e-41
2.93 3.29 1.01 9.1477e-41
2.95 3.29 0.91 9.1477e-41
2.97 3.29 0.8 9.1477e-41
2.93 3.29 0.4 9.1477e-41
1.49 3.36 1.81 9.1477e-41
1.55 3.36 1.83 9.1477e-41
1.6 3.36 1.83 9.1477e-41
1.65 3.36 1.84 9.1477e-41
1.69 3.36 1.83 9.1477e-41
1.74 3.36 1.84 9.1477e-41
1.79 3.36 1.84 9.1477e-41
1.84 3.36 1.84 9.1477e-41
1.89 3.36 1.85 9.1477e-41
1.93 3.36 1.85 9.1477e-41
1.98 3.36 1.85 9.1477e-41
2.02 3.36 1.85 9.1477e-41
2.06 3.36 1.85 9.1477e-41
2.1 3.36 1.85 9.1477e-41
2.15 3.36 1.85 9.1477e-41
2.19 3.36 1.84 9.1477e-41
2.22 3.36 1.84 9.1477e-41
2.27 3.36 1.85 9.1477e-41
2.3 3.36 1.83 9.1477e-41
2.35 3.36 1.84 9.1477e-41
2.39 3.36 1.84 9.1477e-41
2.42 3.36 1.83 9.1477e-41
2.46 3.36 1.83 9.1477e-41
2.5 3.36 1.81 9.1477e-41
2.54 3.36 1.83 9.1477e-41
2.58 3.36 1.82 9.1477e-41
2.61 3.36 1.82 9.1477e-41
2.65 3.36 1.81 9.1477e-41
2.69 3.36 1.81 9.1477e-41
2.72 3.36 1.79 9.1477e-41
2.75 3.36 1.76 9.1477e-41
2.78 3.36 1.74 9.1477e-41
2.79 3.36 1.67 9.1477e-41
2.82 3.36 1.67 3.57e-43
2.84 3.36 1.67 3.57e-43
2.86 3.36 1.67 3.57e-43
2.88 3.36 1.67 3.57e-43
2.9 3.36 1.35 9.1477e-41
2.89 3.36 1.18 9.1477e-41
2.92 3.36 1.12 9.1477e-41
2.93 3.36 1 9.1477e-41
2.95 3.36 0.89 9.1477e-41
2.96 3.36 0.77 9.1477e-41
1.49 3.43 1.81 9.1477e-41
1.54 3.43 1.81 9.1477e-41
1.6 3.43 1.83 9.1477e-41
1.64 3.43 1.83 9.1477e-41
1.69 3.43 1.83 9.1477e-41
1.75 3.43 1.85 9.1477e-41
1.79 3.43 1.84 9.1477e-41
1.84 3.43 1.84 9.1477e-41
1.88 3.43 1.84 9.1477e-41
1.92 3.43 1.84 9.1477e-41
1.97 3.43 1.84 9.1477e-41
2.01 3.43 1.84 9.1477e-41
2.06 3.43 1.85 9.1477e-41
2.1 3.43 1.84 9.1477e-41
2.14 3.43 1.84 9.1477e-41
2.19 3.43 1.84 9.1477e-41
2.22 3.43 1.84 9.1477e-41
2.27 3.43 1.84 9.1477e-41
2.3 3.43 1.83 9.1477e-41
2.34 3.43 1.83 9.1477e-41
2.39 3.43 1.84 9.1477e-41
2.43 3.43 1.84 9.1477e-41
2.47 3.43 1.84 9.1477e-41
2.5 3.43 1.82 9.1477e-41
2.54 3.43 1.82 9.1477e-41
2.58 3.43 1.82 9.1477e-41
2.61 3.43 1.81 9.1477e-41
2.65 3.43 1.8 9.1477e-41
2.69 3.43 1.81 9.1477e-41
2.72 3.43 1.78 9.1477e-41
2.75 3.43 1.76 9.1477e-41
2.77 3.43 1.72 9.1477e-41
2.8 3.43 1.68 9.1477e-41
2.82 3.43 1.68 3.57e-43
2.84 3.43 1.68 3.57e-43
2.86 3.43 1.68 3.57e-43
2.88 3.43 1.68 3.57e-43
2.9 3.43 1.35 9.1477e-41
2.89 3.43 1.18 9.1477e-41
2.91 3.43 1.1 9.1477e-41
2.92 3.43 0.98 9.1477e-41
2.94 3.43 0.85 9.1477e-41
2.95 3.43 0.73 9.1477e-41
2.94 3.43 0.47 9.1477e-41
1.49 3.5 1.81 9.1477e-41
1.54 3.5 1.81 9.1477e-41
1.59 3.5 1.82 9.1477e-41
1.64 3.5 1.83 9.1477e-41
1.69 3.5 1.82 9.1477e-41
1.74 3.5 1.83 9.1477e-41
1.79 3.5 1.83 9.1477e-41
1.84 3.5 1.84 9.1477e-41
1.89 3.5 1.85 9.1477e-41
1.92 3.5 1.84 9.1477e-41
1.97 3.5 1.84 9.1477e-41
2.01 3.5 1.83 9.1477e-41
2.06 3.5 1.84 9.1477e-41
2.1 3.5 1.83 9.1477e-41
2.14 3.5 1.84 9.1477e-41
2.18 3.5 1.84 9.1477e-41
2.22 3.5 1.84 9.1477e-41
2.26 3.5 1.83 9.1477e-41
2.3 3.5 1.83 9.1477e-41
2.34 3.5 1.83 9.1477e-41
2.38 3.5 1.83 9.1477e-41
2.42 3.5 1.83 9.1477e-41
2.46 3.5 1.83 9.1477e-41
2.5 3.5 1.81 9.1477e-41
2.53 3.5 1.81 9.1477e-41
2.57 3.5 1.81 9.1477e-41
2.61 3.5 1.81 9.1477e-41
2.65 3.5 1.8 9.1477e-41
2.68 3.5 1.79 9.1477e-41
2.71 3.5 1.77 9.1477e-41
2.75 3.5 1.76 9.1477e-41
2.77 3.5 1.71 9.1477e-41
2.79 3.5 1.67 9.1477e-41
2.81 3.5 1.61 9.1477e-41
2.83 3.5 1.55 9.1477e-41
2.85 3.5 1.48 9.1477e-41
2.87 3.5 1.41 9.1477e-41
2.89 3.5 1.32 9.1477e-41
2.89 3.5 1.18 9.1477e-41
2.91 3.5 1.11 9.1477e-41
2.92 3.5 0.97 9.1477e-41
2.93 3.5 0.82 9.1477e-41
2.95 3.5 0.7 9.1477e-41
1.45 3.57 1.6 9.1477e-41
1.48 3.57 1.57 9.1477e-41
1.59 3.57 1.66 9.1477e-41
1.68 3.57 1.73 9.1477e-41
1.74 3.57 1.76 9.1477e-41
1.81 3.57 1.79 9.1477e-41
1.85 3.57 1.79 9.1477e-41
1.9 3.57 1.79 9.1477e-41
1.94 3.57 1.79 9.1477e-41
1.99 3.57 1.79 9.1477e-41
2.03 3.57 1.8 9.1477e-41
2.08 3.57 1.81 9.1477e-41
2.12 3.57 1.8 9.1477e-41
2.16 3.57 1.8 9.1477e-41
2.21 3.57 1.8 9.1477e-41
2.25 3.57 1.8 9.1477e-41
2.29 3.57 1.8 9.1477e-41
2.33 3.57 1.8 9.1477e-41
2.37 3.57 1.79 9.1477e-41
2.41 3.57 1.8 9.1477e-41
2.45 3.57 1.79 9.1477e-41
2.48 3.57 1.79 9.1477e-41
2.53 3.57 1.79 9.1477e-41
2.56 3.57 1.78 9.1477e-41
2.6 3.57 1.77 9.1477e-41
2.63 3.57 1.76 9.1477e-41
2.67 3.57 1.75 9.1477e-41
2.7 3.57 1.73 9.1477e-41
2.73 3.57 1.7 9.1477e-41
2.76 3.57 1.67 9.1477e-41
2.78 3.57 1.64 9.1477e-41
2.8 3.57 1.58 9.1477e-41
2.83 3.57 1.53 9.1477e-41
2.84 3.57 1.45 9.1477e-41
2.86 3.57 1.38 9.1477e-41
2.88 3.57 1.29 9.1477e-41
