# .PCD v.7 - Point Cloud Data file format
VERSION .7
FIELDS x y z rgb
SIZE 4 4 4 4
TYPE F F F F
WIDTH 1898
HEIGHT 1
POINTS 1898
DATA ascii
2.28 0.63 1.08 9.1477e-41
2.33 0.63 1.08 9.1477e-41
2.38 0.63 1.08 9.1477e-41
2.42 0.63 1.08 9.1477e-41
2.46 0.63 1.07 9.1477e-41
2.51 0.63 1.06 9.1477e-41
2.55 0.63 1.05 9.1477e-41
2.59 0.63 1.05 9.1477e-41
2.64 0.63 1.05 9.1477e-41
2.68 0.63 1.05 9.1477e-41
2.72 0.63 1.02 9.1477e-41
2.76 0.63 1.01 9.1477e-41
2.79 0.63 0.95 9.1477e-41
2.81 0.63 0.88 9.1477e-41
2.84 0.63 0.82 9.1477e-41
2.86 0.63 0.74 9.1477e-41
2.84 0.63 0.46 9.1477e-41
1.28 0.66 1.08 9.1477e-41
1.34 0.66 1.09 9.1477e-41
1.4 0.66 1.1 9.1477e-41
1.45 0.66 1.09 9.1477e-41
1.5 0.66 1.1 9.1477e-41
1.56 0.66 1.1 9.1477e-41
1.61 0.66 1.1 9.1477e-41
1.67 0.66 1.11 9.1477e-41
1.72 0.66 1.11 9.1477e-41
1.77 0.66 1.11 9.1477e-41
1.82 0.66 1.11 9.1477e-41
1.87 0.66 1.11 9.1477e-41
1.92 0.66 1.11 9.1477e-41
1.97 0.66 1.11 9.1477e-41
2.01 0.66 1.11 9.1477e-41
2.06 0.66 1.1 9.1477e-41
2.11 0.66 1.1 9.1477e-41
2.15 0.66 1.1 9.1477e-41
2.2 0.66 1.1 9.1477e-41
2.24 0.66 1.09 9.1477e-41
2.29 0.66 1.09 9.1477e-41
2.33 0.66 1.08 9.1477e-41
2.38 0.66 1.09 9.1477e-41
2.43 0.66 1.09 9.1477e-41
2.47 0.66 1.08 9.1477e-41
2.51 0.66 1.07 9.1477e-41
2.55 0.66 1.07 9.1477e-41
2.59 0.66 1.05 9.1477e-41
2.64 0.66 1.06 9.1477e-41
2.68 0.66 1.05 9.1477e-41
2.72 0.66 1.04 9.1477e-41
2.76 0.66 1.02 9.1477e-41
2.79 0.66 0.97 9.1477e-41
2.82 0.66 0.9 9.1477e-41
2.85 0.66 0.84 9.1477e-41
2.87 0.66 0.76 9.1477e-41
2.85 0.66 0.49 9.1477e-41
1.28 0.69 1.09 9.1477e-41
1.34 0.69 1.1 9.1477e-41
1.4 0.69 1.1 9.1477e-41
1.46 0.69 1.1 9.1477e-41
1.51 0.69 1.11 9.1477e-41
1.56 0.69 1.11 9.1477e-41
1.61 0.69 1.11 9.1477e-41
1.67 0.69 1.11 9.1477e-41
1.73 0.69 1.12 9.1477e-41
1.77 0.69 1.11 9.1477e-41
1.82 0.69 1.11 9.1477e-41
1.88 0.69 1.13 9.1477e-41
1.92 0.69 1.12 9.1477e-41
1.97 0.69 1.12 9.1477e-41
2.02 0.69 1.12 9.1477e-41
2.07 0.69 1.12 9.1477e-41
2.11 0.69 1.11 9.1477e-41
2.16 0.69 1.11 9.1477e-41
2.2 0.69 1.11 9.1477e-41
2.25 0.69 1.1 9.1477e-41
2.3 0.69 1.11 9.1477e-41
2.34 0.69 1.09 9.1477e-41
2.38 0.69 1.09 9.1477e-41
2.43 0.69 1.09 9.1477e-41
2.47 0.69 1.08 9.1477e-41
2.51 0.69 1.07 9.1477e-41
2.56 0.69 1.08 9.1477e-41
2.6 0.69 1.07 9.1477e-41
2.64 0.69 1.06 9.1477e-41
2.68 0.69 1.06 9.1477e-41
2.73 0.69 1.05 9.1477e-41
2.76 0.69 1.03 9.1477e-41
2.79 0.69 0.98 9.1477e-41
2.82 0.69 0.92 9.1477e-41
2.85 0.69 0.84 9.1477e-41
2.87 0.69 0.78 9.1477e-41
2.85 0.69 0.5 9.1477e-41
1.29 0.72 1.1 9.1477e-41
1.35 0.72 1.11 9.1477e-41
1.41 0.72 1.12 9.1477e-41
1.46 0.72 1.11 9.1477e-41
1.52 0.72 1.12 9.1477e-41
1.56 0.72 1.11 9.1477e-41
1.62 0.72 1.11 9.1477e-41
1.68 0.72 1.14 9.1477e-41
1.73 0.72 1.12 9.1477e-41
1.78 0.72 1.13 9.1477e-41
1.83 0.72 1.13 9.1477e-41
1.88 0.72 1.13 9.1477e-41
1.93 0.72 1.13 9.1477e-41
1.97 0.72 1.13 9.1477e-41
2.02 0.72 1.13 9.1477e-41
2.07 0.72 1.13 9.1477e-41
2.12 0.72 1.13 9.1477e-41
2.16 0.72 1.12 9.1477e-41
2.2 0.72 1.11 9.1477e-41
2.26 0.72 1.12 9.1477e-41
2.3 0.72 1.12 9.1477e-41
2.34 0.72 1.1 9.1477e-41
2.39 0.72 1.1 9.1477e-41
2.43 0.72 1.1 9.1477e-41
2.47 0.72 1.09 9.1477e-41
2.52 0.72 1.09 9.1477e-41
2.56 0.72 1.09 9.1477e-41
2.6 0.72 1.08 9.1477e-41
2.65 0.72 1.08 9.1477e-41
2.69 0.72 1.08 9.1477e-41
2.73 0.72 1.06 9.1477e-41
2.77 0.72 1.04 9.1477e-41
2.8 0.72 1 9.1477e-41
2.82 0.72 0.93 9.1477e-41
2.85 0.72 0.86 9.1477e-41
2.88 0.72 0.78 9.1477e-41
2.83 0.72 0.41 9.1477e-41
1.29 0.75 1.1 9.1477e-41
1.35 0.75 1.11 9.1477e-41
1.41 0.75 1.12 9.1477e-41
1.47 0.75 1.13 9.1477e-41
1.52 0.75 1.12 9.1477e-41
1.58 0.75 1.14 9.1477e-41
1.62 0.75 1.12 9.1477e-41
1.68 0.75 1.14 9.1477e-41
1.73 0.75 1.13 9.1477e-41
1.78 0.75 1.12 9.1477e-41
1.83 0.75 1.14 9.1477e-41
1.88 0.75 1.14 9.1477e-41
1.93 0.75 1.13 9.1477e-41
1.98 0.75 1.13 9.1477e-41
2.03 0.75 1.13 9.1477e-41
2.07 0.75 1.13 9.1477e-41
2.12 0.75 1.13 9.1477e-41
2.17 0.75 1.14 9.1477e-41
2.21 0.75 1.12 9.1477e-41
2.25 0.75 1.11 9.1477e-41
2.3 0.75 1.12 9.1477e-41
2.34 0.75 1.11 9.1477e-41
2.39 0.75 1.11 9.1477e-41
2.43 0.75 1.1 9.1477e-41
2.48 0.75 1.1 9.1477e-41
2.52 0.75 1.1 9.1477e-41
2.56 0.75 1.09 9.1477e-41
2.61 0.75 1.09 9.1477e-41
2.65 0.75 1.09 9.1477e-41
2.69 0.75 1.08 9.1477e-41
2.73 0.75 1.06 9.1477e-41
2.77 0.75 1.05 9.1477e-41
2.8 0.75 1.01 9.1477e-41
2.82 0.75 0.93 9.1477e-41
2.86 0.75 0.88 9.1477e-41
2.88 0.75 0.79 9.1477e-41
2.84 0.75 0.46 9.1477e-41
1.2 0.78 1.04 9.1477e-41
1.29 0.78 1.1 9.1477e-41
1.36 0.78 1.12 9.1477e-41
1.42 0.78 1.13 9.1477e-41
1.47 0.78 1.13 9.1477e-41
1.52 0.78 1.13 9.1477e-41
1.58 0.78 1.14 9.1477e-41
1.63 0.78 1.14 9.1477e-41
1.68 0.78 1.14 9.1477e-41
1.74 0.78 1.14 9.1477e-41
1.79 0.78 1.15 9.1477e-41
1.83 0.78 1.14 9.1477e-41
1.88 0.78 1.14 9.1477e-41
1.93 0.78 1.14 9.1477e-41
1.98 0.78 1.14 9.1477e-41
2.03 0.78 1.14 9.1477e-41
2.08 0.78 1.14 9.1477e-41
2.12 0.78 1.14 9.1477e-41
2.17 0.78 1.14 9.1477e-41
2.21 0.78 1.13 9.1477e-41
2.26 0.78 1.13 9.1477e-41
2.3 0.78 1.13 9.1477e-41
2.35 0.78 1.12 9.1477e-41
2.39 0.78 1.12 9.1477e-41
2.44 0.78 1.12 9.1477e-41
2.48 0.78 1.1 9.1477e-41
2.52 0.78 1.1 9.1477e-41
2.57 0.78 1.1 9.1477e-41
2.61 0.78 1.11 9.1477e-41
2.65 0.78 1.1 9.1477e-41
2.69 0.78 1.08 9.1477e-41
2.74 0.78 1.09 9.1477e-41
2.77 0.78 1.06 9.1477e-41
2.8 0.78 1.02 9.1477e-41
2.83 0.78 0.95 9.1477e-41
2.86 0.78 0.88 9.1477e-41
2.88 0.78 0.8 9.1477e-41
2.84 0.78 0.45 9.1477e-41
1.23 0.81 1.1 9.1477e-41
1.3 0.81 1.12 9.1477e-41
1.37 0.81 1.14 9.1477e-41
1.43 0.81 1.14 9.1477e-41
1.48 0.81 1.14 9.1477e-41
1.53 0.81 1.14 9.1477e-41
1.58 0.81 1.14 9.1477e-41
1.63 0.81 1.14 9.1477e-41
1.68 0.81 1.14 9.1477e-41
1.73 0.81 1.12 9.1477e-41
1.77 0.81 1.1 9.1477e-41
1.81 0.81 1.09 9.1477e-41
1.86 0.81 1.1 9.1477e-41
1.92 0.81 1.11 9.1477e-41
1.97 0.81 1.12 9.1477e-41
2.02 0.81 1.13 9.1477e-41
2.07 0.81 1.13 9.1477e-41
2.12 0.81 1.14 9.1477e-41
2.17 0.81 1.14 9.1477e-41
2.21 0.81 1.13 9.1477e-41
2.26 0.81 1.14 9.1477e-41
2.31 0.81 1.13 9.1477e-41
2.35 0.81 1.13 9.1477e-41
2.39 0.81 1.12 9.1477e-41
2.44 0.81 1.12 9.1477e-41
2.48 0.81 1.11 9.1477e-41
2.53 0.81 1.12 9.1477e-41
2.57 0.81 1.1 9.1477e-41
2.61 0.81 1.11 9.1477e-41
2.65 0.81 1.11 9.1477e-41
2.69 0.81 1.09 9.1477e-41
2.74 0.81 1.09 9.1477e-41
2.77 0.81 1.07 9.1477e-41
2.8 0.81 1.02 9.1477e-41
2.83 0.81 0.96 9.1477e-41
2.86 0.81 0.89 9.1477e-41
2.88 0.81 0.81 9.1477e-41
2.84 0.81 0.45 9.1477e-41
1.25 0.84 1.12 9.1477e-41
1.32 0.84 1.14 9.1477e-41
1.38 0.84 1.15 9.1477e-41
1.42 0.84 1.13 9.1477e-41
1.48 0.84 1.14 9.1477e-41
1.49 0.84 1.06 9.1477e-41
1.54 0.84 1.07 9.1477e-41
1.59 0.84 1.07 9.1477e-41
1.64 0.84 1.07 9.1477e-41
1.7 0.84 1.08 9.1477e-41
1.76 0.84 1.09 9.1477e-41
1.8 0.84 1.08 9.1477e-41
1.85 0.84 1.08 9.1477e-41
1.9 0.84 1.07 9.1477e-41
1.95 0.84 1.07 9.1477e-41
2 0.84 1.07 9.1477e-41
2.04 0.84 1.07 3.57e-43
2.12 0.84 1.07 3.57e-43
2.17 0.84 1.14 9.1477e-41
2.19 0.84 1.08 9.1477e-41
2.24 0.84 1.09 9.1477e-41
2.29 0.84 1.1 9.1477e-41
2.35 0.84 1.12 9.1477e-41
2.39 0.84 1.12 9.1477e-41
2.44 0.84 1.13 9.1477e-41
2.48 0.84 1.12 9.1477e-41
2.53 0.84 1.12 9.1477e-41
2.57 0.84 1.12 9.1477e-41
2.61 0.84 1.12 9.1477e-41
2.66 0.84 1.12 9.1477e-41
2.7 0.84 1.11 9.1477e-41
2.74 0.84 1.09 9.1477e-41
2.78 0.84 1.08 9.1477e-41
2.81 0.84 1.03 9.1477e-41
2.83 0.84 0.96 9.1477e-41
2.86 0.84 0.9 9.1477e-41
2.88 0.84 0.81 9.1477e-41
2.84 0.84 0.46 9.1477e-41
1.26 0.87 1.14 9.1477e-41
1.32 0.87 1.14 9.1477e-41
1.35 0.87 1.11 9.1477e-41
1.38 0.87 1.07 9.1477e-41
1.44 0.87 1.07 9.1477e-41
1.5 0.87 1.08 9.1477e-41
1.54 0.87 1.07 9.1477e-41
1.59 0.87 1.07 9.1477e-41
1.66 0.87 1.09 9.1477e-41
1.71 0.87 1.09 3.57e-43
1.76 0.87 1.09 9.1477e-41
1.81 0.87 1.09 3.57e-43
1.85 0.87 1.09 3.57e-43
1.9 0.87 1.09 3.57e-43
1.95 0.87 1.09 3.57e-43
2 0.87 1.07 9.1477e-41
2.05 0.87 1.09 9.1477e-41
2.1 0.87 1.09 9.1477e-41
2.15 0.87 1.08 9.1477e-41
2.19 0.87 1.08 9.1477e-41
2.24 0.87 1.08 9.1477e-41
2.28 0.87 1.08 9.1477e-41
2.32 0.87 1.06 9.1477e-41
2.36 0.87 1.05 9.1477e-41
2.42 0.87 1.06 9.1477e-41
2.48 0.87 1.11 9.1477e-41
2.53 0.87 1.12 9.1477e-41
2.57 0.87 1.12 9.1477e-41
2.61 0.87 1.12 9.1477e-41
2.66 0.87 1.14 9.1477e-41
2.7 0.87 1.11 9.1477e-41
2.74 0.87 1.1 9.1477e-41
2.78 0.87 1.09 9.1477e-41
2.81 0.87 1.04 9.1477e-41
2.83 0.87 0.97 9.1477e-41
2.86 0.87 0.9 9.1477e-41
2.89 0.87 0.82 9.1477e-41
2.83 0.87 0.42 9.1477e-41
1.27 0.9 1.15 9.1477e-41
1.3 0.9 1.11 9.1477e-41
1.34 0.9 1.09 9.1477e-41
1.38 0.9 1.09 3.57e-43
1.44 0.9 1.09 3.57e-43
1.5 0.9 1.09 3.57e-43
1.54 0.9 1.09 3.57e-43
1.59 0.9 1.09 3.57e-43
1.66 0.9 1.09 3.57e-43
1.71 0.9 1.09 3.57e-43
1.76 0.9 1.09 3.57e-43
1.81 0.9 1.09 3.57e-43
1.85 0.9 1.09 3.57e-43
1.9 0.9 1.07 9.1477e-41
1.98 0.9 1.07 3.57e-43
2 0.9 1.07 3.57e-43
2.05 0.9 1.09 9.1477e-41
2.12 0.9 1.14 9.1477e-41
2.16 0.9 1.13 9.1477e-41
2.21 0.9 1.13 9.1477e-41
2.25 0.9 1.11 9.1477e-41
2.29 0.9 1.09 9.1477e-41
2.34 0.9 1.09 9.1477e-41
2.38 0.9 1.09 9.1477e-41
2.42 0.9 1.07 9.1477e-41
2.46 0.9 1.07 9.1477e-41
2.51 0.9 1.08 9.1477e-41
2.57 0.9 1.11 9.1477e-41
2.62 0.9 1.13 9.1477e-41
2.66 0.9 1.13 9.1477e-41
2.7 0.9 1.12 9.1477e-41
2.74 0.9 1.11 9.1477e-41
2.78 0.9 1.09 9.1477e-41
2.81 0.9 1.04 9.1477e-41
2.83 0.9 0.97 9.1477e-41
2.86 0.9 0.9 9.1477e-41
2.88 0.9 0.81 9.1477e-41
2.84 0.9 0.45 9.1477e-41
1.27 0.93 1.15 9.1477e-41
1.29 0.93 1.1 9.1477e-41
1.34 0.93 1.1 3.57e-43
1.38 0.93 1.1 3.57e-43
1.44 0.93 1.07 9.1477e-41
1.53 0.93 1.15 9.1477e-41
1.59 0.93 1.15 9.1477e-41
1.64 0.93 1.15 3.57e-43
1.66 0.93 1.15 3.57e-43
1.71 0.93 1.15 3.57e-43
1.76 0.93 1.15 3.57e-43
1.81 0.93 1.15 3.57e-43
1.85 0.93 1.15 3.57e-43
1.9 0.93 1.15 3.57e-43
1.98 0.93 1.15 3.57e-43
2 0.93 1.15 3.57e-43
2.05 0.93 1.15 3.57e-43
2.12 0.93 1.15 3.57e-43
2.16 0.93 1.15 3.57e-43
2.21 0.93 1.13 9.1477e-41
2.26 0.93 1.13 3.57e-43
2.29 0.93 1.13 3.57e-43
2.34 0.93 1.13 3.57e-43
2.38 0.93 1.13 3.57e-43
2.42 0.93 1.13 3.57e-43
2.46 0.93 1.07 9.1477e-41
2.51 0.93 1.07 9.1477e-41
2.55 0.93 1.06 9.1477e-41
2.59 0.93 1.05 9.1477e-41
2.66 0.93 1.12 9.1477e-41
2.7 0.93 1.12 9.1477e-41
2.75 0.93 1.12 9.1477e-41
2.78 0.93 1.09 9.1477e-41
2.81 0.93 1.05 9.1477e-41
2.83 0.93 0.97 9.1477e-41
2.86 0.93 0.9 9.1477e-41
2.89 0.93 0.82 9.1477e-41
2.84 0.93 0.45 9.1477e-41
1.39 0.96 1.18 3.57e-43
1.44 0.96 1.17 9.1477e-41
1.49 0.96 1.17 3.57e-43
1.53 0.96 1.17 3.57e-43
1.59 0.96 1.17 3.57e-43
1.64 0.96 1.17 3.57e-43
1.66 0.96 1.17 3.57e-43
1.71 0.96 1.17 3.57e-43
1.76 0.96 1.17 3.57e-43
1.81 0.96 1.17 3.57e-43
1.85 0.96 1.17 3.57e-43
1.9 0.96 1.17 3.57e-43
1.98 0.96 1.17 3.57e-43
2 0.96 1.17 3.57e-43
2.05 0.96 1.17 3.57e-43
2.12 0.96 1.17 3.57e-43
2.16 0.96 1.17 3.57e-43
2.21 0.96 1.17 3.57e-43
2.26 0.96 1.17 3.57e-43
2.29 0.96 1.17 3.57e-43
2.34 0.96 1.17 3.57e-43
2.38 0.96 1.17 3.57e-43
2.42 0.96 1.17 3.57e-43
2.46 0.96 1.17 3.57e-43
2.51 0.96 1.17 3.57e-43
2.55 0.96 1.06 9.1477e-41
2.6 0.96 1.06 9.1477e-41
2.65 0.96 1.08 9.1477e-41
2.71 0.96 1.13 9.1477e-41
2.75 0.96 1.13 9.1477e-41
2.78 0.96 1.1 9.1477e-41
2.82 0.96 1.07 9.1477e-41
2.84 0.96 0.98 9.1477e-41
2.86 0.96 0.9 9.1477e-41
2.89 0.96 0.82 9.1477e-41
2.84 0.96 0.43 9.1477e-41
1.24 0.99 1.2 9.1477e-41
1.28 0.99 1.16 9.1477e-41
1.34 0.99 1.18 9.1477e-41
1.39 0.99 1.18 3.57e-43
1.44 0.99 1.18 3.57e-43
1.49 0.99 1.18 3.57e-43
1.53 0.99 1.18 3.57e-43
1.59 0.99 1.18 3.57e-43
1.64 0.99 1.18 3.57e-43
1.66 0.99 1.18 3.57e-43
1.71 0.99 1.18 3.57e-43
1.76 0.99 1.18 3.57e-43
1.81 0.99 1.18 3.57e-43
1.85 0.99 1.18 3.57e-43
1.9 0.99 1.18 3.57e-43
1.98 0.99 1.18 3.57e-43
2 0.99 1.18 3.57e-43
2.05 0.99 1.18 3.57e-43
2.12 0.99 1.18 3.57e-43
2.16 0.99 1.18 3.57e-43
2.21 0.99 1.18 3.57e-43
2.26 0.99 1.18 3.57e-43
2.29 0.99 1.18 3.57e-43
2.34 0.99 1.18 3.57e-43
2.38 0.99 1.18 3.57e-43
2.42 0.99 1.18 3.57e-43
2.46 0.99 1.18 3.57e-43
2.51 0.99 1.18 3.57e-43
2.55 0.99 1.18 3.57e-43
2.6 0.99 1.06 9.1477e-41
2.65 0.99 1.1 9.1477e-41
2.7 0.99 1.11 9.1477e-41
2.75 0.99 1.14 9.1477e-41
2.79 0.99 1.12 9.1477e-41
2.82 0.99 1.07 9.1477e-41
2.84 0.99 0.99 9.1477e-41
2.86 0.99 0.89 9.1477e-41
2.88 0.99 0.81 9.1477e-41
2.83 0.99 0.4 9.1477e-41
1.24 1.02 1.19 9.1477e-41
1.29 1.02 1.19 3.57e-43
1.34 1.02 1.19 3.57e-43
1.39 1.02 1.19 3.57e-43
1.44 1.02 1.19 3.57e-43
1.49 1.02 1.19 3.57e-43
1.53 1.02 1.19 3.57e-43
1.59 1.02 1.19 3.57e-43
1.64 1.02 1.19 3.57e-43
1.66 1.02 1.19 3.57e-43
1.71 1.02 1.19 3.57e-43
1.76 1.02 1.19 3.57e-43
1.81 1.02 1.19 3.57e-43
1.85 1.02 1.19 3.57e-43
1.9 1.02 1.19 3.57e-43
1.98 1.02 1.19 3.57e-43
2 1.02 1.19 3.57e-43
2.05 1.02 1.19 3.57e-43
2.12 1.02 1.19 3.57e-43
2.16 1.02 1.19 3.57e-43
2.21 1.02 1.19 3.57e-43
2.26 1.02 1.19 3.57e-43
2.29 1.02 1.19 3.57e-43
2.34 1.02 1.19 3.57e-43
2.38 1.02 1.19 3.57e-43
2.42 1.02 1.19 3.57e-43
2.46 1.02 1.19 3.57e-43
2.51 1.02 1.19 3.57e-43
2.55 1.02 1.19 3.57e-43
2.6 1.02 1.06 9.1477e-41
2.66 1.02 1.14 9.1477e-41
2.71 1.02 1.13 9.1477e-41
2.75 1.02 1.15 9.1477e-41
2.79 1.02 1.13 9.1477e-41
2.82 1.02 1.07 9.1477e-41
2.84 1.02 0.98 9.1477e-41
2.86 1.02 0.88 9.1477e-41
2.88 1.02 0.8 9.1477e-41
2.85 1.02 0.5 9.1477e-41
1.25 1.05 1.21 9.1477e-41
1.3 1.05 1.21 3.57e-43
1.34 1.05 1.21 3.57e-43
1.39 1.05 1.21 3.57e-43
1.44 1.05 1.21 3.57e-43
1.49 1.05 1.21 3.57e-43
1.53 1.05 1.21 3.57e-43
1.59 1.05 1.21 3.57e-43
1.64 1.05 1.21 3.57e-43
1.66 1.05 1.21 3.57e-43
1.71 1.05 1.21 3.57e-43
1.76 1.05 1.21 3.57e-43
1.81 1.05 1.21 3.57e-43
1.85 1.05 1.21 3.57e-43
1.9 1.05 1.21 3.57e-43
1.98 1.05 1.21 3.57e-43
2 1.05 1.21 3.57e-43
2.05 1.05 1.09 9.1477e-41
2.18 1.05 1.09 3.57e-43
2.16 1.05 1.09 3.57e-43
2.21 1.05 1.09 3.57e-43
2.26 1.05 1.09 3.57e-43
2.29 1.05 1.09 3.57e-43
2.34 1.05 1.09 3.57e-43
2.38 1.05 1.09 3.57e-43
2.42 1.05 1.09 3.57e-43
2.46 1.05 1.09 3.57e-43
2.51 1.05 1.09 3.57e-43
2.55 1.05 1.06 9.1477e-41
2.63 1.05 1.18 9.1477e-41
2.67 1.05 1.16 9.1477e-41
2.72 1.05 1.16 9.1477e-41
2.76 1.05 1.17 9.1477e-41
2.79 1.05 1.14 9.1477e-41
2.82 1.05 1.07 9.1477e-41
2.83 1.05 0.97 9.1477e-41
2.86 1.05 0.88 9.1477e-41
2.88 1.05 0.79 9.1477e-41
2.86 1.05 0.55 9.1477e-41
1.26 1.08 1.23 9.1477e-41
1.32 1.08 1.23 3.57e-43
1.34 1.08 1.23 3.57e-43
1.39 1.08 1.23 3.57e-43
1.44 1.08 1.23 3.57e-43
1.49 1.08 1.23 3.57e-43
1.53 1.08 1.23 3.57e-43
1.59 1.08 1.23 3.57e-43
1.64 1.08 1.23 3.57e-43
1.66 1.08 1.23 3.57e-43
1.71 1.08 1.23 3.57e-43
1.76 1.08 1.23 3.57e-43
1.81 1.08 1.23 3.57e-43
1.85 1.08 1.23 3.57e-43
1.9 1.08 1.23 3.57e-43
1.98 1.08 1.23 3.57e-43
2 1.08 1.23 3.57e-43
2.05 1.08 1.09 9.1477e-41
2.18 1.08 1.09 3.57e-43
2.16 1.08 1.09 3.57e-43
2.21 1.08 1.09 3.57e-43
2.26 1.08 1.09 3.57e-43
2.29 1.08 1.09 3.57e-43
2.34 1.08 1.09 3.57e-43
2.38 1.08 1.09 3.57e-43
2.42 1.08 1.09 3.57e-43
2.46 1.08 1.09 3.57e-43
2.51 1.08 1.09 3.57e-43
2.55 1.08 1.06 9.1477e-41
2.64 1.08 1.21 9.1477e-41
2.68 1.08 1.19 9.1477e-41
2.73 1.08 1.2 9.1477e-41
2.77 1.08 1.19 9.1477e-41
2.79 1.08 1.14 9.1477e-41
2.81 1.08 1.06 9.1477e-41
2.84 1.08 0.98 9.1477e-41
2.86 1.08 0.88 9.1477e-41
2.87 1.08 0.78 9.1477e-41
2.87 1.08 0.59 9.1477e-41
1.2 1.11 1.21 9.1477e-41
1.29 1.11 1.21 3.57e-43
1.32 1.11 1.21 3.57e-43
1.34 1.11 1.21 3.57e-43
1.39 1.11 1.21 3.57e-43
1.44 1.11 1.21 3.57e-43
1.49 1.11 1.21 3.57e-43
1.53 1.11 1.21 3.57e-43
1.59 1.11 1.21 3.57e-43
1.64 1.11 1.21 3.57e-43
1.66 1.11 1.21 3.57e-43
1.71 1.11 1.21 3.57e-43
1.76 1.11 1.21 3.57e-43
1.81 1.11 1.21 3.57e-43
1.85 1.11 1.21 3.57e-43
1.9 1.11 1.21 3.57e-43
1.98 1.11 1.21 3.57e-43
2 1.11 1.21 3.57e-43
2.05 1.11 1.21 3.57e-43
2.18 1.11 1.21 3.57e-43
2.16 1.11 1.21 3.57e-43
2.21 1.11 1.21 3.57e-43
2.26 1.11 1.21 3.57e-43
2.29 1.11 1.21 3.57e-43
2.34 1.11 1.21 3.57e-43
2.38 1.11 1.21 3.57e-43
2.42 1.11 1.21 3.57e-43
2.46 1.11 1.21 3.57e-43
2.51 1.11 1.21 3.57e-43
2.55 1.11 1.06 9.1477e-41
2.65 1.11 1.22 9.1477e-41
2.69 1.11 1.21 9.1477e-41
2.74 1.11 1.24 9.1477e-41
2.77 1.11 1.21 9.1477e-41
2.8 1.11 1.16 9.1477e-41
2.8 1.11 1.02 9.1477e-41
2.84 1.11 0.98 9.1477e-41
2.85 1.11 0.87 9.1477e-41
2.87 1.11 0.78 9.1477e-41
1.26 1.14 1.31 9.1477e-41
1.31 1.14 1.31 3.57e-43
1.32 1.14 1.31 3.57e-43
1.34 1.14 1.31 3.57e-43
1.39 1.14 1.31 3.57e-43
1.44 1.14 1.31 3.57e-43
1.49 1.14 1.31 3.57e-43
1.53 1.14 1.31 3.57e-43
1.59 1.14 1.31 3.57e-43
1.64 1.14 1.31 3.57e-43
1.66 1.14 1.31 3.57e-43
1.71 1.14 1.31 3.57e-43
1.76 1.14 1.31 3.57e-43
1.81 1.14 1.31 3.57e-43
1.85 1.14 1.31 3.57e-43
1.9 1.14 1.31 3.57e-43
1.98 1.14 1.31 3.57e-43
2 1.14 1.31 3.57e-43
2.05 1.14 1.31 3.57e-43
2.18 1.14 1.31 3.57e-43
2.16 1.14 1.31 3.57e-43
2.21 1.14 1.31 3.57e-43
2.26 1.14 1.31 3.57e-43
2.29 1.14 1.31 3.57e-43
2.34 1.14 1.31 3.57e-43
2.38 1.14 1.31 3.57e-43
2.42 1.14 1.31 3.57e-43
2.46 1.14 1.31 3.57e-43
2.51 1.14 1.31 3.57e-43
2.55 1.14 1.31 3.57e-43
2.65 1.14 1.22 9.1477e-41
2.7 1.14 1.26 9.1477e-41
2.75 1.14 1.27 9.1477e-41
2.77 1.14 1.22 9.1477e-41
2.81 1.14 1.19 9.1477e-41
2.8 1.14 1 9.1477e-41
2.83 1.14 0.97 9.1477e-41
2.85 1.14 0.87 9.1477e-41
2.87 1.14 0.76 9.1477e-41
2.87 1.14 0.59 9.1477e-41
1.28 1.17 1.34 9.1477e-41
1.33 1.17 1.34 9.1477e-41
1.4 1.17 1.34 3.57e-43
1.34 1.17 1.34 3.57e-43
1.39 1.17 1.34 3.57e-43
1.44 1.17 1.34 3.57e-43
1.49 1.17 1.34 3.57e-43
1.53 1.17 1.34 3.57e-43
1.59 1.17 1.34 3.57e-43
1.64 1.17 1.34 3.57e-43
1.66 1.17 1.34 3.57e-43
1.71 1.17 1.34 3.57e-43
1.76 1.17 1.34 3.57e-43
1.81 1.17 1.34 3.57e-43
1.85 1.17 1.34 3.57e-43
1.9 1.17 1.34 3.57e-43
1.98 1.17 1.34 3.57e-43
2 1.17 1.34 3.57e-43
2.05 1.17 1.34 3.57e-43
2.18 1.17 1.34 3.57e-43
2.16 1.17 1.34 3.57e-43
2.21 1.17 1.34 3.57e-43
2.26 1.17 1.34 3.57e-43
2.29 1.17 1.34 3.57e-43
2.34 1.17 1.34 3.57e-43
2.38 1.17 1.34 3.57e-43
2.42 1.17 1.34 3.57e-43
2.46 1.17 1.34 3.57e-43
2.51 1.17 1.07 9.1477e-41
2.62 1.17 1.27 9.1477e-41
2.67 1.17 1.28 9.1477e-41
2.71 1.17 1.3 9.1477e-41
2.75 1.17 1.29 9.1477e-41
2.78 1.17 1.24 9.1477e-41
2.81 1.17 1.2 9.1477e-41
2.8 1.17 1.02 9.1477e-41
2.84 1.17 0.98 9.1477e-41
2.86 1.17 0.89 9.1477e-41
2.87 1.17 0.75 9.1477e-41
2.87 1.17 0.59 9.1477e-41
1.3 1.2 1.37 9.1477e-41
1.35 1.2 1.37 3.57e-43
1.4 1.2 1.37 3.57e-43
1.34 1.2 1.37 3.57e-43
1.39 1.2 1.37 3.57e-43
1.44 1.2 1.37 3.57e-43
1.49 1.2 1.37 3.57e-43
1.53 1.2 1.37 3.57e-43
1.59 1.2 1.37 3.57e-43
1.64 1.2 1.37 3.57e-43
1.66 1.2 1.37 3.57e-43
1.71 1.2 1.37 3.57e-43
1.76 1.2 1.37 3.57e-43
1.81 1.2 1.37 3.57e-43
1.85 1.2 1.37 3.57e-43
1.9 1.2 1.37 3.57e-43
1.98 1.2 1.37 3.57e-43
2 1.2 1.37 3.57e-43
2.05 1.2 1.37 3.57e-43
2.18 1.2 1.37 3.57e-43
2.16 1.2 1.37 3.57e-43
2.21 1.2 1.37 3.57e-43
2.26 1.2 1.37 3.57e-43
2.29 1.2 1.37 3.57e-43
2.34 1.2 1.37 3.57e-43
2.38 1.2 1.37 3.57e-43
2.42 1.2 1.37 3.57e-43
2.46 1.2 1.37 3.57e-43
2.51 1.2 1.07 9.1477e-41
2.63 1.2 1.07 3.57e-43
2.67 1.2 1.28 9.1477e-41
2.73 1.2 1.34 9.1477e-41
2.76 1.2 1.3 9.1477e-41
2.79 1.2 1.26 9.1477e-41
2.79 1.2 1.14 9.1477e-41
2.81 1.2 1.03 9.1477e-41
2.84 1.2 0.98 9.1477e-41
2.86 1.2 0.89 9.1477e-41
2.86 1.2 0.74 9.1477e-41
2.87 1.2 0.59 9.1477e-41
1.27 1.23 1.41 9.1477e-41
1.31 1.23 1.41 3.57e-43
1.35 1.23 1.41 3.57e-43
1.4 1.23 1.36 9.1477e-41
1.36 1.23 1.21 9.1477e-41
1.41 1.23 1.21 9.1477e-41
1.46 1.23 1.2 9.1477e-41
1.51 1.23 1.2 3.57e-43
1.53 1.23 1.2 3.57e-43
1.59 1.23 1.2 3.57e-43
1.64 1.23 1.2 3.57e-43
1.66 1.23 1.2 3.57e-43
1.71 1.23 1.2 3.57e-43
1.76 1.23 1.2 3.57e-43
1.81 1.23 1.2 3.57e-43
1.85 1.23 1.2 3.57e-43
1.9 1.23 1.2 3.57e-43
1.98 1.23 1.2 3.57e-43
2 1.23 1.2 3.57e-43
2.05 1.23 1.2 3.57e-43
2.18 1.23 1.2 3.57e-43
2.16 1.23 1.2 3.57e-43
2.21 1.23 1.2 3.57e-43
2.26 1.23 1.2 3.57e-43
2.29 1.23 1.2 3.57e-43
2.34 1.23 1.2 3.57e-43
2.38 1.23 1.2 3.57e-43
2.42 1.23 1.2 3.57e-43
2.46 1.23 1.2 3.57e-43
2.51 1.23 1.2 3.57e-43
2.63 1.23 1.29 9.1477e-41
2.69 1.23 1.35 9.1477e-41
2.73 1.23 1.35 9.1477e-41
2.76 1.23 1.3 9.1477e-41
2.79 1.23 1.28 9.1477e-41
2.78 1.23 1.08 9.1477e-41
2.81 1.23 1.04 9.1477e-41
2.84 1.23 0.98 9.1477e-41
2.86 1.23 0.89 9.1477e-41
2.86 1.23 0.72 9.1477e-41
2.87 1.23 0.58 9.1477e-41
1.22 1.26 1.41 9.1477e-41
1.29 1.26 1.41 3.57e-43
1.31 1.26 1.41 3.57e-43
1.35 1.26 1.41 3.57e-43
1.4 1.26 1.41 3.57e-43
1.36 1.26 1.21 9.1477e-41
1.4 1.26 1.19 9.1477e-41
1.46 1.26 1.2 9.1477e-41
1.51 1.26 1.2 9.1477e-41
1.56 1.26 1.19 9.1477e-41
1.62 1.26 1.21 9.1477e-41
1.67 1.26 1.21 9.1477e-41
1.72 1.26 1.21 9.1477e-41
1.77 1.26 1.21 3.57e-43
1.76 1.26 1.21 3.57e-43
1.81 1.26 1.21 3.57e-43
1.85 1.26 1.21 3.57e-43
1.9 1.26 1.21 3.57e-43
1.98 1.26 1.21 3.57e-43
2 1.26 1.21 3.57e-43
2.05 1.26 1.21 3.57e-43
2.18 1.26 1.28 9.1477e-41
2.2 1.26 1.2 9.1477e-41
2.25 1.26 1.21 9.1477e-41
2.3 1.26 1.22 9.1477e-41
2.34 1.26 1.23 9.1477e-41
2.39 1.26 1.23 9.1477e-41
2.43 1.26 1.23 9.1477e-41
2.47 1.26 1.2 9.1477e-41
2.51 1.26 1.19 9.1477e-41
2.54 1.26 1.16 9.1477e-41
2.62 1.26 1.27 9.1477e-41
2.7 1.26 1.4 9.1477e-41
2.74 1.26 1.37 9.1477e-41
2.76 1.26 1.32 9.1477e-41
2.79 1.26 1.32 3.57e-43
2.78 1.26 1.08 9.1477e-41
2.81 1.26 1.04 9.1477e-41
2.84 1.26 0.99 9.1477e-41
2.86 1.26 0.89 9.1477e-41
2.86 1.26 0.73 9.1477e-41
2.87 1.26 0.58 9.1477e-41
1.08 1.29 1.29 9.1477e-41
1.26 1.29 1.47 9.1477e-41
1.3 1.29 1.47 3.57e-43
1.31 1.29 1.47 3.57e-43
1.35 1.29 1.47 3.57e-43
1.4 1.29 1.47 3.57e-43
1.36 1.29 1.21 9.1477e-41
1.4 1.29 1.21 3.57e-43
1.46 1.29 1.21 3.57e-43
1.51 1.29 1.21 3.57e-43
1.56 1.29 1.21 3.57e-43
1.62 1.29 1.21 9.1477e-41
1.66 1.29 1.18 9.1477e-41
1.71 1.29 1.19 9.1477e-41
1.76 1.29 1.19 3.57e-43
1.76 1.29 1.19 3.57e-43
1.81 1.29 1.19 3.57e-43
1.85 1.29 1.19 3.57e-43
1.9 1.29 1.19 3.57e-43
1.98 1.29 1.19 3.57e-43
2 1.29 1.19 3.57e-43
2.05 1.29 1.19 3.57e-43
2.18 1.29 1.28 9.1477e-41
2.19 1.29 1.19 9.1477e-41
2.25 1.29 1.21 9.1477e-41
2.3 1.29 1.22 9.1477e-41
2.34 1.29 1.23 9.1477e-41
2.38 1.29 1.21 9.1477e-41
2.42 1.29 1.21 9.1477e-41
2.47 1.29 1.2 9.1477e-41
2.51 1.29 1.19 9.1477e-41
2.55 1.29 1.19 3.57e-43
2.62 1.29 1.27 9.1477e-41
2.71 1.29 1.41 9.1477e-41
2.74 1.29 1.37 9.1477e-41
2.77 1.29 1.37 3.57e-43
2.79 1.29 1.28 9.1477e-41
2.79 1.29 1.14 9.1477e-41
2.83 1.29 1.1 9.1477e-41
2.84 1.29 1.01 9.1477e-41
2.86 1.29 0.9 9.1477e-41
2.86 1.29 0.73 9.1477e-41
2.88 1.29 0.6 9.1477e-41
1.03 1.32 1.21 9.1477e-41
1.28 1.32 1.5 9.1477e-41
1.32 1.32 1.5 3.57e-43
1.31 1.32 1.5 3.57e-43
1.35 1.32 1.5 3.57e-43
1.4 1.32 1.36 9.1477e-41
1.28 1.32 1.36 3.57e-43
1.4 1.32 1.36 3.57e-43
1.46 1.32 1.36 3.57e-43
1.51 1.32 1.36 3.57e-43
1.56 1.32 1.36 3.57e-43
1.62 1.32 1.36 3.57e-43
1.66 1.32 1.36 3.57e-43
1.71 1.32 1.36 3.57e-43
1.76 1.32 1.36 3.57e-43
1.76 1.32 1.36 3.57e-43
1.81 1.32 1.36 3.57e-43
1.85 1.32 1.36 3.57e-43
1.9 1.32 1.36 3.57e-43
1.98 1.32 1.36 3.57e-43
2 1.32 1.36 3.57e-43
2.05 1.32 1.36 3.57e-43
2.18 1.32 1.36 3.57e-43
2.19 1.32 1.36 3.57e-43
2.25 1.32 1.21 9.1477e-41
2.27 1.32 1.15 9.1477e-41
2.34 1.32 1.22 9.1477e-41
2.39 1.32 1.22 9.1477e-41
2.43 1.32 1.22 9.1477e-41
2.47 1.32 1.2 9.1477e-41
2.5 1.32 1.2 3.57e-43
2.55 1.32 1.19 9.1477e-41
2.68 1.32 1.45 9.1477e-41
2.72 1.32 1.44 9.1477e-41
2.75 1.32 1.41 9.1477e-41
2.78 1.32 1.41 3.57e-43
2.79 1.32 1.28 9.1477e-41
2.8 1.32 1.15 9.1477e-41
2.84 1.32 1.14 9.1477e-41
2.89 1.32 1.14 3.57e-43
2.86 1.32 0.9 9.1477e-41
2.91 1.32 0.92 9.1477e-41
2.87 1.32 0.56 9.1477e-41
1.29 1.35 1.52 9.1477e-41
1.34 1.35 1.52 3.57e-43
1.31 1.35 1.52 3.57e-43
1.35 1.35 1.37 9.1477e-41
1.52 1.35 1.55 9.1477e-41
1.48 1.35 1.41 9.1477e-41
1.29 1.35 1.41 3.57e-43
1.46 1.35 1.41 3.57e-43
1.51 1.35 1.41 3.57e-43
1.56 1.35 1.41 3.57e-43
1.62 1.35 1.41 3.57e-43
1.66 1.35 1.41 3.57e-43
1.71 1.35 1.41 3.57e-43
1.76 1.35 1.41 3.57e-43
1.76 1.35 1.41 3.57e-43
1.81 1.35 1.41 3.57e-43
1.85 1.35 1.41 3.57e-43
1.9 1.35 1.41 3.57e-43
1.98 1.35 1.41 3.57e-43
2 1.35 1.41 3.57e-43
2.05 1.35 1.41 3.57e-43
2.18 1.35 1.41 3.57e-43
2.19 1.35 1.41 3.57e-43
2.25 1.35 1.41 3.57e-43
2.27 1.35 1.15 9.1477e-41
2.36 1.35 1.26 9.1477e-41
2.4 1.35 1.26 3.57e-43
2.43 1.35 1.26 3.57e-43
2.47 1.35 1.26 3.57e-43
2.5 1.35 1.26 3.57e-43
2.55 1.35 1.19 9.1477e-41
2.69 1.35 1.47 9.1477e-41
2.73 1.35 1.46 9.1477e-41
2.75 1.35 1.46 3.57e-43
2.78 1.35 1.46 3.57e-43
2.79 1.35 1.28 9.1477e-41
2.8 1.35 1.16 9.1477e-41
2.81 1.35 1.04 9.1477e-41
2.87 1.35 1.11 9.1477e-41
2.95 1.35 1.26 9.1477e-41
2.99 1.35 1.26 3.57e-43
2.87 1.35 0.56 9.1477e-41
1.31 1.38 1.37 3.57e-43
1.5 1.38 1.53 9.1477e-41
1.28 1.38 1.53 3.57e-43
1.29 1.38 1.53 3.57e-43
1.46 1.38 1.2 9.1477e-41
1.74 1.38 1.59 9.1477e-41
1.78 1.38 1.59 3.57e-43
1.62 1.38 1.21 9.1477e-41
1.87 1.38 1.21 3.57e-43
1.71 1.38 1.21 3.57e-43
1.76 1.38 1.21 3.57e-43
1.76 1.38 1.21 3.57e-43
1.81 1.38 1.21 3.57e-43
1.85 1.38 1.21 3.57e-43
1.9 1.38 1.21 3.57e-43
1.98 1.38 1.21 3.57e-43
2 1.38 1.07 9.1477e-41
2.06 1.38 1.11 9.1477e-41
2.09 1.38 1.07 9.1477e-41
2.08 1.38 1.07 3.57e-43
2.25 1.38 1.07 3.57e-43
2.27 1.38 1.15 9.1477e-41
2.36 1.38 1.26 9.1477e-41
2.4 1.38 1.26 9.1477e-41
2.44 1.38 1.26 3.57e-43
2.47 1.38 1.26 3.57e-43
2.5 1.38 1.26 3.57e-43
2.55 1.38 1.19 9.1477e-41
2.7 1.38 1.5 9.1477e-41
2.73 1.38 1.47 9.1477e-41
2.76 1.38 1.44 9.1477e-41
2.76 1.38 1.3 9.1477e-41
2.74 1.38 1.1 9.1477e-41
2.77 1.38 1.07 9.1477e-41
2.81 1.38 1.05 9.1477e-41
2.84 1.38 1.01 9.1477e-41
2.89 1.38 1.01 9.1477e-41
2.98 1.38 1.01 3.57e-43
2.87 1.38 0.56 9.1477e-41
1.56 1.41 1.62 3.57e-43
1.61 1.41 1.62 3.57e-43
1.66 1.41 1.63 3.57e-43
1.46 1.41 1.2 9.1477e-41
1.74 1.41 1.2 3.57e-43
1.78 1.41 1.2 3.57e-43
1.62 1.41 1.2 3.57e-43
1.87 1.41 1.2 3.57e-43
1.71 1.41 1.2 3.57e-43
1.76 1.41 1.2 3.57e-43
1.76 1.41 1.2 3.57e-43
1.81 1.41 1.2 3.57e-43
1.85 1.41 1.2 3.57e-43
1.9 1.41 1.2 3.57e-43
1.98 1.41 1.14 9.1477e-41
2.19 1.41 1.49 9.1477e-41
2.22 1.41 1.45 9.1477e-41
2.24 1.41 1.45 3.57e-43
2.08 1.41 1.45 3.57e-43
2.25 1.41 1.45 3.57e-43
2.27 1.41 1.45 3.57e-43
2.36 1.41 1.26 9.1477e-41
2.4 1.41 1.25 9.1477e-41
2.44 1.41 1.24 9.1477e-41
2.47 1.41 1.24 3.57e-43
2.5 1.41 1.18 9.1477e-41
2.67 1.41 1.54 9.1477e-41
2.7 1.41 1.51 9.1477e-41
2.74 1.41 1.49 9.1477e-41
2.76 1.41 1.45 9.1477e-41
2.67 1.41 1.03 9.1477e-41
2.72 1.41 1.04 9.1477e-41
2.78 1.41 1.08 9.1477e-41
2.81 1.41 1.06 9.1477e-41
2.84 1.41 1.01 9.1477e-41
2.86 1.41 0.91 9.1477e-41
2.87 1.41 0.75 9.1477e-41
2.89 1.41 0.64 9.1477e-41
1.42 1.44 1.64 3.57e-43
1.46 1.44 1.62 9.1477e-41
1.51 1.44 1.62 9.1477e-41
1.56 1.44 1.62 9.1477e-41
1.61 1.44 1.62 9.1477e-41
1.66 1.44 1.63 9.1477e-41
1.71 1.44 1.63 9.1477e-41
1.76 1.44 1.63 9.1477e-41
1.81 1.44 1.64 9.1477e-41
1.86 1.44 1.63 9.1477e-41
1.9 1.44 1.63 9.1477e-41
1.94 1.44 1.62 9.1477e-41
1.98 1.44 1.62 9.1477e-41
2.03 1.44 1.62 9.1477e-41
2.07 1.44 1.62 3.57e-43
1.85 1.44 1.62 3.57e-43
1.9 1.44 1.62 3.57e-43
1.98 1.44 1.62 3.57e-43
2.19 1.44 1.49 9.1477e-41
2.25 1.44 1.54 9.1477e-41
2.28 1.44 1.51 9.1477e-41
2.33 1.44 1.51 9.1477e-41
2.37 1.44 1.5 9.1477e-41
2.43 1.44 1.56 9.1477e-41
2.48 1.44 1.57 9.1477e-41
2.52 1.44 1.57 9.1477e-41
2.55 1.44 1.54 9.1477e-41
2.59 1.44 1.54 3.57e-43
2.5 1.44 1.18 9.1477e-41
2.68 1.44 1.56 9.1477e-41
2.71 1.44 1.54 9.1477e-41
2.74 1.44 1.54 3.57e-43
2.76 1.44 1.45 9.1477e-41
2.68 1.44 1.04 9.1477e-41
2.73 1.44 1.05 9.1477e-41
2.78 1.44 1.08 9.1477e-41
2.81 1.44 1.06 9.1477e-41
2.84 1.44 1 9.1477e-41
2.86 1.44 0.91 9.1477e-41
2.87 1.44 0.76 9.1477e-41
2.88 1.44 0.61 9.1477e-41
1.31 1.47 1.63 9.1477e-41
1.36 1.47 1.62 9.1477e-41
1.42 1.47 1.64 9.1477e-41
1.48 1.47 1.64 9.1477e-41
1.53 1.47 1.64 9.1477e-41
1.58 1.47 1.66 9.1477e-41
1.63 1.47 1.66 9.1477e-41
1.67 1.47 1.65 9.1477e-41
1.72 1.47 1.65 9.1477e-41
1.78 1.47 1.66 9.1477e-41
1.82 1.47 1.65 9.1477e-41
1.86 1.47 1.65 9.1477e-41
1.91 1.47 1.66 9.1477e-41
1.96 1.47 1.67 9.1477e-41
2 1.47 1.66 9.1477e-41
2.04 1.47 1.65 9.1477e-41
2.09 1.47 1.66 9.1477e-41
2.13 1.47 1.65 9.1477e-41
2.17 1.47 1.65 9.1477e-41
2.21 1.47 1.64 9.1477e-41
2.26 1.47 1.64 9.1477e-41
2.3 1.47 1.64 9.1477e-41
2.34 1.47 1.63 9.1477e-41
2.38 1.47 1.63 9.1477e-41
2.42 1.47 1.62 9.1477e-41
2.45 1.47 1.61 9.1477e-41
2.49 1.47 1.61 9.1477e-41
2.53 1.47 1.61 3.57e-43
2.55 1.47 1.61 3.57e-43
2.59 1.47 1.61 3.57e-43
2.5 1.47 1.18 9.1477e-41
2.69 1.47 1.58 9.1477e-41
2.71 1.47 1.55 9.1477e-41
2.72 1.47 1.45 9.1477e-41
2.56 1.47 0.79 9.1477e-41
2.68 1.47 1.05 9.1477e-41
2.73 1.47 1.05 9.1477e-41
2.78 1.47 1.09 9.1477e-41
2.82 1.47 1.07 9.1477e-41
2.84 1.47 1.01 9.1477e-41
2.86 1.47 0.91 9.1477e-41
2.87 1.47 0.75 9.1477e-41
2.88 1.47 0.62 9.1477e-41
1.33 1.5 1.65 9.1477e-41
1.38 1.5 1.65 9.1477e-41
1.44 1.5 1.66 9.1477e-41
1.49 1.5 1.67 9.1477e-41
1.54 1.5 1.67 9.1477e-41
1.59 1.5 1.67 9.1477e-41
1.64 1.5 1.67 9.1477e-41
1.69 1.5 1.67 9.1477e-41
1.74 1.5 1.68 9.1477e-41
1.79 1.5 1.67 9.1477e-41
1.83 1.5 1.67 9.1477e-41
1.88 1.5 1.68 9.1477e-41
1.92 1.5 1.68 9.1477e-41
1.96 1.5 1.67 9.1477e-41
2.02 1.5 1.68 9.1477e-41
2.05 1.5 1.67 9.1477e-41
2.1 1.5 1.67 9.1477e-41
2.14 1.5 1.67 9.1477e-41
2.18 1.5 1.67 9.1477e-41
2.23 1.5 1.67 9.1477e-41
2.27 1.5 1.67 9.1477e-41
2.31 1.5 1.66 9.1477e-41
2.35 1.5 1.66 9.1477e-41
2.39 1.5 1.65 9.1477e-41
2.43 1.5 1.65 9.1477e-41
2.47 1.5 1.64 9.1477e-41
2.5 1.5 1.64 9.1477e-41
2.54 1.5 1.63 9.1477e-41
2.58 1.5 1.62 9.1477e-41
2.61 1.5 1.61 9.1477e-41
2.65 1.5 1.6 9.1477e-41
2.69 1.5 1.6 9.1477e-41
2.72 1.5 1.58 9.1477e-41
2.71 1.5 1.41 9.1477e-41
2.56 1.5 0.81 9.1477e-41
2.67 1.5 1.03 9.1477e-41
2.72 1.5 1.03 9.1477e-41
2.78 1.5 1.09 9.1477e-41
2.82 1.5 1.07 9.1477e-41
2.84 1.5 1.01 9.1477e-41
2.86 1.5 0.91 9.1477e-41
2.87 1.5 0.76 9.1477e-41
2.88 1.5 0.62 9.1477e-41
1.33 1.53 1.65 9.1477e-41
1.39 1.53 1.67 9.1477e-41
1.46 1.53 1.69 9.1477e-41
1.5 1.53 1.68 9.1477e-41
1.55 1.53 1.68 9.1477e-41
1.6 1.53 1.69 9.1477e-41
1.65 1.53 1.69 9.1477e-41
1.71 1.53 1.7 9.1477e-41
1.75 1.53 1.69 9.1477e-41
1.8 1.53 1.69 9.1477e-41
1.84 1.53 1.69 9.1477e-41
1.89 1.53 1.7 9.1477e-41
1.93 1.53 1.69 9.1477e-41
1.98 1.53 1.69 9.1477e-41
2.03 1.53 1.7 9.1477e-41
2.06 1.53 1.68 9.1477e-41
2.11 1.53 1.69 9.1477e-41
2.15 1.53 1.68 9.1477e-41
2.19 1.53 1.69 9.1477e-41
2.23 1.53 1.68 9.1477e-41
2.28 1.53 1.69 9.1477e-41
2.32 1.53 1.68 9.1477e-41
2.35 1.53 1.67 9.1477e-41
2.39 1.53 1.66 9.1477e-41
2.43 1.53 1.67 9.1477e-41
2.47 1.53 1.66 9.1477e-41
2.51 1.53 1.66 9.1477e-41
2.55 1.53 1.65 9.1477e-41
2.59 1.53 1.64 9.1477e-41
2.62 1.53 1.62 9.1477e-41
2.67 1.53 1.64 9.1477e-41
2.7 1.53 1.63 9.1477e-41
2.72 1.53 1.57 9.1477e-41
2.7 1.53 1.39 9.1477e-41
2.56 1.53 0.82 9.1477e-41
2.63 1.53 0.88 9.1477e-41
2.71 1.53 1.02 9.1477e-41
2.78 1.53 1.1 9.1477e-41
2.82 1.53 1.07 9.1477e-41
2.85 1.53 1.03 9.1477e-41
2.87 1.53 0.92 9.1477e-41
2.87 1.53 0.75 9.1477e-41
2.88 1.53 0.63 9.1477e-41
1.34 1.56 1.67 9.1477e-41
1.41 1.56 1.69 9.1477e-41
1.46 1.56 1.69 9.1477e-41
1.51 1.56 1.7 9.1477e-41
1.56 1.56 1.7 9.1477e-41
1.61 1.56 1.71 9.1477e-41
1.67 1.56 1.71 9.1477e-41
1.72 1.56 1.71 9.1477e-41
1.76 1.56 1.71 9.1477e-41
1.81 1.56 1.71 9.1477e-41
1.85 1.56 1.71 9.1477e-41
1.89 1.56 1.7 9.1477e-41
1.94 1.56 1.7 9.1477e-41
1.99 1.56 1.71 9.1477e-41
2.03 1.56 1.71 9.1477e-41
2.07 1.56 1.7 9.1477e-41
2.12 1.56 1.71 9.1477e-41
2.15 1.56 1.69 9.1477e-41
2.2 1.56 1.69 9.1477e-41
2.24 1.56 1.7 9.1477e-41
2.28 1.56 1.7 9.1477e-41
2.33 1.56 1.7 9.1477e-41
2.36 1.56 1.69 9.1477e-41
2.4 1.56 1.69 9.1477e-41
2.44 1.56 1.68 9.1477e-41
2.48 1.56 1.68 9.1477e-41
2.52 1.56 1.67 9.1477e-41
2.56 1.56 1.67 9.1477e-41
2.59 1.56 1.66 9.1477e-41
2.63 1.56 1.64 9.1477e-41
2.67 1.56 1.64 9.1477e-41
2.7 1.56 1.63 9.1477e-41
2.71 1.56 1.54 9.1477e-41
2.52 1.56 0.83 9.1477e-41
2.56 1.56 0.82 9.1477e-41
2.6 1.56 0.78 9.1477e-41
2.71 1.56 1 9.1477e-41
2.79 1.56 1.11 9.1477e-41
2.82 1.56 1.08 9.1477e-41
2.85 1.56 1.02 9.1477e-41
2.87 1.56 0.93 9.1477e-41
2.87 1.56 0.75 9.1477e-41
2.88 1.56 0.63 9.1477e-41
1.35 1.59 1.69 9.1477e-41
1.42 1.59 1.7 9.1477e-41
1.47 1.59 1.71 9.1477e-41
1.52 1.59 1.71 9.1477e-41
1.58 1.59 1.72 9.1477e-41
1.63 1.59 1.72 9.1477e-41
1.67 1.59 1.72 9.1477e-41
1.72 1.59 1.72 9.1477e-41
1.77 1.59 1.72 9.1477e-41
1.82 1.59 1.73 9.1477e-41
1.86 1.59 1.72 9.1477e-41
1.9 1.59 1.72 9.1477e-41
1.95 1.59 1.72 9.1477e-41
2 1.59 1.73 9.1477e-41
2.04 1.59 1.72 9.1477e-41
2.08 1.59 1.73 9.1477e-41
2.12 1.59 1.72 9.1477e-41
2.16 1.59 1.71 9.1477e-41
2.21 1.59 1.72 9.1477e-41
2.24 1.59 1.71 9.1477e-41
2.29 1.59 1.72 9.1477e-41
2.33 1.59 1.7 9.1477e-41
2.37 1.59 1.7 9.1477e-41
2.41 1.59 1.71 9.1477e-41
2.45 1.59 1.69 9.1477e-41
2.49 1.59 1.7 9.1477e-41
2.53 1.59 1.69 9.1477e-41
2.56 1.59 1.69 9.1477e-41
2.6 1.59 1.67 9.1477e-41
2.63 1.59 1.66 9.1477e-41
2.68 1.59 1.67 9.1477e-41
2.7 1.59 1.64 9.1477e-41
2.71 1.59 1.53 9.1477e-41
2.53 1.59 0.86 9.1477e-41
2.56 1.59 0.82 9.1477e-41
2.6 1.59 0.79 9.1477e-41
2.71 1.59 1.02 9.1477e-41
2.79 1.59 1.11 9.1477e-41
2.82 1.59 1.09 9.1477e-41
2.85 1.59 1.04 9.1477e-41
2.87 1.59 0.92 9.1477e-41
2.87 1.59 0.75 9.1477e-41
2.88 1.59 0.62 9.1477e-41
1.36 1.62 1.69 9.1477e-41
1.42 1.62 1.71 9.1477e-41
1.48 1.62 1.72 9.1477e-41
1.53 1.62 1.72 9.1477e-41
1.58 1.62 1.73 9.1477e-41
1.64 1.62 1.74 9.1477e-41
1.68 1.62 1.74 9.1477e-41
1.73 1.62 1.73 9.1477e-41
1.77 1.62 1.73 9.1477e-41
1.82 1.62 1.73 9.1477e-41
1.87 1.62 1.74 9.1477e-41
1.9 1.62 1.72 9.1477e-41
1.95 1.62 1.73 9.1477e-41
2 1.62 1.74 9.1477e-41
2.04 1.62 1.74 9.1477e-41
2.09 1.62 1.74 9.1477e-41
2.13 1.62 1.73 9.1477e-41
2.17 1.62 1.73 9.1477e-41
2.21 1.62 1.73 9.1477e-41
2.25 1.62 1.72 9.1477e-41
2.3 1.62 1.73 9.1477e-41
2.33 1.62 1.72 9.1477e-41
2.38 1.62 1.72 9.1477e-41
2.41 1.62 1.72 9.1477e-41
2.45 1.62 1.71 9.1477e-41
2.49 1.62 1.71 9.1477e-41
2.53 1.62 1.69 9.1477e-41
2.57 1.62 1.7 9.1477e-41
2.6 1.62 1.68 9.1477e-41
2.64 1.62 1.67 9.1477e-41
2.68 1.62 1.67 9.1477e-41
2.71 1.62 1.65 9.1477e-41
2.7 1.62 1.51 9.1477e-41
2.53 1.62 0.86 9.1477e-41
2.56 1.62 0.81 9.1477e-41
2.6 1.62 0.8 9.1477e-41
2.72 1.62 1.02 9.1477e-41
2.79 1.62 1.12 9.1477e-41
2.82 1.62 1.09 9.1477e-41
2.85 1.62 1.03 9.1477e-41
2.87 1.62 0.93 9.1477e-41
2.87 1.62 0.75 9.1477e-41
2.88 1.62 0.61 9.1477e-41
1.33 1.65 1.73 9.1477e-41
1.37 1.65 1.71 9.1477e-41
1.43 1.65 1.73 9.1477e-41
1.48 1.65 1.73 9.1477e-41
1.54 1.65 1.74 9.1477e-41
1.59 1.65 1.74 9.1477e-41
1.64 1.65 1.75 9.1477e-41
1.69 1.65 1.74 9.1477e-41
1.74 1.65 1.75 9.1477e-41
1.78 1.65 1.75 9.1477e-41
1.83 1.65 1.74 9.1477e-41
1.87 1.65 1.74 9.1477e-41
1.92 1.65 1.75 9.1477e-41
1.96 1.65 1.75 9.1477e-41
2.01 1.65 1.75 9.1477e-41
2.05 1.65 1.75 9.1477e-41
2.09 1.65 1.75 9.1477e-41
2.14 1.65 1.75 9.1477e-41
2.17 1.65 1.74 9.1477e-41
2.22 1.65 1.74 9.1477e-41
2.26 1.65 1.74 9.1477e-41
2.3 1.65 1.73 9.1477e-41
2.34 1.65 1.73 9.1477e-41
2.38 1.65 1.72 9.1477e-41
2.42 1.65 1.73 9.1477e-41
2.45 1.65 1.71 9.1477e-41
2.49 1.65 1.71 9.1477e-41
2.53 1.65 1.71 9.1477e-41
2.57 1.65 1.71 9.1477e-41
2.61 1.65 1.69 9.1477e-41
2.65 1.65 1.7 9.1477e-41
2.68 1.65 1.68 9.1477e-41
2.71 1.65 1.65 9.1477e-41
2.7 1.65 1.5 9.1477e-41
2.53 1.65 0.85 9.1477e-41
2.56 1.65 0.79 9.1477e-41
2.6 1.65 0.79 9.1477e-41
2.73 1.65 1.06 9.1477e-41
2.79 1.65 1.13 9.1477e-41
2.83 1.65 1.1 9.1477e-41
2.85 1.65 1.04 9.1477e-41
2.87 1.65 0.93 9.1477e-41
2.87 1.65 0.76 9.1477e-41
2.88 1.65 0.63 9.1477e-41
1.34 1.68 1.73 9.1477e-41
1.38 1.68 1.72 9.1477e-41
1.45 1.68 1.75 9.1477e-41
1.5 1.68 1.75 9.1477e-41
1.55 1.68 1.76 9.1477e-41
1.6 1.68 1.75 9.1477e-41
1.65 1.68 1.76 9.1477e-41
1.69 1.68 1.75 9.1477e-41
1.74 1.68 1.76 9.1477e-41
1.79 1.68 1.75 9.1477e-41
1.83 1.68 1.75 9.1477e-41
1.88 1.68 1.76 9.1477e-41
1.92 1.68 1.75 9.1477e-41
1.97 1.68 1.76 9.1477e-41
2.02 1.68 1.76 9.1477e-41
2.05 1.68 1.75 9.1477e-41
2.1 1.68 1.75 9.1477e-41
2.14 1.68 1.76 9.1477e-41
2.18 1.68 1.76 9.1477e-41
2.22 1.68 1.75 9.1477e-41
2.27 1.68 1.75 9.1477e-41
2.3 1.68 1.73 9.1477e-41
2.34 1.68 1.74 9.1477e-41
2.38 1.68 1.73 9.1477e-41
2.42 1.68 1.74 9.1477e-41
2.46 1.68 1.73 9.1477e-41
2.5 1.68 1.73 9.1477e-41
2.54 1.68 1.72 9.1477e-41
2.58 1.68 1.72 9.1477e-41
2.61 1.68 1.7 9.1477e-41
2.65 1.68 1.7 9.1477e-41
2.68 1.68 1.69 9.1477e-41
2.71 1.68 1.65 9.1477e-41
2.7 1.68 1.49 9.1477e-41
2.53 1.68 0.86 9.1477e-41
2.56 1.68 0.79 9.1477e-41
2.6 1.68 0.77 9.1477e-41
2.73 1.68 1.07 9.1477e-41
2.79 1.68 1.13 9.1477e-41
2.83 1.68 1.1 9.1477e-41
2.85 1.68 1.04 9.1477e-41
2.87 1.68 0.92 9.1477e-41
2.87 1.68 0.76 9.1477e-41
2.88 1.68 0.62 9.1477e-41
1.34 1.71 1.74 9.1477e-41
1.39 1.71 1.74 9.1477e-41
1.46 1.71 1.76 9.1477e-41
1.5 1.71 1.76 9.1477e-41
1.56 1.71 1.77 9.1477e-41
1.6 1.71 1.75 9.1477e-41
1.65 1.71 1.77 9.1477e-41
1.7 1.71 1.76 9.1477e-41
1.74 1.71 1.76 9.1477e-41
1.8 1.71 1.78 9.1477e-41
1.84 1.71 1.76 9.1477e-41
1.89 1.71 1.78 9.1477e-41
1.93 1.71 1.77 9.1477e-41
1.98 1.71 1.77 9.1477e-41
2.02 1.71 1.76 9.1477e-41
2.06 1.71 1.76 9.1477e-41
2.1 1.71 1.76 9.1477e-41
2.14 1.71 1.76 9.1477e-41
2.19 1.71 1.77 9.1477e-41
2.23 1.71 1.76 9.1477e-41
2.27 1.71 1.75 9.1477e-41
2.31 1.71 1.76 9.1477e-41
2.35 1.71 1.76 9.1477e-41
2.39 1.71 1.75 9.1477e-41
2.43 1.71 1.74 9.1477e-41
2.46 1.71 1.74 9.1477e-41
2.51 1.71 1.74 9.1477e-41
2.54 1.71 1.73 9.1477e-41
2.58 1.71 1.72 9.1477e-41
2.61 1.71 1.71 9.1477e-41
2.65 1.71 1.71 9.1477e-41
2.69 1.71 1.7 9.1477e-41
2.71 1.71 1.66 9.1477e-41
2.69 1.71 1.47 9.1477e-41
2.53 1.71 0.86 9.1477e-41
2.54 1.71 0.75 9.1477e-41
2.59 1.71 0.76 9.1477e-41
2.73 1.71 1.08 9.1477e-41
2.8 1.71 1.15 9.1477e-41
2.83 1.71 1.11 9.1477e-41
2.86 1.71 1.05 9.1477e-41
2.87 1.71 0.92 9.1477e-41
2.87 1.71 0.75 9.1477e-41
2.88 1.71 0.61 9.1477e-41
1.35 1.74 1.75 9.1477e-41
1.39 1.74 1.74 9.1477e-41
1.46 1.74 1.76 9.1477e-41
1.51 1.74 1.77 9.1477e-41
1.56 1.74 1.78 9.1477e-41
1.61 1.74 1.78 9.1477e-41
1.66 1.74 1.77 9.1477e-41
1.71 1.74 1.78 9.1477e-41
1.76 1.74 1.78 9.1477e-41
1.79 1.74 1.76 9.1477e-41
1.85 1.74 1.78 9.1477e-41
1.88 1.74 1.77 9.1477e-41
1.94 1.74 1.78 9.1477e-41
1.98 1.74 1.78 9.1477e-41
2.02 1.74 1.77 9.1477e-41
2.07 1.74 1.78 9.1477e-41
2.11 1.74 1.77 9.1477e-41
2.15 1.74 1.77 9.1477e-41
2.19 1.74 1.77 9.1477e-41
2.24 1.74 1.78 9.1477e-41
2.27 1.74 1.76 9.1477e-41
2.32 1.74 1.77 9.1477e-41
2.35 1.74 1.76 9.1477e-41
2.39 1.74 1.75 9.1477e-41
2.43 1.74 1.75 9.1477e-41
2.47 1.74 1.75 9.1477e-41
2.51 1.74 1.74 9.1477e-41
2.54 1.74 1.74 9.1477e-41
2.58 1.74 1.74 9.1477e-41
2.62 1.74 1.72 9.1477e-41
2.66 1.74 1.72 9.1477e-41
2.69 1.74 1.7 9.1477e-41
2.71 1.74 1.65 9.1477e-41
2.69 1.74 1.46 9.1477e-41
2.53 1.74 0.86 9.1477e-41
2.54 1.74 0.75 9.1477e-41
2.6 1.74 0.78 9.1477e-41
2.75 1.74 1.14 9.1477e-41
2.8 1.74 1.17 9.1477e-41
2.83 1.74 1.12 9.1477e-41
2.85 1.74 1.03 9.1477e-41
2.87 1.74 0.92 9.1477e-41
2.87 1.74 0.75 9.1477e-41
2.88 1.74 0.61 9.1477e-41
1.35 1.77 1.76 9.1477e-41
1.4 1.77 1.75 9.1477e-41
1.47 1.77 1.78 9.1477e-41
1.51 1.77 1.77 9.1477e-41
1.56 1.77 1.78 9.1477e-41
1.62 1.77 1.79 9.1477e-41
1.66 1.77 1.77 9.1477e-41
1.71 1.77 1.79 9.1477e-41
1.75 1.77 1.77 9.1477e-41
1.81 1.77 1.79 9.1477e-41
1.85 1.77 1.78 9.1477e-41
1.89 1.77 1.78 9.1477e-41
1.94 1.77 1.78 9.1477e-41
1.99 1.77 1.79 9.1477e-41
2.03 1.77 1.79 9.1477e-41
2.07 1.77 1.79 9.1477e-41
2.12 1.77 1.79 9.1477e-41
2.15 1.77 1.78 9.1477e-41
2.19 1.77 1.77 9.1477e-41
2.24 1.77 1.78 9.1477e-41
2.27 1.77 1.77 9.1477e-41
2.32 1.77 1.77 9.1477e-41
2.35 1.77 1.77 9.1477e-41
2.39 1.77 1.76 9.1477e-41
2.43 1.77 1.75 9.1477e-41
2.47 1.77 1.75 9.1477e-41
2.51 1.77 1.76 9.1477e-41
2.54 1.77 1.74 9.1477e-41
2.58 1.77 1.74 9.1477e-41
2.62 1.77 1.74 9.1477e-41
2.66 1.77 1.73 9.1477e-41
2.69 1.77 1.71 9.1477e-41
2.7 1.77 1.64 9.1477e-41
2.5 1.77 0.9 9.1477e-41
2.59 1.77 1.04 9.1477e-41
2.61 1.77 1.04 3.57e-43
2.6 1.77 0.78 9.1477e-41
2.76 1.77 1.18 9.1477e-41
2.81 1.77 1.19 9.1477e-41
2.84 1.77 1.14 9.1477e-41
2.85 1.77 1.04 9.1477e-41
2.87 1.77 0.92 9.1477e-41
2.87 1.77 0.75 9.1477e-41
2.88 1.77 0.62 9.1477e-41
1.35 1.8 1.76 9.1477e-41
1.41 1.8 1.77 9.1477e-41
1.47 1.8 1.78 9.1477e-41
1.52 1.8 1.78 9.1477e-41
1.57 1.8 1.78 9.1477e-41
1.62 1.8 1.8 9.1477e-41
1.66 1.8 1.78 9.1477e-41
1.72 1.8 1.8 9.1477e-41
1.76 1.8 1.79 9.1477e-41
1.81 1.8 1.79 9.1477e-41
1.86 1.8 1.8 9.1477e-41
1.9 1.8 1.8 9.1477e-41
1.94 1.8 1.79 9.1477e-41
1.99 1.8 1.79 9.1477e-41
2.02 1.8 1.78 9.1477e-41
2.08 1.8 1.8 9.1477e-41
2.12 1.8 1.79 9.1477e-41
2.15 1.8 1.78 9.1477e-41
2.2 1.8 1.78 9.1477e-41
2.24 1.8 1.79 9.1477e-41
2.28 1.8 1.78 9.1477e-41
2.32 1.8 1.78 9.1477e-41
2.36 1.8 1.77 9.1477e-41
2.4 1.8 1.77 9.1477e-41
2.44 1.8 1.77 9.1477e-41
2.48 1.8 1.78 9.1477e-41
2.52 1.8 1.77 9.1477e-41
2.55 1.8 1.76 9.1477e-41
2.59 1.8 1.74 9.1477e-41
2.62 1.8 1.74 9.1477e-41
2.66 1.8 1.74 9.1477e-41
2.69 1.8 1.71 9.1477e-41
2.71 1.8 1.67 9.1477e-41
2.73 1.8 1.6 9.1477e-41
2.61 1.8 1.09 9.1477e-41
2.61 1.8 1.09 3.57e-43
2.6 1.8 0.78 9.1477e-41
2.79 1.8 1.25 9.1477e-41
2.82 1.8 1.21 9.1477e-41
2.84 1.8 1.16 9.1477e-41
2.86 1.8 1.06 9.1477e-41
2.87 1.8 0.94 9.1477e-41
2.87 1.8 0.75 9.1477e-41
2.88 1.8 0.6 9.1477e-41
1.36 1.83 1.77 9.1477e-41
1.41 1.83 1.77 9.1477e-41
1.47 1.83 1.78 9.1477e-41
1.52 1.83 1.78 9.1477e-41
1.58 1.83 1.8 9.1477e-41
1.62 1.83 1.79 9.1477e-41
1.67 1.83 1.8 9.1477e-41
1.71 1.83 1.79 9.1477e-41
1.77 1.83 1.8 9.1477e-41
1.81 1.83 1.8 9.1477e-41
1.86 1.83 1.8 9.1477e-41
1.91 1.83 1.81 9.1477e-41
1.94 1.83 1.79 9.1477e-41
1.99 1.83 1.8 9.1477e-41
2.03 1.83 1.8 9.1477e-41
2.08 1.83 1.8 9.1477e-41
2.12 1.83 1.79 9.1477e-41
2.16 1.83 1.8 9.1477e-41
2.2 1.83 1.79 9.1477e-41
2.24 1.83 1.79 9.1477e-41
2.28 1.83 1.79 9.1477e-41
2.32 1.83 1.78 9.1477e-41
2.36 1.83 1.78 9.1477e-41
2.4 1.83 1.78 9.1477e-41
2.44 1.83 1.77 9.1477e-41
2.48 1.83 1.77 9.1477e-41
2.51 1.83 1.76 9.1477e-41
2.55 1.83 1.76 9.1477e-41
2.59 1.83 1.74 9.1477e-41
2.63 1.83 1.75 9.1477e-41
2.66 1.83 1.74 9.1477e-41
2.69 1.83 1.71 9.1477e-41
2.71 1.83 1.67 9.1477e-41
2.73 1.83 1.67 3.57e-43
2.61 1.83 1.09 9.1477e-41
2.75 1.83 1.4 9.1477e-41
2.78 1.83 1.37 9.1477e-41
2.8 1.83 1.3 9.1477e-41
2.83 1.83 1.25 9.1477e-41
2.84 1.83 1.17 9.1477e-41
2.86 1.83 1.06 9.1477e-41
2.87 1.83 0.93 9.1477e-41
2.87 1.83 0.77 9.1477e-41
2.89 1.83 0.64 9.1477e-41
1.36 1.86 1.77 9.1477e-41
1.42 1.86 1.78 9.1477e-41
1.47 1.86 1.79 9.1477e-41
1.53 1.86 1.8 9.1477e-41
1.57 1.86 1.79 9.1477e-41
1.62 1.86 1.8 9.1477e-41
1.67 1.86 1.8 9.1477e-41
1.72 1.86 1.8 9.1477e-41
1.77 1.86 1.8 9.1477e-41
1.82 1.86 1.81 9.1477e-41
1.86 1.86 1.8 9.1477e-41
1.9 1.86 1.8 9.1477e-41
1.95 1.86 1.8 9.1477e-41
1.99 1.86 1.8 9.1477e-41
2.03 1.86 1.8 9.1477e-41
2.08 1.86 1.8 9.1477e-41
2.12 1.86 1.81 9.1477e-41
2.16 1.86 1.8 9.1477e-41
2.21 1.86 1.8 9.1477e-41
2.24 1.86 1.79 9.1477e-41
2.28 1.86 1.79 9.1477e-41
2.32 1.86 1.79 9.1477e-41
2.36 1.86 1.78 9.1477e-41
2.41 1.86 1.8 9.1477e-41
2.44 1.86 1.78 9.1477e-41
2.48 1.86 1.78 9.1477e-41
2.51 1.86 1.76 9.1477e-41
2.55 1.86 1.76 9.1477e-41
2.59 1.86 1.75 9.1477e-41
2.63 1.86 1.76 9.1477e-41
2.67 1.86 1.75 9.1477e-41
2.69 1.86 1.7 9.1477e-41
2.72 1.86 1.68 9.1477e-41
2.74 1.86 1.62 9.1477e-41
2.75 1.86 1.54 9.1477e-41
2.77 1.86 1.47 9.1477e-41
2.79 1.86 1.4 9.1477e-41
2.81 1.86 1.33 9.1477e-41
2.83 1.86 1.26 9.1477e-41
2.84 1.86 1.17 9.1477e-41
2.86 1.86 1.05 9.1477e-41
2.87 1.86 0.92 9.1477e-41
2.87 1.86 0.76 9.1477e-41
2.88 1.86 0.6 9.1477e-41
1.36 1.89 1.78 9.1477e-41
1.42 1.89 1.78 9.1477e-41
1.48 1.89 1.8 9.1477e-41
1.53 1.89 1.8 9.1477e-41
1.58 1.89 1.8 9.1477e-41
1.63 1.89 1.8 9.1477e-41
1.68 1.89 1.81 9.1477e-41
1.72 1.89 1.8 9.1477e-41
1.76 1.89 1.79 9.1477e-41
1.82 1.89 1.81 9.1477e-41
1.86 1.89 1.8 9.1477e-41
1.9 1.89 1.8 9.1477e-41
1.96 1.89 1.82 9.1477e-41
2 1.89 1.81 9.1477e-41
2.04 1.89 1.81 9.1477e-41
2.08 1.89 1.81 9.1477e-41
2.12 1.89 1.8 9.1477e-41
2.17 1.89 1.81 9.1477e-41
2.2 1.89 1.79 9.1477e-41
2.25 1.89 1.8 9.1477e-41
2.29 1.89 1.8 9.1477e-41
2.33 1.89 1.8 9.1477e-41
2.37 1.89 1.79 9.1477e-41
2.4 1.89 1.79 9.1477e-41
2.44 1.89 1.78 9.1477e-41
2.48 1.89 1.79 9.1477e-41
2.52 1.89 1.77 9.1477e-41
2.56 1.89 1.78 9.1477e-41
2.59 1.89 1.75 9.1477e-41
2.63 1.89 1.76 9.1477e-41
2.67 1.89 1.75 9.1477e-41
2.69 1.89 1.71 9.1477e-41
2.72 1.89 1.68 9.1477e-41
2.73 1.89 1.61 9.1477e-41
2.76 1.89 1.56 9.1477e-41
2.77 1.89 1.49 9.1477e-41
2.79 1.89 1.42 9.1477e-41
2.81 1.89 1.33 9.1477e-41
2.82 1.89 1.24 9.1477e-41
2.84 1.89 1.16 9.1477e-41
2.85 1.89 1.04 9.1477e-41
2.87 1.89 0.93 9.1477e-41
2.87 1.89 0.75 9.1477e-41
2.87 1.89 0.59 9.1477e-41
1.36 1.92 1.78 9.1477e-41
1.42 1.92 1.79 9.1477e-41
1.48 1.92 1.8 9.1477e-41
1.53 1.92 1.8 9.1477e-41
1.58 1.92 1.81 9.1477e-41
1.63 1.92 1.8 9.1477e-41
1.68 1.92 1.81 9.1477e-41
1.72 1.92 1.8 9.1477e-41
1.78 1.92 1.83 9.1477e-41
1.82 1.92 1.81 9.1477e-41
1.87 1.92 1.82 9.1477e-41
1.91 1.92 1.82 9.1477e-41
1.95 1.92 1.8 9.1477e-41
2 1.92 1.82 9.1477e-41
2.04 1.92 1.82 9.1477e-41
2.09 1.92 1.82 9.1477e-41
2.13 1.92 1.82 9.1477e-41
2.17 1.92 1.81 9.1477e-41
2.21 1.92 1.81 9.1477e-41
2.25 1.92 1.81 9.1477e-41
2.29 1.92 1.81 9.1477e-41
2.33 1.92 1.8 9.1477e-41
2.37 1.92 1.8 9.1477e-41
2.41 1.92 1.81 9.1477e-41
2.45 1.92 1.79 9.1477e-41
2.48 1.92 1.79 9.1477e-41
2.53 1.92 1.79 9.1477e-41
2.56 1.92 1.78 9.1477e-41
2.59 1.92 1.76 9.1477e-41
2.63 1.92 1.77 9.1477e-41
2.67 1.92 1.75 9.1477e-41
2.69 1.92 1.72 9.1477e-41
2.72 1.92 1.68 9.1477e-41
2.74 1.92 1.63 9.1477e-41
2.76 1.92 1.56 9.1477e-41
2.77 1.92 1.49 9.1477e-41
2.8 1.92 1.43 9.1477e-41
2.81 1.92 1.34 9.1477e-41
2.83 1.92 1.25 9.1477e-41
2.84 1.92 1.17 9.1477e-41
2.86 1.92 1.05 9.1477e-41
2.87 1.92 0.94 9.1477e-41
2.87 1.92 0.77 9.1477e-41
2.89 1.92 0.64 9.1477e-41
1.36 1.95 1.78 9.1477e-41
1.43 1.95 1.8 9.1477e-41
1.48 1.95 1.8 9.1477e-41
1.53 1.95 1.81 9.1477e-41
1.58 1.95 1.81 9.1477e-41
1.64 1.95 1.82 9.1477e-41
1.68 1.95 1.82 9.1477e-41
1.72 1.95 1.8 9.1477e-41
1.78 1.95 1.82 9.1477e-41
1.83 1.95 1.82 9.1477e-41
1.87 1.95 1.82 9.1477e-41
1.91 1.95 1.81 9.1477e-41
1.96 1.95 1.82 9.1477e-41
2 1.95 1.82 9.1477e-41
2.04 1.95 1.82 9.1477e-41
2.09 1.95 1.83 9.1477e-41
2.12 1.95 1.81 9.1477e-41
2.17 1.95 1.82 9.1477e-41
2.21 1.95 1.81 9.1477e-41
2.25 1.95 1.81 9.1477e-41
2.29 1.95 1.8 9.1477e-41
2.33 1.95 1.81 9.1477e-41
2.37 1.95 1.8 9.1477e-41
2.41 1.95 1.81 9.1477e-41
2.45 1.95 1.79 9.1477e-41
2.48 1.95 1.79 9.1477e-41
2.53 1.95 1.79 9.1477e-41
2.56 1.95 1.78 9.1477e-41
2.59 1.95 1.76 9.1477e-41
2.63 1.95 1.77 9.1477e-41
2.67 1.95 1.75 9.1477e-41
2.69 1.95 1.72 9.1477e-41
2.72 1.95 1.68 9.1477e-41
2.74 1.95 1.62 9.1477e-41
2.76 1.95 1.56 9.1477e-41
2.77 1.95 1.49 9.1477e-41
2.79 1.95 1.42 9.1477e-41
2.81 1.95 1.33 9.1477e-41
2.82 1.95 1.24 9.1477e-41
2.84 1.95 1.17 9.1477e-41
2.86 1.95 1.06 9.1477e-41
2.87 1.95 0.93 9.1477e-41
2.87 1.95 0.76 9.1477e-41
2.88 1.95 0.6 9.1477e-41
1.36 1.98 1.78 9.1477e-41
1.43 1.98 1.8 9.1477e-41
1.48 1.98 1.8 9.1477e-41
1.53 1.98 1.81 9.1477e-41
1.58 1.98 1.81 9.1477e-41
1.64 1.98 1.82 9.1477e-41
1.68 1.98 1.82 9.1477e-41
1.73 1.98 1.81 9.1477e-41
1.78 1.98 1.83 9.1477e-41
1.83 1.98 1.82 9.1477e-41
1.88 1.98 1.83 9.1477e-41
1.91 1.98 1.82 9.1477e-41
1.95 1.98 1.81 9.1477e-41
2.01 1.98 1.83 9.1477e-41
2.05 1.98 1.83 9.1477e-41
2.09 1.98 1.82 9.1477e-41
2.13 1.98 1.82 9.1477e-41
2.18 1.98 1.83 9.1477e-41
2.21 1.98 1.81 9.1477e-41
2.26 1.98 1.82 9.1477e-41
2.29 1.98 1.81 9.1477e-41
2.33 1.98 1.81 9.1477e-41
2.37 1.98 1.8 9.1477e-41
2.41 1.98 1.81 9.1477e-41
2.45 1.98 1.8 9.1477e-41
2.49 1.98 1.8 9.1477e-41
2.53 1.98 1.79 9.1477e-41
2.56 1.98 1.79 9.1477e-41
2.6 1.98 1.77 9.1477e-41
2.64 1.98 1.78 9.1477e-41
2.67 1.98 1.75 9.1477e-41
2.69 1.98 1.72 9.1477e-41
2.72 1.98 1.68 9.1477e-41
2.74 1.98 1.68 3.57e-43
2.76 1.98 1.68 3.57e-43
2.77 1.98 1.68 3.57e-43
2.79 1.98 1.68 3.57e-43
2.81 1.98 1.33 9.1477e-41
2.81 1.98 1.21 9.1477e-41
2.84 1.98 1.15 9.1477e-41
2.86 1.98 1.05 9.1477e-41
2.87 1.98 0.93 9.1477e-41
2.87 1.98 0.76 9.1477e-41
2.88 1.98 0.6 9.1477e-41
1.37 2.01 1.78 9.1477e-41
1.44 2.01 1.81 9.1477e-41
1.49 2.01 1.81 9.1477e-41
1.54 2.01 1.81 9.1477e-41
1.59 2.01 1.82 9.1477e-41
1.64 2.01 1.82 9.1477e-41
1.69 2.01 1.82 9.1477e-41
1.73 2.01 1.82 9.1477e-41
1.78 2.01 1.82 9.1477e-41
1.83 2.01 1.82 9.1477e-41
1.87 2.01 1.82 9.1477e-41
1.92 2.01 1.83 9.1477e-41
1.97 2.01 1.84 9.1477e-41
2 2.01 1.82 9.1477e-41
2.05 2.01 1.83 9.1477e-41
2.09 2.01 1.82 9.1477e-41
2.13 2.01 1.82 9.1477e-41
2.18 2.01 1.83 9.1477e-41
2.21 2.01 1.82 9.1477e-41
2.26 2.01 1.82 9.1477e-41
2.29 2.01 1.81 9.1477e-41
2.34 2.01 1.82 9.1477e-41
2.37 2.01 1.81 9.1477e-41
2.41 2.01 1.81 9.1477e-41
2.45 2.01 1.8 9.1477e-41
2.49 2.01 1.8 9.1477e-41
2.53 2.01 1.79 9.1477e-41
2.56 2.01 1.79 9.1477e-41
2.6 2.01 1.78 9.1477e-41
2.63 2.01 1.77 9.1477e-41
2.67 2.01 1.75 9.1477e-41
2.69 2.01 1.72 9.1477e-41
2.71 2.01 1.72 3.57e-43
2.74 2.01 1.72 3.57e-43
2.76 2.01 1.72 3.57e-43
2.77 2.01 1.72 3.57e-43
2.79 2.01 1.72 3.57e-43
2.81 2.01 1.72 3.57e-43
2.81 2.01 1.21 9.1477e-41
