# .PCD v.7 - Point Cloud Data file format
VERSION .7
FIELDS x y z rgb
SIZE 4 4 4 4
TYPE F F F F
WIDTH 692
HEIGHT 1
POINTS 692
DATA ascii
5.85 0 0.51 9.1477e-41
5.87 0 0.59 9.1477e-41
5.9 0 0.65 9.1477e-41
5.93 0 0.7 9.1477e-41
5.97 0 0.73 9.1477e-41
6.02 0 0.73 9.1477e-41
6.07 0 0.75 9.1477e-41
6.12 0 0.74 9.1477e-41
6.16 0 0.77 9.1477e-41
6.19 0 0.82 9.1477e-41
6.25 0 0.79 9.1477e-41
6.3 0 0.82 9.1477e-41
6.35 0 0.82 9.1477e-41
6.39 0 0.83 9.1477e-41
6.45 0 0.84 9.1477e-41
6.5 0 0.84 9.1477e-41
6.55 0 0.84 9.1477e-41
6.61 0 0.84 9.1477e-41
6.67 0 0.84 9.1477e-41
6.73 0 0.83 9.1477e-41
6.79 0 0.82 9.1477e-41
6.86 0 0.82 3.57e-43
7.03 0 0.72 9.1477e-41
7.08 0 0.73 9.1477e-41
7.15 0 0.7 9.1477e-41
5.75 0.25 0.49 9.1477e-41
5.76 0.25 0.61 9.1477e-41
5.78 0.25 0.71 9.1477e-41
5.81 0.25 0.75 9.1477e-41
5.86 0.25 0.75 9.1477e-41
5.94 0.25 0.68 9.1477e-41
6 0.25 0.67 9.1477e-41
6 0.25 0.8 9.1477e-41
6 0.25 0.93 9.1477e-41
6.04 0.25 0.93 9.1477e-41
6.09 0.25 0.93 9.1477e-41
6.14 0.25 0.93 9.1477e-41
6.19 0.25 0.94 9.1477e-41
6.23 0.25 0.96 9.1477e-41
6.29 0.25 0.95 9.1477e-41
6.33 0.25 0.96 9.1477e-41
6.39 0.25 0.95 9.1477e-41
6.44 0.25 0.97 9.1477e-41
6.5 0.25 0.96 9.1477e-41
6.55 0.25 0.95 9.1477e-41
6.6 0.25 0.96 9.1477e-41
6.66 0.25 0.95 9.1477e-41
6.71 0.25 0.96 9.1477e-41
6.77 0.25 0.96 9.1477e-41
6.83 0.25 0.96 9.1477e-41
6.89 0.25 0.95 9.1477e-41
6.95 0.25 0.94 9.1477e-41
7.02 0.25 0.93 9.1477e-41
7.08 0.25 0.93 9.1477e-41
7.15 0.25 0.9 9.1477e-41
7.2 0.25 0.93 9.1477e-41
5.71 0.5 0.44 9.1477e-41
5.7 0.5 0.65 9.1477e-41
5.72 0.5 0.74 9.1477e-41
5.74 0.5 0.8 9.1477e-41
5.77 0.5 0.86 9.1477e-41
5.8 0.5 0.94 9.1477e-41
5.84 0.5 0.96 9.1477e-41
5.87 0.5 1 9.1477e-41
5.92 0.5 1.01 9.1477e-41
5.97 0.5 1 9.1477e-41
6.01 0.5 1.01 9.1477e-41
6.06 0.5 1.01 9.1477e-41
6.11 0.5 1.01 9.1477e-41
6.16 0.5 1.01 9.1477e-41
6.21 0.5 1.02 9.1477e-41
6.25 0.5 1.03 9.1477e-41
6.31 0.5 1.03 9.1477e-41
6.36 0.5 1.03 9.1477e-41
6.41 0.5 1.02 9.1477e-41
6.46 0.5 1.03 9.1477e-41
6.51 0.5 1.03 9.1477e-41
6.57 0.5 1.03 9.1477e-41
6.62 0.5 1.02 9.1477e-41
6.68 0.5 1.03 9.1477e-41
6.73 0.5 1.03 9.1477e-41
6.78 0.5 1.03 9.1477e-41
6.85 0.5 1.02 9.1477e-41
6.91 0.5 1.01 9.1477e-41
6.96 0.5 1.02 9.1477e-41
7.03 0.5 1 9.1477e-41
7.09 0.5 1 9.1477e-41
7.16 0.5 0.99 9.1477e-41
7.22 0.5 0.99 9.1477e-41
7.29 0.5 0.99 9.1477e-41
5.7 0.75 0.48 9.1477e-41
5.69 0.75 0.67 9.1477e-41
5.7 0.75 0.79 9.1477e-41
5.73 0.75 0.86 9.1477e-41
5.76 0.75 0.92 9.1477e-41
5.78 0.75 0.97 9.1477e-41
5.81 0.75 1.02 9.1477e-41
5.85 0.75 1.05 9.1477e-41
5.89 0.75 1.07 9.1477e-41
5.94 0.75 1.07 9.1477e-41
5.99 0.75 1.06 9.1477e-41
6.03 0.75 1.08 9.1477e-41
6.08 0.75 1.08 9.1477e-41
6.13 0.75 1.08 9.1477e-41
6.18 0.75 1.07 9.1477e-41
6.23 0.75 1.08 9.1477e-41
6.28 0.75 1.07 9.1477e-41
6.33 0.75 1.08 9.1477e-41
6.38 0.75 1.08 9.1477e-41
6.44 0.75 1.08 9.1477e-41
6.49 0.75 1.08 9.1477e-41
6.54 0.75 1.07 9.1477e-41
6.59 0.75 1.08 9.1477e-41
6.64 0.75 1.08 9.1477e-41
6.7 0.75 1.08 9.1477e-41
6.76 0.75 1.08 9.1477e-41
6.82 0.75 1.08 9.1477e-41
6.87 0.75 1.08 9.1477e-41
6.92 0.75 1.09 9.1477e-41
6.99 0.75 1.06 9.1477e-41
7.05 0.75 1.07 9.1477e-41
7.11 0.75 1.06 9.1477e-41
7.18 0.75 1.04 9.1477e-41
7.24 0.75 1.05 9.1477e-41
7.31 0.75 1.03 9.1477e-41
5.71 1 0.47 9.1477e-41
5.68 1 0.71 9.1477e-41
5.7 1 0.8 9.1477e-41
5.73 1 0.86 9.1477e-41
5.75 1 0.94 9.1477e-41
5.77 1 1.01 9.1477e-41
5.8 1 1.06 9.1477e-41
5.83 1 1.12 9.1477e-41
5.87 1 1.12 3.57e-43
5.94 1 1.07 9.1477e-41
5.97 1 1.12 9.1477e-41
6.02 1 1.12 3.57e-43
6.08 1 1.12 3.57e-43
6.13 1 1.12 3.57e-43
6.18 1 1.12 3.57e-43
6.23 1 1.12 3.57e-43
6.28 1 1.12 3.57e-43
6.33 1 1.12 3.57e-43
6.38 1 1.12 3.57e-43
6.44 1 1.12 3.57e-43
6.49 1 1.12 3.57e-43
6.54 1 1.12 3.57e-43
6.59 1 1.12 3.57e-43
6.64 1 1.12 3.57e-43
6.7 1 1.12 3.57e-43
6.76 1 1.12 3.57e-43
6.82 1 1.12 3.57e-43
6.87 1 1.12 3.57e-43
6.92 1 1.12 3.57e-43
6.99 1 1.12 3.57e-43
7.05 1 1.12 3.57e-43
7.11 1 1.12 3.57e-43
7.18 1 1.04 9.1477e-41
7.24 1 1.04 9.1477e-41
7.29 1 1.05 9.1477e-41
7.33 1 1.1 9.1477e-41
5.68 1.25 0.56 9.1477e-41
5.7 1.25 0.65 9.1477e-41
5.71 1.25 0.77 9.1477e-41
5.72 1.25 0.88 9.1477e-41
5.75 1.25 0.94 9.1477e-41
5.78 1.25 0.98 9.1477e-41
5.78 1.25 1.09 9.1477e-41
5.79 1.25 1.19 9.1477e-41
5.82 1.25 1.24 9.1477e-41
5.85 1.25 1.28 9.1477e-41
5.9 1.25 1.28 3.57e-43
6.02 1.25 1.12 9.1477e-41
5.99 1.25 1.12 3.57e-43
6.13 1.25 1.12 3.57e-43
6.18 1.25 1.12 3.57e-43
6.23 1.25 1.12 3.57e-43
6.28 1.25 1.12 3.57e-43
6.33 1.25 1.12 3.57e-43
6.38 1.25 1.12 3.57e-43
6.44 1.25 1.12 3.57e-43
6.49 1.25 1.12 3.57e-43
6.54 1.25 1.12 3.57e-43
6.59 1.25 1.12 3.57e-43
6.64 1.25 1.12 3.57e-43
6.7 1.25 1.12 3.57e-43
6.76 1.25 1.12 3.57e-43
6.82 1.25 1.12 3.57e-43
6.87 1.25 1.12 3.57e-43
6.92 1.25 1.12 3.57e-43
6.99 1.25 1.12 3.57e-43
7.05 1.25 1.12 3.57e-43
7.11 1.25 1.12 3.57e-43
7.18 1.25 1.12 3.57e-43
7.24 1.25 1.12 3.57e-43
7.29 1.25 1.05 9.1477e-41
7.27 1.25 1.18 9.1477e-41
7.29 1.25 1.24 9.1477e-41
5.68 1.5 0.56 9.1477e-41
5.71 1.5 0.56 3.57e-43
5.71 1.5 0.77 9.1477e-41
5.65 1.5 1.1 9.1477e-41
5.73 1.5 1 9.1477e-41
5.77 1.5 1 3.57e-43
5.78 1.5 1 3.57e-43
5.79 1.5 1 3.57e-43
5.82 1.5 1 3.57e-43
5.85 1.5 1.28 9.1477e-41
5.85 1.5 1.4 9.1477e-41
5.88 1.5 1.43 9.1477e-41
5.92 1.5 1.43 3.57e-43
6.13 1.5 1.43 3.57e-43
6.18 1.5 1.43 3.57e-43
6.23 1.5 1.43 3.57e-43
6.28 1.5 1.43 3.57e-43
6.33 1.5 1.43 3.57e-43
6.38 1.5 1.43 3.57e-43
6.44 1.5 1.43 3.57e-43
6.49 1.5 1.43 3.57e-43
6.54 1.5 1.43 3.57e-43
6.59 1.5 1.43 3.57e-43
6.64 1.5 1.43 3.57e-43
6.7 1.5 1.43 3.57e-43
6.76 1.5 1.43 3.57e-43
6.82 1.5 1.43 3.57e-43
6.87 1.5 1.43 3.57e-43
6.92 1.5 1.43 3.57e-43
6.99 1.5 1.43 3.57e-43
7.05 1.5 1.43 3.57e-43
7.11 1.5 1.43 3.57e-43
7.18 1.5 1.43 3.57e-43
7.24 1.5 1.43 3.57e-43
7.29 1.5 1.43 3.57e-43
7.27 1.5 1.43 3.57e-43
7.29 1.5 1.43 3.57e-43
7.29 1.5 1.58 9.1477e-41
7.34 1.5 1.42 9.1477e-41
5.67 1.75 0.4 9.1477e-41
5.67 1.75 0.59 9.1477e-41
5.69 1.75 0.69 9.1477e-41
5.7 1.75 0.81 9.1477e-41
5.71 1.75 0.91 9.1477e-41
5.73 1.75 1 9.1477e-41
5.77 1.75 1.01 9.1477e-41
5.8 1.75 1.01 3.57e-43
5.79 1.75 1.01 3.57e-43
5.82 1.75 1.01 3.57e-43
5.85 1.75 1.01 3.57e-43
5.85 1.75 1.4 9.1477e-41
5.85 1.75 1.5 9.1477e-41
5.88 1.75 1.53 9.1477e-41
5.91 1.75 1.58 9.1477e-41
5.95 1.75 1.59 9.1477e-41
5.99 1.75 1.59 9.1477e-41
6.03 1.75 1.6 9.1477e-41
6.07 1.75 1.61 9.1477e-41
6.12 1.75 1.61 9.1477e-41
6.17 1.75 1.6 9.1477e-41
6.21 1.75 1.62 9.1477e-41
6.25 1.75 1.62 9.1477e-41
6.3 1.75 1.62 9.1477e-41
6.35 1.75 1.62 9.1477e-41
6.39 1.75 1.62 9.1477e-41
6.44 1.75 1.63 9.1477e-41
6.49 1.75 1.63 9.1477e-41
6.54 1.75 1.63 9.1477e-41
6.59 1.75 1.63 9.1477e-41
6.64 1.75 1.62 9.1477e-41
6.7 1.75 1.62 9.1477e-41
6.74 1.75 1.63 9.1477e-41
6.8 1.75 1.62 9.1477e-41
6.86 1.75 1.62 9.1477e-41
6.91 1.75 1.62 9.1477e-41
6.97 1.75 1.61 9.1477e-41
7.03 1.75 1.61 9.1477e-41
7.09 1.75 1.59 9.1477e-41
7.16 1.75 1.57 9.1477e-41
7.22 1.75 1.57 9.1477e-41
7.28 1.75 1.57 9.1477e-41
5.67 2 0.4 9.1477e-41
5.67 2 0.59 9.1477e-41
5.69 2 0.7 9.1477e-41
5.69 2 0.83 9.1477e-41
5.71 2 0.92 9.1477e-41
5.72 2 1.02 9.1477e-41
5.74 2 1.09 9.1477e-41
5.79 2 1.09 3.57e-43
5.79 2 1.09 3.57e-43
5.82 2 1.09 3.57e-43
5.85 2 1.09 3.57e-43
5.85 2 1.4 9.1477e-41
6.15 2 0.8 9.1477e-41
5.87 2 1.59 9.1477e-41
5.89 2 1.61 9.1477e-41
5.92 2 1.65 9.1477e-41
5.95 2 1.68 9.1477e-41
6.01 2 1.66 9.1477e-41
6.04 2 1.68 9.1477e-41
6.08 2 1.68 9.1477e-41
6.13 2 1.68 9.1477e-41
6.17 2 1.68 9.1477e-41
6.21 2 1.7 9.1477e-41
6.25 2 1.7 9.1477e-41
6.3 2 1.7 9.1477e-41
6.35 2 1.7 9.1477e-41
6.39 2 1.7 9.1477e-41
6.45 2 1.7 9.1477e-41
6.49 2 1.71 9.1477e-41
6.54 2 1.7 9.1477e-41
6.59 2 1.71 9.1477e-41
6.64 2 1.7 9.1477e-41
6.7 2 1.7 9.1477e-41
6.75 2 1.7 9.1477e-41
6.8 2 1.71 9.1477e-41
6.86 2 1.7 9.1477e-41
6.91 2 1.7 9.1477e-41
6.96 2 1.7 9.1477e-41
7.02 2 1.7 9.1477e-41
7.09 2 1.68 9.1477e-41
7.15 2 1.66 9.1477e-41
7.21 2 1.66 9.1477e-41
7.28 2 1.66 9.1477e-41
5.67 2.25 0.41 9.1477e-41
5.67 2.25 0.57 9.1477e-41
5.69 2.25 0.7 9.1477e-41
5.69 2.25 0.83 9.1477e-41
5.71 2.25 0.91 9.1477e-41
5.72 2.25 1.02 9.1477e-41
5.74 2.25 1.11 9.1477e-41
5.75 2.25 1.18 9.1477e-41
5.77 2.25 1.26 9.1477e-41
5.79 2.25 1.31 9.1477e-41
5.82 2.25 1.36 9.1477e-41
5.83 2.25 1.36 3.57e-43
6.15 2.25 0.8 9.1477e-41
5.87 2.25 1.59 9.1477e-41
5.89 2.25 1.62 9.1477e-41
5.91 2.25 1.67 9.1477e-41
5.94 2.25 1.7 9.1477e-41
5.98 2.25 1.71 9.1477e-41
6.02 2.25 1.72 9.1477e-41
6.06 2.25 1.73 9.1477e-41
6.1 2.25 1.73 9.1477e-41
6.15 2.25 1.73 9.1477e-41
6.19 2.25 1.73 9.1477e-41
6.23 2.25 1.74 9.1477e-41
6.28 2.25 1.74 9.1477e-41
6.33 2.25 1.74 9.1477e-41
6.37 2.25 1.74 9.1477e-41
6.42 2.25 1.75 9.1477e-41
6.46 2.25 1.76 9.1477e-41
6.52 2.25 1.75 9.1477e-41
6.56 2.25 1.76 9.1477e-41
6.61 2.25 1.75 9.1477e-41
6.66 2.25 1.74 9.1477e-41
6.71 2.25 1.75 9.1477e-41
6.77 2.25 1.75 9.1477e-41
6.82 2.25 1.76 9.1477e-41
6.88 2.25 1.75 9.1477e-41
6.93 2.25 1.75 9.1477e-41
6.99 2.25 1.73 9.1477e-41
7.05 2.25 1.73 9.1477e-41
7.11 2.25 1.72 9.1477e-41
7.17 2.25 1.71 9.1477e-41
7.24 2.25 1.7 9.1477e-41
5.69 2.5 0.53 9.1477e-41
5.68 2.5 0.71 9.1477e-41
5.7 2.5 0.81 9.1477e-41
5.71 2.5 0.92 9.1477e-41
5.72 2.5 1.02 9.1477e-41
5.74 2.5 1.1 9.1477e-41
5.77 2.5 1.1 3.57e-43
5.77 2.5 1.1 3.57e-43
5.79 2.5 1.1 3.57e-43
5.82 2.5 1.1 3.57e-43
5.83 2.5 1.1 3.57e-43
6.15 2.5 1.1 3.57e-43
5.87 2.5 1.59 9.1477e-41
5.89 2.5 1.63 9.1477e-41
5.91 2.5 1.68 9.1477e-41
5.94 2.5 1.71 9.1477e-41
5.97 2.5 1.74 9.1477e-41
6.01 2.5 1.74 9.1477e-41
6.05 2.5 1.75 9.1477e-41
6.09 2.5 1.75 9.1477e-41
6.13 2.5 1.76 9.1477e-41
6.18 2.5 1.75 9.1477e-41
6.22 2.5 1.77 9.1477e-41
6.27 2.5 1.77 9.1477e-41
6.31 2.5 1.78 9.1477e-41
6.36 2.5 1.77 9.1477e-41
6.41 2.5 1.76 9.1477e-41
6.45 2.5 1.78 9.1477e-41
6.5 2.5 1.77 9.1477e-41
6.55 2.5 1.78 9.1477e-41
6.6 2.5 1.77 9.1477e-41
6.65 2.5 1.77 9.1477e-41
6.7 2.5 1.78 9.1477e-41
6.75 2.5 1.77 9.1477e-41
6.8 2.5 1.78 9.1477e-41
6.86 2.5 1.77 9.1477e-41
6.91 2.5 1.77 9.1477e-41
6.97 2.5 1.77 9.1477e-41
7.02 2.5 1.77 9.1477e-41
7.08 2.5 1.76 9.1477e-41
7.15 2.5 1.75 9.1477e-41
7.22 2.5 1.73 9.1477e-41
5.69 2.75 0.53 9.1477e-41
5.68 2.75 0.71 9.1477e-41
5.7 2.75 0.81 9.1477e-41
5.7 2.75 0.93 9.1477e-41
5.72 2.75 1.03 9.1477e-41
5.74 2.75 1.03 3.57e-43
5.77 2.75 1.03 3.57e-43
5.77 2.75 1.03 3.57e-43
5.79 2.75 1.03 3.57e-43
5.82 2.75 1.03 3.57e-43
5.83 2.75 1.03 3.57e-43
6.15 2.75 1.03 3.57e-43
5.87 2.75 1.59 9.1477e-41
5.88 2.75 1.65 9.1477e-41
5.91 2.75 1.68 9.1477e-41
5.94 2.75 1.71 9.1477e-41
5.96 2.75 1.76 9.1477e-41
6 2.75 1.76 9.1477e-41
6.04 2.75 1.76 9.1477e-41
6.08 2.75 1.77 9.1477e-41
6.13 2.75 1.76 9.1477e-41
6.17 2.75 1.77 9.1477e-41
6.21 2.75 1.79 9.1477e-41
6.25 2.75 1.79 9.1477e-41
6.3 2.75 1.79 9.1477e-41
6.35 2.75 1.79 9.1477e-41
6.39 2.75 1.79 9.1477e-41
6.44 2.75 1.79 9.1477e-41
6.48 2.75 1.8 9.1477e-41
6.54 2.75 1.79 9.1477e-41
6.58 2.75 1.8 9.1477e-41
6.64 2.75 1.79 9.1477e-41
6.69 2.75 1.79 9.1477e-41
6.73 2.75 1.8 9.1477e-41
6.8 2.75 1.78 9.1477e-41
6.84 2.75 1.8 9.1477e-41
6.9 2.75 1.79 9.1477e-41
6.96 2.75 1.78 9.1477e-41
7.02 2.75 1.77 9.1477e-41
7.07 2.75 1.78 9.1477e-41
7.13 2.75 1.77 9.1477e-41
7.21 2.75 1.74 9.1477e-41
5.69 3 0.52 9.1477e-41
5.68 3 0.72 9.1477e-41
5.7 3 0.8 9.1477e-41
5.71 3 0.92 9.1477e-41
5.72 3 1.02 9.1477e-41
5.74 3 1.02 3.57e-43
5.77 3 1.02 3.57e-43
5.77 3 1.02 3.57e-43
5.79 3 1.02 3.57e-43
5.82 3 1.37 9.1477e-41
5.91 3 1.26 9.1477e-41
5.95 3 1.26 9.1477e-41
5.99 3 1.28 9.1477e-41
5.88 3 1.65 9.1477e-41
5.9 3 1.69 9.1477e-41
5.93 3 1.72 9.1477e-41
5.95 3 1.77 9.1477e-41
5.99 3 1.77 9.1477e-41
6.04 3 1.77 9.1477e-41
6.07 3 1.79 9.1477e-41
6.12 3 1.79 9.1477e-41
6.16 3 1.79 9.1477e-41
6.21 3 1.79 9.1477e-41
6.25 3 1.8 9.1477e-41
6.29 3 1.8 9.1477e-41
6.35 3 1.79 9.1477e-41
6.39 3 1.8 9.1477e-41
6.43 3 1.8 9.1477e-41
6.48 3 1.81 9.1477e-41
6.52 3 1.82 9.1477e-41
6.58 3 1.8 9.1477e-41
6.63 3 1.8 9.1477e-41
6.68 3 1.81 9.1477e-41
6.73 3 1.81 9.1477e-41
6.78 3 1.81 9.1477e-41
6.83 3 1.81 9.1477e-41
6.89 3 1.81 9.1477e-41
6.94 3 1.81 9.1477e-41
7 3 1.79 9.1477e-41
7.06 3 1.79 9.1477e-41
7.12 3 1.78 9.1477e-41
7.2 3 1.75 9.1477e-41
7.25 3 1.77 9.1477e-41
5.67 3.25 0.57 9.1477e-41
5.68 3.25 0.72 9.1477e-41
5.7 3.25 0.79 9.1477e-41
5.71 3.25 0.9 9.1477e-41
5.73 3.25 1 9.1477e-41
5.74 3.25 1.1 9.1477e-41
5.77 3.25 1.1 3.57e-43
5.77 3.25 1.1 3.57e-43
5.79 3.25 1.1 3.57e-43
5.82 3.25 1.1 3.57e-43
5.91 3.25 1.1 3.57e-43
5.95 3.25 1.1 3.57e-43
5.99 3.25 1.28 9.1477e-41
5.88 3.25 1.65 9.1477e-41
5.9 3.25 1.68 9.1477e-41
5.93 3.25 1.72 9.1477e-41
5.96 3.25 1.76 9.1477e-41
5.99 3.25 1.78 9.1477e-41
6.04 3.25 1.76 9.1477e-41
6.07 3.25 1.79 9.1477e-41
6.12 3.25 1.79 9.1477e-41
6.16 3.25 1.79 9.1477e-41
6.2 3.25 1.8 9.1477e-41
6.25 3.25 1.8 9.1477e-41
6.29 3.25 1.8 9.1477e-41
6.33 3.25 1.81 9.1477e-41
6.39 3.25 1.8 9.1477e-41
6.42 3.25 1.81 9.1477e-41
6.47 3.25 1.8 9.1477e-41
6.52 3.25 1.81 9.1477e-41
6.58 3.25 1.81 9.1477e-41
6.63 3.25 1.8 9.1477e-41
6.67 3.25 1.82 9.1477e-41
6.73 3.25 1.81 9.1477e-41
6.78 3.25 1.81 9.1477e-41
6.83 3.25 1.81 9.1477e-41
6.88 3.25 1.81 9.1477e-41
6.94 3.25 1.81 9.1477e-41
7 3.25 1.8 9.1477e-41
7.06 3.25 1.8 9.1477e-41
7.12 3.25 1.78 9.1477e-41
7.19 3.25 1.76 9.1477e-41
7.24 3.25 1.77 9.1477e-41
5.69 3.5 0.5 9.1477e-41
5.67 3.5 0.74 9.1477e-41
5.69 3.5 0.84 9.1477e-41
5.71 3.5 0.92 9.1477e-41
5.72 3.5 1.01 9.1477e-41
5.74 3.5 1.09 9.1477e-41
5.75 3.5 1.19 9.1477e-41
5.79 3.5 1.19 3.57e-43
5.79 3.5 1.19 3.57e-43
5.82 3.5 1.19 3.57e-43
5.91 3.5 1.19 3.57e-43
5.95 3.5 1.19 3.57e-43
5.99 3.5 1.19 3.57e-43
5.88 3.5 1.65 9.1477e-41
5.9 3.5 1.68 9.1477e-41
5.93 3.5 1.72 9.1477e-41
5.96 3.5 1.75 9.1477e-41
5.99 3.5 1.77 9.1477e-41
6.04 3.5 1.76 9.1477e-41
6.08 3.5 1.77 9.1477e-41
6.12 3.5 1.79 9.1477e-41
6.16 3.5 1.78 9.1477e-41
6.2 3.5 1.81 9.1477e-41
6.25 3.5 1.8 9.1477e-41
6.29 3.5 1.8 9.1477e-41
6.34 3.5 1.8 9.1477e-41
6.38 3.5 1.81 9.1477e-41
6.43 3.5 1.81 9.1477e-41
6.48 3.5 1.81 9.1477e-41
6.52 3.5 1.81 9.1477e-41
6.58 3.5 1.81 9.1477e-41
6.62 3.5 1.81 9.1477e-41
6.68 3.5 1.81 9.1477e-41
6.72 3.5 1.82 9.1477e-41
6.77 3.5 1.81 9.1477e-41
6.83 3.5 1.81 9.1477e-41
6.88 3.5 1.81 9.1477e-41
6.95 3.5 1.8 9.1477e-41
7 3.5 1.8 9.1477e-41
7.06 3.5 1.8 9.1477e-41
7.11 3.5 1.79 9.1477e-41
7.19 3.5 1.76 9.1477e-41
7.23 3.5 1.78 9.1477e-41
5.69 3.75 0.5 9.1477e-41
5.67 3.75 0.73 9.1477e-41
5.7 3.75 0.81 9.1477e-41
5.71 3.75 0.9 9.1477e-41
5.73 3.75 0.98 9.1477e-41
5.75 3.75 1.07 9.1477e-41
5.75 3.75 1.18 9.1477e-41
5.79 3.75 1.18 3.57e-43
5.79 3.75 1.18 3.57e-43
5.82 3.75 1.18 3.57e-43
5.91 3.75 1.18 3.57e-43
5.95 3.75 1.18 3.57e-43
5.99 3.75 1.28 9.1477e-41
5.89 3.75 1.63 9.1477e-41
5.91 3.75 1.67 9.1477e-41
5.94 3.75 1.71 9.1477e-41
5.96 3.75 1.75 9.1477e-41
5.99 3.75 1.77 9.1477e-41
6.04 3.75 1.77 9.1477e-41
6.08 3.75 1.77 9.1477e-41
6.12 3.75 1.79 9.1477e-41
6.16 3.75 1.78 9.1477e-41
6.21 3.75 1.79 9.1477e-41
6.25 3.75 1.8 9.1477e-41
6.3 3.75 1.79 9.1477e-41
6.34 3.75 1.8 9.1477e-41
6.39 3.75 1.79 9.1477e-41
6.43 3.75 1.81 9.1477e-41
6.48 3.75 1.81 9.1477e-41
6.54 3.75 1.79 9.1477e-41
6.58 3.75 1.81 9.1477e-41
6.63 3.75 1.8 9.1477e-41
6.68 3.75 1.81 9.1477e-41
6.73 3.75 1.8 9.1477e-41
6.78 3.75 1.81 9.1477e-41
6.84 3.75 1.81 9.1477e-41
6.89 3.75 1.81 9.1477e-41
6.94 3.75 1.81 9.1477e-41
7 3.75 1.79 9.1477e-41
7.06 3.75 1.8 9.1477e-41
7.12 3.75 1.79 9.1477e-41
7.19 3.75 1.76 9.1477e-41
7.24 3.75 1.77 9.1477e-41
5.7 4 0.49 9.1477e-41
5.7 4 0.64 9.1477e-41
5.71 4 0.75 9.1477e-41
5.73 4 0.85 9.1477e-41
5.74 4 0.95 9.1477e-41
5.74 4 1.08 9.1477e-41
5.77 4 1.14 9.1477e-41
5.78 4 1.22 9.1477e-41
5.8 4 1.3 9.1477e-41
5.81 4 1.38 9.1477e-41
5.84 4 1.43 9.1477e-41
5.86 4 1.5 9.1477e-41
5.87 4 1.56 9.1477e-41
5.89 4 1.61 9.1477e-41
5.92 4 1.64 9.1477e-41
5.94 4 1.71 9.1477e-41
5.97 4 1.73 9.1477e-41
6.01 4 1.75 9.1477e-41
6.04 4 1.76 9.1477e-41
6.09 4 1.76 9.1477e-41
6.12 4 1.77 9.1477e-41
6.17 4 1.77 9.1477e-41
6.21 4 1.78 9.1477e-41
6.25 4 1.79 9.1477e-41
6.3 4 1.79 9.1477e-41
6.34 4 1.8 9.1477e-41
6.39 4 1.79 9.1477e-41
6.43 4 1.8 9.1477e-41
6.49 4 1.79 9.1477e-41
6.54 4 1.79 9.1477e-41
6.59 4 1.78 9.1477e-41
6.64 4 1.79 9.1477e-41
6.68 4 1.8 9.1477e-41
6.74 4 1.79 9.1477e-41
6.79 4 1.79 9.1477e-41
6.85 4 1.79 9.1477e-41
6.9 4 1.79 9.1477e-41
6.95 4 1.79 9.1477e-41
7.02 4 1.77 9.1477e-41
7.08 4 1.77 9.1477e-41
7.13 4 1.77 9.1477e-41
7.21 4 1.74 9.1477e-41
5.7 4.25 0.65 9.1477e-41
5.8 4.25 0.5 9.1477e-41
5.85 4.25 0.49 9.1477e-41
5.91 4.25 0.48 9.1477e-41
5.95 4.25 0.5 9.1477e-41
6.01 4.25 0.5 9.1477e-41
6.06 4.25 0.5 9.1477e-41
6.11 4.25 0.5 9.1477e-41
6.17 4.25 0.49 9.1477e-41
6.22 4.25 0.52 9.1477e-41
6.24 4.25 0.59 9.1477e-41
6.23 4.25 0.73 9.1477e-41
6.21 4.25 0.9 9.1477e-41
6.24 4.25 0.94 9.1477e-41
6.26 4.25 1.01 9.1477e-41
6.31 4.25 1.03 9.1477e-41
6.35 4.25 1.04 9.1477e-41
6.4 4.25 1.05 9.1477e-41
6.44 4.25 1.07 9.1477e-41
6.48 4.25 1.09 9.1477e-41
6.52 4.25 1.11 9.1477e-41
6.59 4.25 1.08 9.1477e-41
6.65 4.25 1.06 9.1477e-41
6.68 4.25 1.12 9.1477e-41
6.71 4.25 1.16 9.1477e-41
6.79 4.25 1.12 9.1477e-41
6.85 4.25 1.12 9.1477e-41
6.91 4.25 1.11 9.1477e-41
6.96 4.25 1.12 9.1477e-41
