# .PCD v.7 - Point Cloud Data file format
VERSION .7
FIELDS x y z rgb
SIZE 4 4 4 4
TYPE F F F F
WIDTH 1936
HEIGHT 1
POINTS 1936
DATA ascii
6.02 0.25 0.75 9.1477e-41
4.58 0.3 0.69 9.1477e-41
4.61 0.3 0.74 9.1477e-41
4.66 0.3 0.73 9.1477e-41
4.7 0.3 0.74 9.1477e-41
4.74 0.3 0.78 9.1477e-41
4.79 0.3 0.75 9.1477e-41
4.82 0.3 0.87 9.1477e-41
4.85 0.3 0.92 9.1477e-41
4.9 0.3 0.91 9.1477e-41
4.94 0.3 0.93 9.1477e-41
4.98 0.3 0.93 9.1477e-41
5.02 0.3 0.92 9.1477e-41
5.07 0.3 0.94 9.1477e-41
5.11 0.3 0.93 9.1477e-41
5.15 0.3 0.94 9.1477e-41
5.2 0.3 0.94 9.1477e-41
5.24 0.3 0.95 9.1477e-41
5.29 0.3 0.94 9.1477e-41
5.33 0.3 0.93 9.1477e-41
5.38 0.3 0.94 9.1477e-41
5.42 0.3 0.94 9.1477e-41
5.47 0.3 0.93 9.1477e-41
5.52 0.3 0.94 9.1477e-41
5.56 0.3 0.93 9.1477e-41
5.61 0.3 0.93 9.1477e-41
5.66 0.3 0.92 9.1477e-41
5.71 0.3 0.92 9.1477e-41
5.76 0.3 0.91 9.1477e-41
5.81 0.3 0.91 9.1477e-41
5.87 0.3 0.88 9.1477e-41
5.91 0.3 0.89 9.1477e-41
6 0.3 0.79 9.1477e-41
6.07 0.3 0.74 9.1477e-41
4.55 0.35 0.53 9.1477e-41
4.57 0.35 0.73 9.1477e-41
4.61 0.35 0.74 9.1477e-41
4.65 0.35 0.79 9.1477e-41
4.71 0.35 0.69 9.1477e-41
4.75 0.35 0.71 9.1477e-41
4.78 0.35 0.83 9.1477e-41
4.81 0.35 0.92 9.1477e-41
4.85 0.35 0.93 9.1477e-41
4.89 0.35 0.94 9.1477e-41
4.93 0.35 0.95 9.1477e-41
4.98 0.35 0.95 9.1477e-41
5.02 0.35 0.93 9.1477e-41
5.06 0.35 0.95 9.1477e-41
5.11 0.35 0.95 9.1477e-41
5.15 0.35 0.96 9.1477e-41
5.2 0.35 0.95 9.1477e-41
5.24 0.35 0.97 9.1477e-41
5.28 0.35 0.96 9.1477e-41
5.33 0.35 0.95 9.1477e-41
5.37 0.35 0.97 9.1477e-41
5.42 0.35 0.97 9.1477e-41
5.46 0.35 0.96 9.1477e-41
5.51 0.35 0.95 9.1477e-41
5.56 0.35 0.95 9.1477e-41
5.6 0.35 0.95 9.1477e-41
5.65 0.35 0.94 9.1477e-41
5.7 0.35 0.95 9.1477e-41
5.75 0.35 0.93 9.1477e-41
5.8 0.35 0.93 9.1477e-41
5.85 0.35 0.91 9.1477e-41
5.91 0.35 0.9 9.1477e-41
5.97 0.35 0.88 9.1477e-41
6.05 0.35 0.79 9.1477e-41
4.54 0.4 0.63 9.1477e-41
4.57 0.4 0.74 9.1477e-41
4.61 0.4 0.75 9.1477e-41
4.65 0.4 0.75 3.57e-43
4.71 0.4 0.69 9.1477e-41
4.72 0.4 0.91 9.1477e-41
4.76 0.4 0.93 9.1477e-41
4.8 0.4 0.95 9.1477e-41
4.85 0.4 0.94 9.1477e-41
4.89 0.4 0.96 9.1477e-41
4.93 0.4 0.97 9.1477e-41
4.98 0.4 0.96 9.1477e-41
5.02 0.4 0.95 9.1477e-41
5.06 0.4 0.98 9.1477e-41
5.1 0.4 0.97 9.1477e-41
5.15 0.4 0.97 9.1477e-41
5.19 0.4 0.98 9.1477e-41
5.23 0.4 0.98 9.1477e-41
5.28 0.4 0.98 9.1477e-41
5.32 0.4 0.98 9.1477e-41
5.37 0.4 0.98 9.1477e-41
5.41 0.4 0.97 9.1477e-41
5.46 0.4 0.97 9.1477e-41
5.5 0.4 0.98 9.1477e-41
5.55 0.4 0.97 9.1477e-41
5.6 0.4 0.97 9.1477e-41
5.65 0.4 0.96 9.1477e-41
5.69 0.4 0.97 9.1477e-41
5.75 0.4 0.95 9.1477e-41
5.79 0.4 0.95 9.1477e-41
5.84 0.4 0.95 9.1477e-41
5.9 0.4 0.93 9.1477e-41
5.95 0.4 0.93 9.1477e-41
6.04 0.4 0.82 9.1477e-41
6.11 0.4 0.78 9.1477e-41
4.53 0.45 0.67 9.1477e-41
4.57 0.45 0.77 9.1477e-41
4.61 0.45 0.77 9.1477e-41
4.66 0.45 0.75 9.1477e-41
4.68 0.45 0.93 9.1477e-41
4.72 0.45 0.95 9.1477e-41
4.76 0.45 0.95 9.1477e-41
4.8 0.45 0.96 9.1477e-41
4.84 0.45 0.96 9.1477e-41
4.89 0.45 0.97 9.1477e-41
4.93 0.45 0.98 9.1477e-41
4.97 0.45 0.97 9.1477e-41
5.01 0.45 0.98 9.1477e-41
5.06 0.45 0.98 9.1477e-41
5.1 0.45 0.99 9.1477e-41
5.14 0.45 0.99 9.1477e-41
5.19 0.45 0.99 9.1477e-41
5.23 0.45 1 9.1477e-41
5.28 0.45 0.99 9.1477e-41
5.32 0.45 0.99 9.1477e-41
5.36 0.45 0.99 9.1477e-41
5.41 0.45 0.98 9.1477e-41
5.45 0.45 0.99 9.1477e-41
5.5 0.45 0.99 9.1477e-41
5.55 0.45 0.98 9.1477e-41
5.6 0.45 0.98 9.1477e-41
5.64 0.45 0.98 9.1477e-41
5.69 0.45 0.97 9.1477e-41
5.74 0.45 0.97 9.1477e-41
5.79 0.45 0.96 9.1477e-41
5.84 0.45 0.95 9.1477e-41
5.89 0.45 0.95 9.1477e-41
5.94 0.45 0.95 9.1477e-41
5.99 0.45 0.94 9.1477e-41
6.05 0.45 0.92 9.1477e-41
4.53 0.5 0.72 9.1477e-41
4.56 0.5 0.81 9.1477e-41
4.6 0.5 0.85 9.1477e-41
4.65 0.5 0.85 3.57e-43
4.68 0.5 0.93 9.1477e-41
4.72 0.5 0.97 9.1477e-41
4.76 0.5 0.98 9.1477e-41
4.8 0.5 0.98 9.1477e-41
4.84 0.5 0.97 9.1477e-41
4.88 0.5 0.99 9.1477e-41
4.93 0.5 0.98 9.1477e-41
4.97 0.5 1 9.1477e-41
5.01 0.5 0.99 9.1477e-41
5.05 0.5 1 9.1477e-41
5.1 0.5 1.01 9.1477e-41
5.14 0.5 0.99 9.1477e-41
5.18 0.5 1 9.1477e-41
5.23 0.5 1.01 9.1477e-41
5.27 0.5 1.01 9.1477e-41
5.31 0.5 1.01 9.1477e-41
5.36 0.5 1 9.1477e-41
5.4 0.5 1 9.1477e-41
5.45 0.5 1 9.1477e-41
5.5 0.5 1 9.1477e-41
5.54 0.5 1 9.1477e-41
5.59 0.5 1 9.1477e-41
5.63 0.5 1 9.1477e-41
5.68 0.5 0.99 9.1477e-41
5.73 0.5 0.99 9.1477e-41
5.78 0.5 0.98 9.1477e-41
5.83 0.5 0.97 9.1477e-41
5.88 0.5 0.97 9.1477e-41
5.93 0.5 0.98 9.1477e-41
5.99 0.5 0.95 9.1477e-41
6.04 0.5 0.95 3.57e-43
4.53 0.55 0.75 9.1477e-41
4.56 0.55 0.84 9.1477e-41
4.6 0.55 0.88 9.1477e-41
4.63 0.55 0.97 9.1477e-41
4.67 0.55 0.97 9.1477e-41
4.71 0.55 0.99 9.1477e-41
4.75 0.55 1 9.1477e-41
4.8 0.55 1 9.1477e-41
4.84 0.55 0.99 9.1477e-41
4.88 0.55 1 9.1477e-41
4.92 0.55 1.01 9.1477e-41
4.96 0.55 1.01 9.1477e-41
5.01 0.55 0.99 9.1477e-41
5.05 0.55 1.02 9.1477e-41
5.1 0.55 1.01 9.1477e-41
5.14 0.55 1.02 9.1477e-41
5.18 0.55 1.01 9.1477e-41
5.22 0.55 1.03 9.1477e-41
5.27 0.55 1.03 9.1477e-41
5.31 0.55 1.02 9.1477e-41
5.36 0.55 1.02 9.1477e-41
5.4 0.55 1.01 9.1477e-41
5.45 0.55 1.01 9.1477e-41
5.49 0.55 1.02 9.1477e-41
5.54 0.55 1.01 9.1477e-41
5.58 0.55 1.01 9.1477e-41
5.63 0.55 1.01 9.1477e-41
5.68 0.55 1 9.1477e-41
5.73 0.55 1 9.1477e-41
5.77 0.55 1 9.1477e-41
5.83 0.55 0.98 9.1477e-41
5.88 0.55 0.98 9.1477e-41
5.93 0.55 0.98 9.1477e-41
5.98 0.55 0.98 9.1477e-41
6.04 0.55 0.95 9.1477e-41
6.08 0.55 0.97 9.1477e-41
4.49 0.6 0.63 9.1477e-41
4.52 0.6 0.79 9.1477e-41
4.56 0.6 0.85 9.1477e-41
4.6 0.6 0.92 9.1477e-41
4.63 0.6 0.98 9.1477e-41
4.67 0.6 0.99 9.1477e-41
4.71 0.6 1 9.1477e-41
4.75 0.6 1.01 9.1477e-41
4.8 0.6 1.01 9.1477e-41
4.84 0.6 1 9.1477e-41
4.88 0.6 1.02 9.1477e-41
4.92 0.6 1.02 9.1477e-41
4.96 0.6 1.02 9.1477e-41
5.01 0.6 1.02 9.1477e-41
5.05 0.6 1.03 9.1477e-41
5.09 0.6 1.03 9.1477e-41
5.14 0.6 1.02 9.1477e-41
5.17 0.6 1.04 9.1477e-41
5.22 0.6 1.04 9.1477e-41
5.26 0.6 1.04 9.1477e-41
5.31 0.6 1.03 9.1477e-41
5.35 0.6 1.04 9.1477e-41
5.39 0.6 1.04 9.1477e-41
5.44 0.6 1.03 9.1477e-41
5.49 0.6 1.04 9.1477e-41
5.53 0.6 1.03 9.1477e-41
5.58 0.6 1.03 9.1477e-41
5.62 0.6 1.03 9.1477e-41
5.68 0.6 1.01 9.1477e-41
5.72 0.6 1.03 9.1477e-41
5.77 0.6 1 9.1477e-41
5.82 0.6 1.02 9.1477e-41
5.87 0.6 1 9.1477e-41
5.92 0.6 0.99 9.1477e-41
5.97 0.6 1 9.1477e-41
6.02 0.6 0.98 9.1477e-41
6.07 0.6 0.98 9.1477e-41
6.19 0.6 0.83 9.1477e-41
4.49 0.65 0.7 9.1477e-41
4.52 0.65 0.8 9.1477e-41
4.56 0.65 0.88 9.1477e-41
4.59 0.65 0.94 9.1477e-41
4.63 0.65 1 9.1477e-41
4.67 0.65 1 9.1477e-41
4.71 0.65 1.01 9.1477e-41
4.75 0.65 1.02 9.1477e-41
4.79 0.65 1.03 9.1477e-41
4.84 0.65 1.01 9.1477e-41
4.88 0.65 1.04 9.1477e-41
4.92 0.65 1.04 9.1477e-41
4.96 0.65 1.03 9.1477e-41
5 0.65 1.03 9.1477e-41
5.04 0.65 1.04 9.1477e-41
5.09 0.65 1.05 9.1477e-41
5.13 0.65 1.05 9.1477e-41
5.17 0.65 1.05 9.1477e-41
5.22 0.65 1.06 9.1477e-41
5.26 0.65 1.05 9.1477e-41
5.3 0.65 1.06 9.1477e-41
5.35 0.65 1.04 9.1477e-41
5.39 0.65 1.04 9.1477e-41
5.44 0.65 1.04 9.1477e-41
5.48 0.65 1.05 9.1477e-41
5.53 0.65 1.04 9.1477e-41
5.57 0.65 1.04 9.1477e-41
5.62 0.65 1.04 9.1477e-41
5.67 0.65 1.02 9.1477e-41
5.72 0.65 1.04 9.1477e-41
5.76 0.65 1.03 9.1477e-41
5.82 0.65 1.01 9.1477e-41
5.86 0.65 1.01 9.1477e-41
5.91 0.65 1.01 9.1477e-41
5.96 0.65 1.01 9.1477e-41
6.02 0.65 1 9.1477e-41
6.07 0.65 1 9.1477e-41
6.13 0.65 0.96 9.1477e-41
4.5 0.7 0.58 9.1477e-41
4.52 0.7 0.83 9.1477e-41
4.56 0.7 0.9 9.1477e-41
4.59 0.7 0.97 9.1477e-41
4.63 0.7 1.01 9.1477e-41
4.67 0.7 1.02 9.1477e-41
4.71 0.7 1.03 9.1477e-41
4.75 0.7 1.04 9.1477e-41
4.79 0.7 1.04 9.1477e-41
4.83 0.7 1.04 9.1477e-41
4.87 0.7 1.05 9.1477e-41
4.92 0.7 1.05 9.1477e-41
4.96 0.7 1.05 9.1477e-41
5 0.7 1.05 9.1477e-41
5.04 0.7 1.05 9.1477e-41
5.08 0.7 1.06 9.1477e-41
5.13 0.7 1.06 9.1477e-41
5.17 0.7 1.06 9.1477e-41
5.21 0.7 1.07 9.1477e-41
5.26 0.7 1.06 9.1477e-41
5.3 0.7 1.06 9.1477e-41
5.35 0.7 1.05 9.1477e-41
5.39 0.7 1.05 9.1477e-41
5.43 0.7 1.05 9.1477e-41
5.48 0.7 1.06 9.1477e-41
5.52 0.7 1.06 9.1477e-41
5.57 0.7 1.05 9.1477e-41
5.62 0.7 1.05 9.1477e-41
5.66 0.7 1.05 9.1477e-41
5.71 0.7 1.06 9.1477e-41
5.76 0.7 1.04 9.1477e-41
5.81 0.7 1.03 9.1477e-41
5.86 0.7 1.02 9.1477e-41
5.91 0.7 1.02 9.1477e-41
5.96 0.7 1.03 9.1477e-41
6.01 0.7 1.02 9.1477e-41
6.06 0.7 1.01 9.1477e-41
6.12 0.7 0.98 9.1477e-41
4.49 0.75 0.71 9.1477e-41
4.52 0.75 0.85 9.1477e-41
4.55 0.75 0.92 9.1477e-41
4.59 0.75 0.99 9.1477e-41
4.63 0.75 1.02 9.1477e-41
4.67 0.75 1.02 9.1477e-41
4.71 0.75 1.04 9.1477e-41
4.75 0.75 1.05 9.1477e-41
4.79 0.75 1.05 9.1477e-41
4.83 0.75 1.04 9.1477e-41
4.87 0.75 1.08 9.1477e-41
4.91 0.75 1.06 9.1477e-41
4.96 0.75 1.06 9.1477e-41
5 0.75 1.06 9.1477e-41
5.04 0.75 1.06 9.1477e-41
5.08 0.75 1.08 9.1477e-41
5.12 0.75 1.08 9.1477e-41
5.17 0.75 1.08 9.1477e-41
5.21 0.75 1.08 9.1477e-41
5.26 0.75 1.07 9.1477e-41
5.3 0.75 1.08 9.1477e-41
5.34 0.75 1.07 9.1477e-41
5.39 0.75 1.07 9.1477e-41
5.43 0.75 1.07 9.1477e-41
5.48 0.75 1.08 9.1477e-41
5.52 0.75 1.08 9.1477e-41
5.57 0.75 1.07 9.1477e-41
5.61 0.75 1.07 9.1477e-41
5.66 0.75 1.07 9.1477e-41
5.71 0.75 1.06 9.1477e-41
5.75 0.75 1.06 9.1477e-41
5.81 0.75 1.05 9.1477e-41
5.85 0.75 1.04 9.1477e-41
5.9 0.75 1.04 9.1477e-41
5.95 0.75 1.04 9.1477e-41
6 0.75 1.04 9.1477e-41
6.05 0.75 1.02 9.1477e-41
6.11 0.75 1.01 9.1477e-41
4.48 0.8 0.74 9.1477e-41
4.52 0.8 0.85 9.1477e-41
4.55 0.8 0.92 9.1477e-41
4.59 0.8 1 9.1477e-41
4.62 0.8 1.04 9.1477e-41
4.66 0.8 1.06 9.1477e-41
4.7 0.8 1.05 9.1477e-41
4.75 0.8 1.05 9.1477e-41
4.79 0.8 1.06 9.1477e-41
4.83 0.8 1.06 9.1477e-41
4.87 0.8 1.07 9.1477e-41
4.91 0.8 1.08 9.1477e-41
4.95 0.8 1.07 9.1477e-41
4.99 0.8 1.08 9.1477e-41
5.04 0.8 1.07 9.1477e-41
5.08 0.8 1.09 9.1477e-41
5.12 0.8 1.09 9.1477e-41
5.17 0.8 1.08 9.1477e-41
5.2 0.8 1.1 9.1477e-41
5.25 0.8 1.08 9.1477e-41
5.29 0.8 1.09 9.1477e-41
5.34 0.8 1.09 9.1477e-41
5.38 0.8 1.08 9.1477e-41
5.43 0.8 1.08 9.1477e-41
5.47 0.8 1.08 9.1477e-41
5.52 0.8 1.09 9.1477e-41
5.56 0.8 1.08 9.1477e-41
5.61 0.8 1.07 9.1477e-41
5.65 0.8 1.08 9.1477e-41
5.7 0.8 1.07 9.1477e-41
5.75 0.8 1.06 9.1477e-41
5.8 0.8 1.07 9.1477e-41
5.85 0.8 1.05 9.1477e-41
5.9 0.8 1.05 9.1477e-41
5.95 0.8 1.05 9.1477e-41
6 0.8 1.04 9.1477e-41
6.05 0.8 1.03 9.1477e-41
6.1 0.8 1.03 9.1477e-41
6.2 0.8 0.92 9.1477e-41
4.48 0.85 0.76 9.1477e-41
4.52 0.85 0.86 9.1477e-41
4.55 0.85 0.94 9.1477e-41
4.59 0.85 1.01 9.1477e-41
4.62 0.85 1.05 9.1477e-41
4.66 0.85 1.05 9.1477e-41
4.7 0.85 1.05 9.1477e-41
4.74 0.85 1.07 9.1477e-41
4.79 0.85 1.08 9.1477e-41
4.83 0.85 1.08 9.1477e-41
4.87 0.85 1.08 9.1477e-41
4.91 0.85 1.1 9.1477e-41
4.95 0.85 1.08 9.1477e-41
4.99 0.85 1.08 9.1477e-41
5.04 0.85 1.08 9.1477e-41
5.08 0.85 1.1 9.1477e-41
5.12 0.85 1.08 9.1477e-41
5.16 0.85 1.09 9.1477e-41
5.21 0.85 1.08 9.1477e-41
5.25 0.85 1.1 9.1477e-41
5.29 0.85 1.09 9.1477e-41
5.34 0.85 1.09 9.1477e-41
5.38 0.85 1.09 9.1477e-41
5.43 0.85 1.08 9.1477e-41
5.47 0.85 1.09 9.1477e-41
5.52 0.85 1.09 9.1477e-41
5.56 0.85 1.09 9.1477e-41
5.6 0.85 1.09 9.1477e-41
5.65 0.85 1.08 9.1477e-41
5.7 0.85 1.08 9.1477e-41
5.74 0.85 1.09 9.1477e-41
5.79 0.85 1.08 9.1477e-41
5.84 0.85 1.07 9.1477e-41
5.89 0.85 1.07 9.1477e-41
5.94 0.85 1.07 9.1477e-41
5.99 0.85 1.06 9.1477e-41
6.04 0.85 1.06 9.1477e-41
6.1 0.85 1.04 9.1477e-41
6.18 0.85 0.97 9.1477e-41
4.48 0.9 0.76 9.1477e-41
4.52 0.9 0.87 9.1477e-41
4.55 0.9 0.95 9.1477e-41
4.59 0.9 1.02 9.1477e-41
4.62 0.9 1.05 9.1477e-41
4.66 0.9 1.07 9.1477e-41
4.7 0.9 1.07 9.1477e-41
4.74 0.9 1.08 9.1477e-41
4.78 0.9 1.09 9.1477e-41
4.83 0.9 1.07 9.1477e-41
4.87 0.9 1.09 9.1477e-41
4.91 0.9 1.07 9.1477e-41
4.96 0.9 1.02 9.1477e-41
5.01 0.9 1.01 9.1477e-41
5.05 0.9 1.02 9.1477e-41
5.1 0.9 1.01 9.1477e-41
5.14 0.9 1.02 9.1477e-41
5.18 0.9 1.02 9.1477e-41
5.22 0.9 1.03 9.1477e-41
5.27 0.9 1.02 9.1477e-41
5.31 0.9 1.03 9.1477e-41
5.35 0.9 1.03 9.1477e-41
5.4 0.9 1.03 9.1477e-41
5.44 0.9 1.02 9.1477e-41
5.49 0.9 1.02 3.57e-43
5.52 0.9 1.02 3.57e-43
5.56 0.9 1.09 9.1477e-41
5.63 0.9 1.02 9.1477e-41
5.68 0.9 1.01 9.1477e-41
5.71 0.9 1.04 9.1477e-41
5.75 0.9 1.08 9.1477e-41
5.79 0.9 1.07 9.1477e-41
5.84 0.9 1.08 9.1477e-41
5.89 0.9 1.07 9.1477e-41
5.94 0.9 1.07 9.1477e-41
5.99 0.9 1.06 9.1477e-41
6.04 0.9 1.06 9.1477e-41
6.09 0.9 1.05 9.1477e-41
6.16 0.9 1.01 9.1477e-41
4.48 0.95 0.76 9.1477e-41
4.52 0.95 0.86 9.1477e-41
4.55 0.95 0.95 9.1477e-41
4.58 0.95 1.03 9.1477e-41
4.62 0.95 1.06 9.1477e-41
4.66 0.95 1.09 9.1477e-41
4.7 0.95 1.07 9.1477e-41
4.74 0.95 1.1 9.1477e-41
4.79 0.95 1.02 9.1477e-41
4.84 0.95 1 9.1477e-41
4.88 0.95 1.03 9.1477e-41
4.92 0.95 1.03 9.1477e-41
4.96 0.95 1.03 9.1477e-41
5 0.95 1.03 9.1477e-41
5.05 0.95 1.03 9.1477e-41
5.09 0.95 1.04 9.1477e-41
5.13 0.95 1.05 9.1477e-41
5.17 0.95 1.05 9.1477e-41
5.22 0.95 1.05 3.57e-43
5.27 0.95 1.05 3.57e-43
5.31 0.95 1.05 3.57e-43
5.35 0.95 1.05 3.57e-43
5.4 0.95 1.05 3.57e-43
5.44 0.95 1.02 9.1477e-41
5.49 0.95 1.04 9.1477e-41
5.53 0.95 1.04 9.1477e-41
5.57 0.95 1.05 9.1477e-41
5.62 0.95 1.04 9.1477e-41
5.67 0.95 1.04 9.1477e-41
5.72 0.95 1.03 9.1477e-41
5.77 0.95 1.01 9.1477e-41
5.82 0.95 1.01 9.1477e-41
5.87 0.95 0.99 9.1477e-41
5.92 0.95 1.01 9.1477e-41
5.94 0.95 1.07 9.1477e-41
5.99 0.95 1.07 9.1477e-41
6.03 0.95 1.08 9.1477e-41
6.09 0.95 1.06 9.1477e-41
6.14 0.95 1.06 9.1477e-41
4.48 1 0.74 9.1477e-41
4.52 1 0.87 9.1477e-41
4.55 1 0.96 9.1477e-41
4.58 1 1.04 9.1477e-41
4.62 1 1.1 9.1477e-41
4.66 1 1.09 9.1477e-41
4.7 1 1.05 9.1477e-41
4.75 1 1.03 9.1477e-41
4.79 1 1.03 3.57e-43
4.84 1 1.03 3.57e-43
4.88 1 1.03 3.57e-43
4.92 1 1.03 3.57e-43
4.96 1 1.03 3.57e-43
5 1 1.03 9.1477e-41
5.03 1 1.09 9.1477e-41
5.07 1 1.09 3.57e-43
5.13 1 1.05 9.1477e-41
5.16 1 1.11 9.1477e-41
5.2 1 1.11 9.1477e-41
5.25 1 1.11 9.1477e-41
5.29 1 1.11 9.1477e-41
5.33 1 1.11 9.1477e-41
5.38 1 1.1 9.1477e-41
5.42 1 1.1 3.57e-43
5.49 1 1.03 9.1477e-41
5.51 1 1.11 9.1477e-41
5.56 1 1.09 9.1477e-41
5.61 1 1.07 9.1477e-41
5.66 1 1.06 9.1477e-41
5.71 1 1.06 9.1477e-41
5.76 1 1.05 9.1477e-41
5.81 1 1.04 9.1477e-41
5.86 1 1.02 9.1477e-41
5.91 1 1.02 9.1477e-41
5.96 1 1.01 9.1477e-41
6.01 1 1.01 9.1477e-41
6.04 1 1.07 9.1477e-41
6.08 1 1.08 9.1477e-41
6.13 1 1.07 9.1477e-41
4.48 1.05 0.74 9.1477e-41
4.52 1.05 0.86 9.1477e-41
4.55 1.05 0.96 9.1477e-41
4.58 1.05 1.05 9.1477e-41
4.62 1.05 1.09 9.1477e-41
4.66 1.05 1.09 3.57e-43
4.7 1.05 1.09 3.57e-43
4.75 1.05 1.09 3.57e-43
4.79 1.05 1.09 3.57e-43
4.84 1.05 1 9.1477e-41
4.86 1.05 1 3.57e-43
4.92 1.05 1 3.57e-43
4.96 1.05 1 3.57e-43
5 1.05 1 3.57e-43
5.03 1.05 1 3.57e-43
5.07 1.05 1 3.57e-43
5.13 1.05 1 3.57e-43
5.16 1.05 1 3.57e-43
5.2 1.05 1 3.57e-43
5.25 1.05 1 3.57e-43
5.29 1.05 1 3.57e-43
5.33 1.05 1 3.57e-43
5.38 1.05 1 3.57e-43
5.42 1.05 1 3.57e-43
5.49 1.05 1 3.57e-43
5.51 1.05 1 3.57e-43
5.56 1.05 1 3.57e-43
5.61 1.05 1 3.57e-43
5.66 1.05 1 3.57e-43
5.71 1.05 1 3.57e-43
5.76 1.05 1 3.57e-43
5.81 1.05 1 3.57e-43
5.86 1.05 1 3.57e-43
5.91 1.05 1 3.57e-43
5.96 1.05 1.01 9.1477e-41
6.01 1.05 1.02 9.1477e-41
6.05 1.05 1.02 9.1477e-41
6.09 1.05 1.05 9.1477e-41
6.12 1.05 1.09 9.1477e-41
6.23 1.05 0.96 9.1477e-41
4.48 1.1 0.75 9.1477e-41
4.52 1.1 0.84 9.1477e-41
4.55 1.1 0.95 9.1477e-41
4.58 1.1 1.06 9.1477e-41
4.62 1.1 1.11 9.1477e-41
4.66 1.1 1.12 9.1477e-41
4.7 1.1 1.1 9.1477e-41
4.74 1.1 1.12 9.1477e-41
4.78 1.1 1.12 3.57e-43
4.84 1.1 1.12 3.57e-43
4.86 1.1 1.12 3.57e-43
4.92 1.1 1.12 3.57e-43
4.96 1.1 1.12 3.57e-43
5 1.1 1.12 3.57e-43
5.03 1.1 1.12 3.57e-43
5.07 1.1 1.12 3.57e-43
5.13 1.1 1.12 3.57e-43
5.16 1.1 1.12 3.57e-43
5.2 1.1 1.12 3.57e-43
5.25 1.1 1.12 3.57e-43
5.29 1.1 1.12 3.57e-43
5.33 1.1 1.12 3.57e-43
5.38 1.1 1.12 3.57e-43
5.42 1.1 1.12 3.57e-43
5.49 1.1 1.12 3.57e-43
5.51 1.1 1.12 3.57e-43
5.56 1.1 1.12 3.57e-43
5.61 1.1 1.12 3.57e-43
5.66 1.1 1.12 3.57e-43
5.71 1.1 1.12 3.57e-43
5.76 1.1 1.12 3.57e-43
5.81 1.1 1.12 3.57e-43
5.86 1.1 1.12 3.57e-43
5.91 1.1 1.12 3.57e-43
5.96 1.1 1.12 3.57e-43
6.01 1.1 1.02 9.1477e-41
6.04 1.1 1.05 9.1477e-41
6.09 1.1 1.05 9.1477e-41
6.12 1.1 1.09 9.1477e-41
6.22 1.1 0.99 9.1477e-41
4.48 1.15 0.74 9.1477e-41
4.52 1.15 0.82 9.1477e-41
4.55 1.15 0.95 9.1477e-41
4.58 1.15 1.1 9.1477e-41
4.61 1.15 1.12 9.1477e-41
4.65 1.15 1.15 9.1477e-41
4.69 1.15 1.15 3.57e-43
4.74 1.15 1.15 3.57e-43
4.78 1.15 1.15 3.57e-43
4.84 1.15 1.15 3.57e-43
4.86 1.15 1.15 3.57e-43
4.92 1.15 1.15 3.57e-43
4.96 1.15 1.15 3.57e-43
5 1.15 1.15 3.57e-43
5.03 1.15 1.15 3.57e-43
5.07 1.15 1.15 3.57e-43
5.13 1.15 1.15 3.57e-43
5.16 1.15 1.15 3.57e-43
5.2 1.15 1.15 3.57e-43
5.25 1.15 1.15 3.57e-43
5.29 1.15 1.15 3.57e-43
5.33 1.15 1.15 3.57e-43
5.38 1.15 1.15 3.57e-43
5.42 1.15 1.15 3.57e-43
5.49 1.15 1.15 3.57e-43
5.51 1.15 1.15 3.57e-43
5.56 1.15 1.15 3.57e-43
5.61 1.15 1.15 3.57e-43
5.66 1.15 1.15 3.57e-43
5.71 1.15 1.15 3.57e-43
5.76 1.15 1.15 3.57e-43
5.81 1.15 1.15 3.57e-43
5.86 1.15 1.15 3.57e-43
5.91 1.15 1.15 3.57e-43
5.96 1.15 1.15 3.57e-43
6.01 1.15 1.02 9.1477e-41
6.02 1.15 1.1 9.1477e-41
6.08 1.15 1.09 9.1477e-41
6.12 1.15 1.1 9.1477e-41
6.2 1.15 1.03 9.1477e-41
4.49 1.2 0.69 9.1477e-41
4.52 1.2 0.84 9.1477e-41
4.55 1.2 0.95 9.1477e-41
4.58 1.2 1.08 9.1477e-41
4.61 1.2 1.16 9.1477e-41
4.65 1.2 1.18 9.1477e-41
4.69 1.2 1.18 3.57e-43
4.74 1.2 1.18 3.57e-43
4.78 1.2 1.18 3.57e-43
4.84 1.2 1.18 3.57e-43
4.86 1.2 1.18 3.57e-43
4.92 1.2 1.18 3.57e-43
4.96 1.2 1.18 3.57e-43
5 1.2 1.18 3.57e-43
5.03 1.2 1.18 3.57e-43
5.07 1.2 1.18 3.57e-43
5.13 1.2 1.18 3.57e-43
5.16 1.2 1.18 3.57e-43
5.2 1.2 1.18 3.57e-43
5.25 1.2 1.18 3.57e-43
5.29 1.2 1.18 3.57e-43
5.33 1.2 1.18 3.57e-43
5.38 1.2 1.18 3.57e-43
5.42 1.2 1.18 3.57e-43
5.49 1.2 1.18 3.57e-43
5.51 1.2 1.18 3.57e-43
5.56 1.2 1.09 9.1477e-41
5.56 1.2 1.23 9.1477e-41
5.61 1.2 1.23 3.57e-43
5.71 1.2 1.23 3.57e-43
5.76 1.2 1.23 3.57e-43
5.81 1.2 1.23 3.57e-43
5.86 1.2 1.23 3.57e-43
5.91 1.2 1.23 3.57e-43
5.96 1.2 1.23 3.57e-43
6.01 1.2 1.23 3.57e-43
6.02 1.2 1.1 9.1477e-41
6.06 1.2 1.12 9.1477e-41
6.11 1.2 1.12 9.1477e-41
6.15 1.2 1.14 9.1477e-41
4.49 1.25 0.68 9.1477e-41
4.52 1.25 0.85 9.1477e-41
4.55 1.25 0.96 9.1477e-41
4.59 1.25 1.02 9.1477e-41
4.61 1.25 1.18 9.1477e-41
4.64 1.25 1.23 9.1477e-41
4.68 1.25 1.23 9.1477e-41
4.73 1.25 1.23 3.57e-43
4.78 1.25 1.23 3.57e-43
4.84 1.25 1.23 3.57e-43
4.86 1.25 1.23 3.57e-43
4.92 1.25 1.23 3.57e-43
4.96 1.25 1.23 3.57e-43
5 1.25 1.23 3.57e-43
5.03 1.25 1.23 3.57e-43
5.07 1.25 1.23 3.57e-43
5.13 1.25 1.23 3.57e-43
5.16 1.25 1.23 3.57e-43
5.2 1.25 1.23 3.57e-43
5.25 1.25 1.23 3.57e-43
5.29 1.25 1.23 3.57e-43
5.33 1.25 1.23 3.57e-43
5.38 1.25 1.23 3.57e-43
5.42 1.25 1.23 3.57e-43
5.49 1.25 1.23 3.57e-43
5.51 1.25 1.23 3.57e-43
5.56 1.25 1.23 3.57e-43
5.56 1.25 1.23 3.57e-43
5.61 1.25 1.23 3.57e-43
5.71 1.25 1.23 3.57e-43
5.76 1.25 1.23 3.57e-43
5.81 1.25 1.23 3.57e-43
5.86 1.25 1.23 3.57e-43
5.91 1.25 1.23 3.57e-43
5.96 1.25 1.23 3.57e-43
6.01 1.25 1.23 3.57e-43
6.02 1.25 1.1 9.1477e-41
6.04 1.25 1.17 9.1477e-41
6.09 1.25 1.17 9.1477e-41
6.14 1.25 1.18 9.1477e-41
4.49 1.3 0.66 9.1477e-41
4.52 1.3 0.87 9.1477e-41
4.55 1.3 0.97 9.1477e-41
4.59 1.3 1.02 9.1477e-41
4.6 1.3 1.22 9.1477e-41
4.64 1.3 1.27 9.1477e-41
4.68 1.3 1.26 9.1477e-41
4.72 1.3 1.26 3.57e-43
4.78 1.3 1.26 3.57e-43
4.84 1.3 1.26 3.57e-43
4.86 1.3 1.26 3.57e-43
4.92 1.3 1.26 3.57e-43
4.96 1.3 1.26 3.57e-43
5 1.3 1.26 3.57e-43
5.03 1.3 1.26 3.57e-43
5.07 1.3 1.26 3.57e-43
5.13 1.3 1.26 3.57e-43
5.16 1.3 1.26 3.57e-43
5.2 1.3 1.26 3.57e-43
5.25 1.3 1.26 3.57e-43
5.29 1.3 1.26 3.57e-43
5.33 1.3 1.26 3.57e-43
5.38 1.3 1.26 3.57e-43
5.42 1.3 1.26 3.57e-43
5.49 1.3 1.26 3.57e-43
5.51 1.3 1.26 3.57e-43
5.56 1.3 1.26 3.57e-43
5.56 1.3 1.26 3.57e-43
5.61 1.3 1.26 3.57e-43
5.71 1.3 1.26 3.57e-43
5.76 1.3 1.26 3.57e-43
5.81 1.3 1.26 3.57e-43
5.86 1.3 1.26 3.57e-43
5.91 1.3 1.26 3.57e-43
5.96 1.3 1.26 3.57e-43
6.01 1.3 1.26 3.57e-43
6.02 1.3 1.26 3.57e-43
6.04 1.3 1.17 9.1477e-41
6.08 1.3 1.18 9.1477e-41
6.12 1.3 1.21 9.1477e-41
4.49 1.35 0.64 9.1477e-41
4.52 1.35 0.88 9.1477e-41
4.55 1.35 0.98 9.1477e-41
4.59 1.35 1 9.1477e-41
4.6 1.35 1.22 9.1477e-41
4.64 1.35 1.29 9.1477e-41
4.67 1.35 1.31 9.1477e-41
4.71 1.35 1.31 3.57e-43
4.78 1.35 1.12 9.1477e-41
4.79 1.35 1.33 9.1477e-41
4.83 1.35 1.33 3.57e-43
4.92 1.35 1.33 3.57e-43
4.96 1.35 1.33 3.57e-43
5 1.35 1.33 3.57e-43
5.03 1.35 1.33 3.57e-43
5.07 1.35 1.33 3.57e-43
5.13 1.35 1.33 3.57e-43
5.16 1.35 1.33 3.57e-43
5.2 1.35 1.33 3.57e-43
5.25 1.35 1.33 3.57e-43
5.29 1.35 1.33 3.57e-43
5.33 1.35 1.33 3.57e-43
5.38 1.35 1.33 3.57e-43
5.42 1.35 1.33 3.57e-43
5.49 1.35 1.33 3.57e-43
5.51 1.35 1.33 3.57e-43
5.56 1.35 1.33 3.57e-43
5.56 1.35 1.33 3.57e-43
5.61 1.35 1.33 3.57e-43
5.71 1.35 1.33 3.57e-43
5.76 1.35 1.33 3.57e-43
5.81 1.35 1.33 3.57e-43
5.86 1.35 1.33 3.57e-43
5.91 1.35 1.33 3.57e-43
5.96 1.35 1.33 3.57e-43
6.01 1.35 1.33 3.57e-43
6.02 1.35 1.33 3.57e-43
6.04 1.35 1.17 9.1477e-41
6.06 1.35 1.24 9.1477e-41
6.1 1.35 1.24 9.1477e-41
6.18 1.35 1.2 9.1477e-41
4.49 1.4 0.65 9.1477e-41
4.51 1.4 0.89 9.1477e-41
4.55 1.4 0.98 9.1477e-41
4.59 1.4 0.98 3.57e-43
4.6 1.4 1.22 9.1477e-41
4.63 1.4 1.31 9.1477e-41
4.67 1.4 1.34 9.1477e-41
4.71 1.4 1.34 3.57e-43
4.78 1.4 1.12 9.1477e-41
4.82 1.4 1.12 3.57e-43
4.83 1.4 1.12 3.57e-43
4.92 1.4 1.12 3.57e-43
4.96 1.4 1.12 3.57e-43
5 1.4 1.12 3.57e-43
5.03 1.4 1.12 3.57e-43
5.07 1.4 1.12 3.57e-43
5.13 1.4 1.12 3.57e-43
5.16 1.4 1.12 3.57e-43
5.2 1.4 1.12 3.57e-43
5.25 1.4 1.12 3.57e-43
5.29 1.4 1.12 3.57e-43
5.33 1.4 1.12 3.57e-43
5.38 1.4 1.12 3.57e-43
5.42 1.4 1.12 3.57e-43
5.49 1.4 1.12 3.57e-43
5.51 1.4 1.12 3.57e-43
5.56 1.4 1.12 3.57e-43
5.56 1.4 1.12 3.57e-43
5.61 1.4 1.12 3.57e-43
5.71 1.4 1.12 3.57e-43
5.76 1.4 1.12 3.57e-43
5.81 1.4 1.12 3.57e-43
5.86 1.4 1.12 3.57e-43
5.91 1.4 1.12 3.57e-43
5.96 1.4 1.12 3.57e-43
6.01 1.4 1.12 3.57e-43
6.02 1.4 1.12 3.57e-43
6.04 1.4 1.12 3.57e-43
6.06 1.4 1.24 9.1477e-41
6.09 1.4 1.28 9.1477e-41
6.13 1.4 1.29 9.1477e-41
4.49 1.45 0.64 9.1477e-41
4.49 1.45 1.13 9.1477e-41
4.53 1.45 1.12 9.1477e-41
4.58 1.45 1.11 9.1477e-41
4.62 1.45 1.11 9.1477e-41
4.63 1.45 1.34 9.1477e-41
4.67 1.45 1.35 9.1477e-41
4.7 1.45 1.38 9.1477e-41
4.74 1.45 1.36 9.1477e-41
4.82 1.45 1.14 9.1477e-41
4.86 1.45 1.14 9.1477e-41
4.9 1.45 1.15 9.1477e-41
4.94 1.45 1.14 9.1477e-41
4.98 1.45 1.15 9.1477e-41
5.02 1.45 1.15 9.1477e-41
5.07 1.45 1.15 9.1477e-41
5.11 1.45 1.15 9.1477e-41
5.15 1.45 1.15 9.1477e-41
5.19 1.45 1.15 3.57e-43
5.25 1.45 1.15 3.57e-43
5.29 1.45 1.15 3.57e-43
5.33 1.45 1.15 3.57e-43
5.38 1.45 1.15 3.57e-43
5.42 1.45 1.15 3.57e-43
5.49 1.45 1.15 3.57e-43
5.51 1.45 1.15 3.57e-43
5.56 1.45 1.09 9.1477e-41
5.58 1.45 1.15 9.1477e-41
5.63 1.45 1.15 9.1477e-41
5.67 1.45 1.17 9.1477e-41
5.71 1.45 1.17 9.1477e-41
5.76 1.45 1.17 3.57e-43
5.86 1.45 1.17 3.57e-43
5.91 1.45 1.17 3.57e-43
5.96 1.45 1.17 3.57e-43
6.01 1.45 1.17 3.57e-43
6.02 1.45 1.17 3.57e-43
6.04 1.45 1.17 3.57e-43
6.06 1.45 1.17 3.57e-43
6.09 1.45 1.28 9.1477e-41
6.11 1.45 1.33 9.1477e-41
4.44 1.5 1.24 9.1477e-41
4.49 1.5 1.21 9.1477e-41
4.55 1.5 1.01 9.1477e-41
4.58 1.5 1.05 9.1477e-41
4.61 1.5 1.13 9.1477e-41
4.63 1.5 1.37 9.1477e-41
4.66 1.5 1.39 9.1477e-41
4.7 1.5 1.41 9.1477e-41
4.73 1.5 1.41 3.57e-43
4.82 1.5 1.41 3.57e-43
4.86 1.5 1.41 3.57e-43
4.9 1.5 1.15 9.1477e-41
4.94 1.5 1.13 9.1477e-41
4.98 1.5 1.15 9.1477e-41
5.02 1.5 1.15 9.1477e-41
5.06 1.5 1.17 9.1477e-41
5.11 1.5 1.16 9.1477e-41
5.15 1.5 1.15 9.1477e-41
5.19 1.5 1.15 3.57e-43
5.25 1.5 1.15 3.57e-43
5.29 1.5 1.15 3.57e-43
5.33 1.5 1.15 3.57e-43
5.38 1.5 1.15 3.57e-43
5.42 1.5 1.15 3.57e-43
5.49 1.5 1.15 3.57e-43
5.51 1.5 1.15 3.57e-43
5.56 1.5 1.09 9.1477e-41
5.58 1.5 1.15 9.1477e-41
5.63 1.5 1.15 9.1477e-41
5.67 1.5 1.16 9.1477e-41
5.71 1.5 1.17 9.1477e-41
5.75 1.5 1.19 9.1477e-41
5.8 1.5 1.18 9.1477e-41
5.85 1.5 1.17 9.1477e-41
5.9 1.5 1.16 9.1477e-41
5.96 1.5 1.14 9.1477e-41
6.01 1.5 1.14 9.1477e-41
6.06 1.5 1.14 3.57e-43
6.06 1.5 1.14 3.57e-43
6.09 1.5 1.28 9.1477e-41
6.09 1.5 1.37 9.1477e-41
6.14 1.5 1.36 9.1477e-41
4.41 1.55 1.21 9.1477e-41
4.46 1.55 1.08 9.1477e-41
4.51 1.55 0.93 9.1477e-41
4.55 1.55 1 9.1477e-41
4.59 1.55 1 3.57e-43
4.61 1.55 1 3.57e-43
4.63 1.55 1.37 9.1477e-41
4.66 1.55 1.41 9.1477e-41
4.69 1.55 1.45 9.1477e-41
4.73 1.55 1.45 3.57e-43
4.82 1.55 1.45 3.57e-43
4.86 1.55 1.45 3.57e-43
4.9 1.55 1.45 3.57e-43
4.94 1.55 1.45 3.57e-43
4.98 1.55 1.45 3.57e-43
5.02 1.55 1.45 3.57e-43
5.06 1.55 1.45 3.57e-43
5.11 1.55 1.45 3.57e-43
5.15 1.55 1.45 3.57e-43
5.19 1.55 1.45 3.57e-43
5.25 1.55 1.45 3.57e-43
5.29 1.55 1.45 3.57e-43
5.33 1.55 1.45 3.57e-43
5.38 1.55 1.45 3.57e-43
5.42 1.55 1.45 3.57e-43
5.49 1.55 1.45 3.57e-43
5.51 1.55 1.45 3.57e-43
5.56 1.55 1.45 3.57e-43
5.58 1.55 1.15 9.1477e-41
5.63 1.55 1.15 9.1477e-41
5.67 1.55 1.17 9.1477e-41
5.71 1.55 1.17 3.57e-43
5.75 1.55 1.17 3.57e-43
5.8 1.55 1.18 9.1477e-41
5.89 1.55 1.18 3.57e-43
5.9 1.55 1.18 3.57e-43
5.96 1.55 1.13 9.1477e-41
6.01 1.55 1.13 3.57e-43
6.06 1.55 1.13 3.57e-43
6.06 1.55 1.13 3.57e-43
6.09 1.55 1.28 9.1477e-41
6.09 1.55 1.39 9.1477e-41
6.13 1.55 1.4 9.1477e-41
6.2 1.55 1.4 3.57e-43
4.49 1.6 0.69 9.1477e-41
4.51 1.6 0.93 9.1477e-41
4.55 1.6 1.01 9.1477e-41
4.58 1.6 1.01 3.57e-43
4.61 1.6 1.01 3.57e-43
4.63 1.6 1.37 9.1477e-41
4.65 1.6 1.44 9.1477e-41
4.69 1.6 1.47 9.1477e-41
4.72 1.6 1.47 3.57e-43
4.82 1.6 1.47 3.57e-43
4.86 1.6 1.47 3.57e-43
4.9 1.6 1.47 3.57e-43
4.94 1.6 1.47 3.57e-43
4.98 1.6 1.15 9.1477e-41
4.95 1.6 1.15 3.57e-43
5.06 1.6 1.15 3.57e-43
5.11 1.6 1.15 3.57e-43
5.15 1.6 1.15 3.57e-43
5.19 1.6 1.15 3.57e-43
5.25 1.6 1.15 3.57e-43
5.29 1.6 1.15 3.57e-43
5.33 1.6 1.15 3.57e-43
5.38 1.6 1.15 3.57e-43
5.42 1.6 1.1 9.1477e-41
5.52 1.6 0.93 9.1477e-41
5.58 1.6 0.93 3.57e-43
5.56 1.6 0.93 3.57e-43
5.58 1.6 0.93 3.57e-43
5.63 1.6 0.93 3.57e-43
5.67 1.6 0.93 3.57e-43
5.71 1.6 0.93 3.57e-43
5.75 1.6 0.93 3.57e-43
5.8 1.6 1.18 9.1477e-41
5.84 1.6 1.21 9.1477e-41
5.89 1.6 1.21 3.57e-43
5.96 1.6 1.21 3.57e-43
6.01 1.6 1.13 9.1477e-41
6.11 1.6 1.13 3.57e-43
6.06 1.6 1.13 3.57e-43
6.09 1.6 1.13 3.57e-43
6.09 1.6 1.39 9.1477e-41
6.11 1.6 1.43 9.1477e-41
6.17 1.6 1.42 9.1477e-41
6.32 1.6 1.2 9.1477e-41
6.37 1.6 1.21 9.1477e-41
4.49 1.65 0.69 9.1477e-41
4.51 1.65 0.93 9.1477e-41
4.54 1.65 1.02 9.1477e-41
4.58 1.65 1.02 3.57e-43
4.61 1.65 1.02 3.57e-43
4.63 1.65 1.37 9.1477e-41
4.65 1.65 1.46 9.1477e-41
4.69 1.65 1.48 9.1477e-41
4.72 1.65 1.51 9.1477e-41
4.76 1.65 1.51 3.57e-43
4.86 1.65 1.51 3.57e-43
4.9 1.65 1.51 3.57e-43
4.94 1.65 1.51 3.57e-43
4.98 1.65 1.51 3.57e-43
4.95 1.65 1.51 3.57e-43
5.06 1.65 1.51 3.57e-43
5.11 1.65 1.51 3.57e-43
5.15 1.65 1.51 3.57e-43
5.19 1.65 1.51 3.57e-43
5.25 1.65 1.11 9.1477e-41
5.17 1.65 1.11 3.57e-43
5.33 1.65 1.11 3.57e-43
5.38 1.65 1.11 3.57e-43
5.42 1.65 1.11 3.57e-43
5.52 1.65 1.11 3.57e-43
5.58 1.65 1.11 3.57e-43
5.56 1.65 1.11 3.57e-43
5.58 1.65 1.11 3.57e-43
5.63 1.65 1.11 3.57e-43
5.67 1.65 1.11 3.57e-43
5.71 1.65 1.11 3.57e-43
5.75 1.65 1.11 3.57e-43
5.8 1.65 1.18 9.1477e-41
5.84 1.65 1.2 9.1477e-41
5.88 1.65 1.2 3.57e-43
5.96 1.65 1.14 9.1477e-41
6.08 1.65 0.95 9.1477e-41
6.11 1.65 0.95 3.57e-43
6.06 1.65 0.95 3.57e-43
6.09 1.65 0.95 3.57e-43
6.09 1.65 1.39 9.1477e-41
6.09 1.65 1.48 9.1477e-41
6.14 1.65 1.47 9.1477e-41
4.49 1.7 0.7 9.1477e-41
4.51 1.7 0.93 9.1477e-41
4.54 1.7 1.02 9.1477e-41
4.58 1.7 1.02 3.57e-43
4.61 1.7 1.02 3.57e-43
4.63 1.7 1.37 9.1477e-41
4.65 1.7 1.48 9.1477e-41
4.68 1.7 1.51 9.1477e-41
4.71 1.7 1.55 9.1477e-41
4.75 1.7 1.55 3.57e-43
4.86 1.7 1.55 3.57e-43
4.9 1.7 1.55 3.57e-43
4.94 1.7 1.55 3.57e-43
4.98 1.7 1.55 3.57e-43
4.95 1.7 1.55 3.57e-43
5.06 1.7 1.55 3.57e-43
5.11 1.7 1.55 3.57e-43
5.15 1.7 1.55 3.57e-43
5.19 1.7 1.55 3.57e-43
5.25 1.7 1.55 3.57e-43
5.17 1.7 1.55 3.57e-43
5.33 1.7 1.55 3.57e-43
5.38 1.7 1.55 3.57e-43
5.42 1.7 1.55 3.57e-43
5.52 1.7 1.55 3.57e-43
5.58 1.7 1.55 3.57e-43
5.56 1.7 1.55 3.57e-43
5.58 1.7 1.55 3.57e-43
5.63 1.7 1.55 3.57e-43
5.67 1.7 1.55 3.57e-43
5.71 1.7 1.55 3.57e-43
5.75 1.7 1.19 9.1477e-41
5.69 1.7 1.47 9.1477e-41
5.74 1.7 1.45 9.1477e-41
5.79 1.7 1.44 9.1477e-41
5.84 1.7 1.43 9.1477e-41
5.89 1.7 1.42 9.1477e-41
5.89 1.7 1.52 9.1477e-41
5.93 1.7 1.52 9.1477e-41
5.98 1.7 1.53 9.1477e-41
6.03 1.7 1.51 9.1477e-41
6.08 1.7 1.5 9.1477e-41
6.12 1.7 1.5 9.1477e-41
4.49 1.75 0.7 9.1477e-41
4.51 1.75 0.94 9.1477e-41
4.54 1.75 1.02 9.1477e-41
4.58 1.75 1.02 3.57e-43
4.61 1.75 1.02 3.57e-43
4.63 1.75 1.02 3.57e-43
4.65 1.75 1.48 9.1477e-41
4.68 1.75 1.53 9.1477e-41
4.71 1.75 1.57 9.1477e-41
4.75 1.75 1.58 9.1477e-41
4.79 1.75 1.56 9.1477e-41
4.82 1.75 1.58 9.1477e-41
4.86 1.75 1.59 9.1477e-41
4.89 1.75 1.6 9.1477e-41
4.93 1.75 1.6 9.1477e-41
4.97 1.75 1.6 9.1477e-41
5 1.75 1.6 9.1477e-41
5.04 1.75 1.59 9.1477e-41
5.08 1.75 1.61 9.1477e-41
5.12 1.75 1.6 9.1477e-41
5.16 1.75 1.61 9.1477e-41
5.19 1.75 1.61 9.1477e-41
5.24 1.75 1.61 9.1477e-41
5.27 1.75 1.62 9.1477e-41
5.32 1.75 1.6 9.1477e-41
5.35 1.75 1.61 9.1477e-41
5.39 1.75 1.6 9.1477e-41
5.43 1.75 1.61 9.1477e-41
5.48 1.75 1.61 9.1477e-41
5.52 1.75 1.6 9.1477e-41
5.56 1.75 1.61 9.1477e-41
5.6 1.75 1.59 9.1477e-41
5.64 1.75 1.59 9.1477e-41
5.69 1.75 1.6 9.1477e-41
5.73 1.75 1.6 9.1477e-41
5.77 1.75 1.59 9.1477e-41
5.82 1.75 1.58 9.1477e-41
5.87 1.75 1.57 9.1477e-41
5.92 1.75 1.57 3.57e-43
5.98 1.75 1.57 3.57e-43
6.03 1.75 1.57 3.57e-43
6.08 1.75 1.5 9.1477e-41
6.11 1.75 1.54 9.1477e-41
4.49 1.8 0.71 9.1477e-41
4.51 1.8 0.94 9.1477e-41
4.54 1.8 1.03 9.1477e-41
4.58 1.8 1.03 3.57e-43
4.61 1.8 1.03 3.57e-43
4.63 1.8 1.03 3.57e-43
4.65 1.8 1.48 9.1477e-41
4.68 1.8 1.53 9.1477e-41
4.71 1.8 1.58 9.1477e-41
4.74 1.8 1.6 9.1477e-41
4.78 1.8 1.6 9.1477e-41
4.82 1.8 1.61 9.1477e-41
4.85 1.8 1.62 9.1477e-41
4.89 1.8 1.61 9.1477e-41
4.92 1.8 1.63 9.1477e-41
4.96 1.8 1.63 9.1477e-41
5 1.8 1.62 9.1477e-41
5.04 1.8 1.63 9.1477e-41
5.07 1.8 1.64 9.1477e-41
5.11 1.8 1.64 9.1477e-41
5.15 1.8 1.63 9.1477e-41
5.19 1.8 1.63 9.1477e-41
5.23 1.8 1.65 9.1477e-41
5.27 1.8 1.63 9.1477e-41
5.31 1.8 1.63 9.1477e-41
5.35 1.8 1.63 9.1477e-41
5.39 1.8 1.62 9.1477e-41
5.42 1.8 1.64 9.1477e-41
5.47 1.8 1.63 9.1477e-41
5.51 1.8 1.63 9.1477e-41
5.55 1.8 1.63 9.1477e-41
5.59 1.8 1.63 9.1477e-41
5.63 1.8 1.62 9.1477e-41
5.68 1.8 1.62 9.1477e-41
5.72 1.8 1.62 9.1477e-41
5.76 1.8 1.62 9.1477e-41
5.81 1.8 1.61 9.1477e-41
5.85 1.8 1.6 9.1477e-41
5.9 1.8 1.6 9.1477e-41
5.95 1.8 1.6 9.1477e-41
5.99 1.8 1.59 9.1477e-41
6.05 1.8 1.57 9.1477e-41
6.09 1.8 1.57 9.1477e-41
4.49 1.85 0.71 9.1477e-41
4.51 1.85 0.95 9.1477e-41
4.54 1.85 1.04 9.1477e-41
4.58 1.85 1.04 3.57e-43
4.61 1.85 1.04 3.57e-43
4.63 1.85 1.04 3.57e-43
4.65 1.85 1.48 9.1477e-41
4.68 1.85 1.56 9.1477e-41
4.71 1.85 1.59 9.1477e-41
4.74 1.85 1.62 9.1477e-41
4.78 1.85 1.6 9.1477e-41
4.81 1.85 1.62 9.1477e-41
4.85 1.85 1.64 9.1477e-41
4.89 1.85 1.63 9.1477e-41
4.92 1.85 1.65 9.1477e-41
4.96 1.85 1.64 9.1477e-41
4.99 1.85 1.65 9.1477e-41
5.03 1.85 1.64 9.1477e-41
5.07 1.85 1.66 9.1477e-41
5.11 1.85 1.66 9.1477e-41
5.14 1.85 1.66 9.1477e-41
5.18 1.85 1.65 9.1477e-41
5.23 1.85 1.65 9.1477e-41
5.26 1.85 1.67 9.1477e-41
5.3 1.85 1.66 9.1477e-41
5.34 1.85 1.66 9.1477e-41
5.38 1.85 1.65 9.1477e-41
5.41 1.85 1.66 9.1477e-41
5.46 1.85 1.66 9.1477e-41
5.5 1.85 1.66 9.1477e-41
5.54 1.85 1.65 9.1477e-41
5.58 1.85 1.65 9.1477e-41
5.63 1.85 1.64 9.1477e-41
5.67 1.85 1.64 9.1477e-41
5.71 1.85 1.63 9.1477e-41
5.75 1.85 1.64 9.1477e-41
5.8 1.85 1.63 9.1477e-41
5.84 1.85 1.63 9.1477e-41
5.89 1.85 1.63 9.1477e-41
5.93 1.85 1.63 9.1477e-41
5.98 1.85 1.62 9.1477e-41
6.03 1.85 1.6 9.1477e-41
6.08 1.85 1.59 9.1477e-41
4.49 1.9 0.72 9.1477e-41
4.51 1.9 0.95 9.1477e-41
4.54 1.9 1.05 9.1477e-41
4.58 1.9 1.05 3.57e-43
4.61 1.9 1.05 3.57e-43
4.63 1.9 1.05 3.57e-43
4.65 1.9 1.48 9.1477e-41
4.67 1.9 1.57 9.1477e-41
4.71 1.9 1.6 9.1477e-41
4.74 1.9 1.64 9.1477e-41
4.77 1.9 1.64 9.1477e-41
4.81 1.9 1.63 9.1477e-41
4.84 1.9 1.65 9.1477e-41
4.88 1.9 1.65 9.1477e-41
4.92 1.9 1.66 9.1477e-41
4.95 1.9 1.67 9.1477e-41
4.99 1.9 1.66 9.1477e-41
5.03 1.9 1.66 9.1477e-41
5.07 1.9 1.67 9.1477e-41
5.1 1.9 1.68 9.1477e-41
5.14 1.9 1.68 9.1477e-41
5.18 1.9 1.67 9.1477e-41
5.21 1.9 1.69 9.1477e-41
5.26 1.9 1.67 9.1477e-41
5.29 1.9 1.69 9.1477e-41
5.33 1.9 1.68 9.1477e-41
5.37 1.9 1.68 9.1477e-41
5.41 1.9 1.67 9.1477e-41
5.45 1.9 1.68 9.1477e-41
5.49 1.9 1.68 9.1477e-41
5.54 1.9 1.66 9.1477e-41
5.58 1.9 1.67 9.1477e-41
5.61 1.9 1.67 9.1477e-41
5.66 1.9 1.66 9.1477e-41
5.7 1.9 1.67 9.1477e-41
5.75 1.9 1.66 9.1477e-41
5.79 1.9 1.66 9.1477e-41
5.83 1.9 1.66 9.1477e-41
5.88 1.9 1.65 9.1477e-41
5.92 1.9 1.65 9.1477e-41
5.97 1.9 1.63 9.1477e-41
6.02 1.9 1.62 9.1477e-41
6.08 1.9 1.6 9.1477e-41
4.49 1.95 0.71 9.1477e-41
4.51 1.95 0.94 9.1477e-41
4.54 1.95 1.06 9.1477e-41
4.58 1.95 1.06 3.57e-43
4.61 1.95 1.06 3.57e-43
4.63 1.95 1.06 3.57e-43
4.65 1.95 1.48 9.1477e-41
4.67 1.95 1.58 9.1477e-41
4.7 1.95 1.62 9.1477e-41
4.74 1.95 1.65 9.1477e-41
4.77 1.95 1.65 9.1477e-41
4.81 1.95 1.65 9.1477e-41
4.84 1.95 1.66 9.1477e-41
4.88 1.95 1.66 9.1477e-41
4.91 1.95 1.68 9.1477e-41
4.95 1.95 1.68 9.1477e-41
4.99 1.95 1.68 9.1477e-41
5.02 1.95 1.68 9.1477e-41
5.06 1.95 1.69 9.1477e-41
5.1 1.95 1.69 9.1477e-41
5.13 1.95 1.7 9.1477e-41
5.17 1.95 1.69 9.1477e-41
5.21 1.95 1.71 9.1477e-41
5.25 1.95 1.7 9.1477e-41
5.29 1.95 1.69 9.1477e-41
5.33 1.95 1.7 9.1477e-41
5.37 1.95 1.7 9.1477e-41
5.41 1.95 1.69 9.1477e-41
5.45 1.95 1.69 9.1477e-41
5.49 1.95 1.7 9.1477e-41
5.53 1.95 1.68 9.1477e-41
5.57 1.95 1.68 9.1477e-41
5.61 1.95 1.68 9.1477e-41
5.65 1.95 1.67 9.1477e-41
5.69 1.95 1.69 9.1477e-41
5.74 1.95 1.67 9.1477e-41
5.78 1.95 1.67 9.1477e-41
5.83 1.95 1.67 9.1477e-41
5.87 1.95 1.66 9.1477e-41
5.91 1.95 1.68 9.1477e-41
5.96 1.95 1.66 9.1477e-41
6.01 1.95 1.64 9.1477e-41
6.06 1.95 1.63 9.1477e-41
6.11 1.95 1.63 9.1477e-41
4.49 2 0.7 9.1477e-41
4.51 2 0.96 9.1477e-41
4.54 2 1.07 9.1477e-41
4.58 2 1.07 3.57e-43
4.61 2 1.07 3.57e-43
4.63 2 1.07 3.57e-43
4.65 2 1.48 9.1477e-41
4.67 2 1.59 9.1477e-41
4.7 2 1.63 9.1477e-41
4.73 2 1.66 9.1477e-41
4.77 2 1.66 9.1477e-41
4.81 2 1.66 9.1477e-41
4.84 2 1.68 9.1477e-41
4.88 2 1.67 9.1477e-41
4.91 2 1.7 9.1477e-41
4.95 2 1.68 9.1477e-41
4.98 2 1.69 9.1477e-41
5.02 2 1.7 9.1477e-41
5.06 2 1.71 9.1477e-41
5.09 2 1.71 9.1477e-41
5.13 2 1.7 9.1477e-41
5.17 2 1.71 9.1477e-41
5.21 2 1.71 9.1477e-41
5.24 2 1.72 9.1477e-41
5.29 2 1.71 9.1477e-41
5.32 2 1.71 9.1477e-41
5.36 2 1.7 9.1477e-41
5.4 2 1.7 9.1477e-41
5.44 2 1.7 9.1477e-41
5.48 2 1.71 9.1477e-41
5.52 2 1.7 9.1477e-41
5.56 2 1.7 9.1477e-41
5.61 2 1.69 9.1477e-41
5.65 2 1.69 9.1477e-41
5.69 2 1.69 9.1477e-41
5.73 2 1.69 9.1477e-41
5.77 2 1.69 9.1477e-41
5.82 2 1.68 9.1477e-41
5.86 2 1.68 9.1477e-41
5.91 2 1.67 9.1477e-41
5.95 2 1.68 9.1477e-41
6.01 2 1.66 9.1477e-41
6.05 2 1.65 9.1477e-41
6.1 2 1.64 9.1477e-41
4.49 2.05 0.71 9.1477e-41
4.51 2.05 0.95 9.1477e-41
4.54 2.05 1.09 9.1477e-41
4.58 2.05 1.09 3.57e-43
4.61 2.05 1.09 3.57e-43
4.63 2.05 1.09 3.57e-43
4.65 2.05 1.48 9.1477e-41
4.67 2.05 1.59 9.1477e-41
4.7 2.05 1.63 9.1477e-41
4.73 2.05 1.66 9.1477e-41
4.77 2.05 1.67 9.1477e-41
4.81 2.05 1.67 9.1477e-41
4.84 2.05 1.68 9.1477e-41
4.87 2.05 1.69 9.1477e-41
4.91 2.05 1.71 9.1477e-41
4.95 2.05 1.7 9.1477e-41
4.98 2.05 1.7 9.1477e-41
5.02 2.05 1.71 9.1477e-41
5.06 2.05 1.71 9.1477e-41
5.09 2.05 1.71 9.1477e-41
5.13 2.05 1.72 9.1477e-41
5.17 2.05 1.72 9.1477e-41
5.2 2.05 1.72 9.1477e-41
5.24 2.05 1.72 9.1477e-41
5.29 2.05 1.71 9.1477e-41
5.32 2.05 1.73 9.1477e-41
5.36 2.05 1.71 9.1477e-41
5.4 2.05 1.71 9.1477e-41
5.44 2.05 1.7 9.1477e-41
5.48 2.05 1.73 9.1477e-41
5.52 2.05 1.71 9.1477e-41
5.56 2.05 1.72 9.1477e-41
5.6 2.05 1.72 9.1477e-41
5.64 2.05 1.7 9.1477e-41
5.69 2.05 1.71 9.1477e-41
5.73 2.05 1.7 9.1477e-41
5.77 2.05 1.71 9.1477e-41
5.81 2.05 1.69 9.1477e-41
5.86 2.05 1.69 9.1477e-41
5.9 2.05 1.68 9.1477e-41
5.94 2.05 1.7 9.1477e-41
6 2.05 1.68 9.1477e-41
6.05 2.05 1.66 9.1477e-41
6.09 2.05 1.67 9.1477e-41
4.48 2.1 0.72 9.1477e-41
4.51 2.1 0.91 9.1477e-41
4.54 2.1 1.1 9.1477e-41
4.57 2.1 1.1 3.57e-43
4.61 2.1 1.1 3.57e-43
4.63 2.1 1.1 3.57e-43
4.65 2.1 1.48 9.1477e-41
4.67 2.1 1.6 9.1477e-41
4.7 2.1 1.63 9.1477e-41
4.73 2.1 1.67 9.1477e-41
4.77 2.1 1.68 9.1477e-41
4.8 2.1 1.69 9.1477e-41
4.84 2.1 1.69 9.1477e-41
4.87 2.1 1.71 9.1477e-41
4.91 2.1 1.72 9.1477e-41
4.94 2.1 1.71 9.1477e-41
4.98 2.1 1.72 9.1477e-41
5.02 2.1 1.72 9.1477e-41
5.05 2.1 1.72 9.1477e-41
5.09 2.1 1.73 9.1477e-41
5.12 2.1 1.74 9.1477e-41
5.16 2.1 1.73 9.1477e-41
5.2 2.1 1.73 9.1477e-41
5.24 2.1 1.74 9.1477e-41
5.27 2.1 1.75 9.1477e-41
5.31 2.1 1.74 9.1477e-41
5.35 2.1 1.73 9.1477e-41
5.39 2.1 1.73 9.1477e-41
5.43 2.1 1.72 9.1477e-41
5.48 2.1 1.73 9.1477e-41
5.51 2.1 1.73 9.1477e-41
5.56 2.1 1.72 9.1477e-41
5.6 2.1 1.72 9.1477e-41
5.64 2.1 1.72 9.1477e-41
5.68 2.1 1.72 9.1477e-41
5.72 2.1 1.7 9.1477e-41
5.76 2.1 1.73 9.1477e-41
5.81 2.1 1.7 9.1477e-41
5.85 2.1 1.7 9.1477e-41
5.9 2.1 1.7 9.1477e-41
5.94 2.1 1.71 9.1477e-41
5.99 2.1 1.69 9.1477e-41
6.04 2.1 1.68 9.1477e-41
6.09 2.1 1.67 9.1477e-41
4.49 2.15 0.72 9.1477e-41
4.51 2.15 0.99 9.1477e-41
4.53 2.15 1.12 9.1477e-41
4.57 2.15 1.17 9.1477e-41
4.61 2.15 1.17 3.57e-43
4.63 2.15 1.17 3.57e-43
4.65 2.15 1.48 9.1477e-41
4.67 2.15 1.61 9.1477e-41
4.7 2.15 1.64 9.1477e-41
4.73 2.15 1.67 9.1477e-41
4.76 2.15 1.69 9.1477e-41
4.8 2.15 1.69 9.1477e-41
4.83 2.15 1.7 9.1477e-41
4.87 2.15 1.71 9.1477e-41
4.9 2.15 1.73 9.1477e-41
4.94 2.15 1.72 9.1477e-41
4.98 2.15 1.73 9.1477e-41
5.01 2.15 1.73 9.1477e-41
5.05 2.15 1.73 9.1477e-41
5.09 2.15 1.74 9.1477e-41
5.12 2.15 1.74 9.1477e-41
5.16 2.15 1.74 9.1477e-41
5.2 2.15 1.74 9.1477e-41
5.24 2.15 1.74 9.1477e-41
5.27 2.15 1.75 9.1477e-41
5.31 2.15 1.74 9.1477e-41
5.35 2.15 1.74 9.1477e-41
5.39 2.15 1.74 9.1477e-41
5.43 2.15 1.73 9.1477e-41
5.47 2.15 1.74 9.1477e-41
5.51 2.15 1.74 9.1477e-41
5.55 2.15 1.73 9.1477e-41
5.59 2.15 1.74 9.1477e-41
5.64 2.15 1.72 9.1477e-41
5.67 2.15 1.72 9.1477e-41
5.72 2.15 1.72 9.1477e-41
5.76 2.15 1.72 9.1477e-41
5.8 2.15 1.72 9.1477e-41
5.85 2.15 1.71 9.1477e-41
5.89 2.15 1.72 9.1477e-41
5.94 2.15 1.71 9.1477e-41
5.98 2.15 1.7 9.1477e-41
6.04 2.15 1.68 9.1477e-41
6.08 2.15 1.68 9.1477e-41
4.48 2.2 0.72 9.1477e-41
4.51 2.2 0.97 9.1477e-41
4.53 2.2 1.12 9.1477e-41
4.57 2.2 1.21 9.1477e-41
4.6 2.2 1.27 9.1477e-41
4.63 2.2 1.27 3.57e-43
4.65 2.2 1.48 9.1477e-41
4.67 2.2 1.61 9.1477e-41
4.7 2.2 1.64 9.1477e-41
4.73 2.2 1.67 9.1477e-41
4.76 2.2 1.7 9.1477e-41
4.8 2.2 1.71 9.1477e-41
4.83 2.2 1.7 9.1477e-41
4.87 2.2 1.74 9.1477e-41
4.91 2.2 1.72 9.1477e-41
4.94 2.2 1.73 9.1477e-41
4.98 2.2 1.73 9.1477e-41
5.02 2.2 1.72 9.1477e-41
5.05 2.2 1.74 9.1477e-41
5.08 2.2 1.75 9.1477e-41
5.12 2.2 1.75 9.1477e-41
5.16 2.2 1.74 9.1477e-41
5.2 2.2 1.74 9.1477e-41
5.24 2.2 1.75 9.1477e-41
5.27 2.2 1.76 9.1477e-41
5.31 2.2 1.76 9.1477e-41
5.35 2.2 1.75 9.1477e-41
5.39 2.2 1.75 9.1477e-41
5.43 2.2 1.74 9.1477e-41
5.47 2.2 1.75 9.1477e-41
5.5 2.2 1.76 9.1477e-41
5.55 2.2 1.74 9.1477e-41
5.59 2.2 1.74 9.1477e-41
5.63 2.2 1.75 9.1477e-41
5.67 2.2 1.73 9.1477e-41
5.71 2.2 1.74 9.1477e-41
5.76 2.2 1.74 9.1477e-41
5.8 2.2 1.73 9.1477e-41
5.85 2.2 1.72 9.1477e-41
5.89 2.2 1.72 9.1477e-41
5.93 2.2 1.73 9.1477e-41
5.98 2.2 1.72 9.1477e-41
6.03 2.2 1.7 9.1477e-41
6.07 2.2 1.7 9.1477e-41
4.49 2.25 0.72 9.1477e-41
4.51 2.25 0.98 9.1477e-41
4.54 2.25 1.11 9.1477e-41
4.56 2.25 1.23 9.1477e-41
4.59 2.25 1.32 9.1477e-41
4.62 2.25 1.41 9.1477e-41
4.65 2.25 1.47 9.1477e-41
4.67 2.25 1.58 9.1477e-41
4.7 2.25 1.65 9.1477e-41
4.73 2.25 1.67 9.1477e-41
4.76 2.25 1.71 9.1477e-41
4.8 2.25 1.72 9.1477e-41
4.83 2.25 1.71 9.1477e-41
4.87 2.25 1.74 9.1477e-41
4.9 2.25 1.74 9.1477e-41
4.94 2.25 1.74 9.1477e-41
4.98 2.25 1.73 9.1477e-41
5.01 2.25 1.75 9.1477e-41
5.05 2.25 1.76 9.1477e-41
5.08 2.25 1.75 9.1477e-41
5.12 2.25 1.76 9.1477e-41
5.16 2.25 1.75 9.1477e-41
5.19 2.25 1.75 9.1477e-41
5.23 2.25 1.76 9.1477e-41
5.27 2.25 1.76 9.1477e-41
5.31 2.25 1.76 9.1477e-41
5.35 2.25 1.76 9.1477e-41
5.39 2.25 1.75 9.1477e-41
5.42 2.25 1.76 9.1477e-41
5.46 2.25 1.75 9.1477e-41
5.5 2.25 1.76 9.1477e-41
5.54 2.25 1.76 9.1477e-41
5.58 2.25 1.75 9.1477e-41
5.63 2.25 1.75 9.1477e-41
5.67 2.25 1.74 9.1477e-41
5.71 2.25 1.74 9.1477e-41
5.75 2.25 1.74 9.1477e-41
5.79 2.25 1.74 9.1477e-41
5.84 2.25 1.74 9.1477e-41
5.88 2.25 1.73 9.1477e-41
5.93 2.25 1.72 9.1477e-41
5.97 2.25 1.73 9.1477e-41
6.03 2.25 1.7 9.1477e-41
6.08 2.25 1.69 9.1477e-41
4.49 2.3 0.72 9.1477e-41
4.51 2.3 0.96 9.1477e-41
4.53 2.3 1.12 9.1477e-41
4.56 2.3 1.23 9.1477e-41
4.59 2.3 1.33 9.1477e-41
4.62 2.3 1.43 9.1477e-41
4.65 2.3 1.49 9.1477e-41
4.67 2.3 1.58 9.1477e-41
4.7 2.3 1.65 9.1477e-41
4.73 2.3 1.67 9.1477e-41
4.76 2.3 1.72 9.1477e-41
4.79 2.3 1.73 9.1477e-41
4.83 2.3 1.72 9.1477e-41
4.87 2.3 1.74 9.1477e-41
4.9 2.3 1.75 9.1477e-41
4.94 2.3 1.74 9.1477e-41
4.97 2.3 1.75 9.1477e-41
5.01 2.3 1.74 9.1477e-41
5.05 2.3 1.76 9.1477e-41
5.08 2.3 1.76 9.1477e-41
5.12 2.3 1.76 9.1477e-41
5.16 2.3 1.75 9.1477e-41
5.19 2.3 1.75 9.1477e-41
5.23 2.3 1.76 9.1477e-41
5.27 2.3 1.77 9.1477e-41
5.31 2.3 1.77 9.1477e-41
5.35 2.3 1.76 9.1477e-41
5.38 2.3 1.76 9.1477e-41
5.42 2.3 1.76 9.1477e-41
5.46 2.3 1.75 9.1477e-41
5.5 2.3 1.77 9.1477e-41
5.54 2.3 1.76 9.1477e-41
5.58 2.3 1.75 9.1477e-41
5.63 2.3 1.75 9.1477e-41
5.66 2.3 1.76 9.1477e-41
5.71 2.3 1.75 9.1477e-41
5.75 2.3 1.75 9.1477e-41
5.79 2.3 1.75 9.1477e-41
5.83 2.3 1.75 9.1477e-41
5.88 2.3 1.73 9.1477e-41
5.93 2.3 1.73 9.1477e-41
5.97 2.3 1.74 9.1477e-41
6.02 2.3 1.71 9.1477e-41
6.06 2.3 1.72 9.1477e-41
4.48 2.35 0.72 9.1477e-41
4.51 2.35 0.97 9.1477e-41
4.53 2.35 1.12 9.1477e-41
4.56 2.35 1.23 9.1477e-41
4.59 2.35 1.33 9.1477e-41
4.62 2.35 1.42 9.1477e-41
4.65 2.35 1.5 9.1477e-41
4.67 2.35 1.58 9.1477e-41
4.7 2.35 1.65 9.1477e-41
4.73 2.35 1.67 9.1477e-41
4.76 2.35 1.71 9.1477e-41
4.79 2.35 1.73 9.1477e-41
4.83 2.35 1.72 9.1477e-41
4.86 2.35 1.75 9.1477e-41
4.9 2.35 1.75 9.1477e-41
4.93 2.35 1.75 9.1477e-41
4.97 2.35 1.75 9.1477e-41
5.01 2.35 1.75 9.1477e-41
5.05 2.35 1.76 9.1477e-41
5.08 2.35 1.77 9.1477e-41
5.12 2.35 1.76 9.1477e-41
5.15 2.35 1.76 9.1477e-41
5.19 2.35 1.76 9.1477e-41
5.23 2.35 1.77 9.1477e-41
5.27 2.35 1.77 9.1477e-41
5.31 2.35 1.77 9.1477e-41
5.34 2.35 1.77 9.1477e-41
5.38 2.35 1.77 9.1477e-41
5.42 2.35 1.76 9.1477e-41
5.46 2.35 1.76 9.1477e-41
5.5 2.35 1.78 9.1477e-41
5.54 2.35 1.77 9.1477e-41
5.58 2.35 1.76 9.1477e-41
5.62 2.35 1.76 9.1477e-41
5.66 2.35 1.76 9.1477e-41
5.7 2.35 1.77 9.1477e-41
5.75 2.35 1.75 9.1477e-41
5.79 2.35 1.75 9.1477e-41
5.83 2.35 1.76 9.1477e-41
5.88 2.35 1.74 9.1477e-41
5.92 2.35 1.75 9.1477e-41
5.97 2.35 1.74 9.1477e-41
6.02 2.35 1.72 9.1477e-41
6.06 2.35 1.73 9.1477e-41
4.49 2.4 0.71 9.1477e-41
4.51 2.4 0.98 9.1477e-41
4.53 2.4 1.12 9.1477e-41
4.57 2.4 1.16 9.1477e-41
4.59 2.4 1.32 9.1477e-41
4.62 2.4 1.43 9.1477e-41
4.65 2.4 1.5 9.1477e-41
4.67 2.4 1.58 9.1477e-41
4.7 2.4 1.65 9.1477e-41
4.73 2.4 1.68 9.1477e-41
4.76 2.4 1.72 9.1477e-41
4.79 2.4 1.74 9.1477e-41
4.83 2.4 1.73 9.1477e-41
4.86 2.4 1.75 9.1477e-41
4.9 2.4 1.77 9.1477e-41
4.93 2.4 1.75 9.1477e-41
4.97 2.4 1.76 9.1477e-41
5.01 2.4 1.75 9.1477e-41
5.04 2.4 1.77 9.1477e-41
5.08 2.4 1.76 9.1477e-41
5.12 2.4 1.76 9.1477e-41
5.15 2.4 1.76 9.1477e-41
5.19 2.4 1.77 9.1477e-41
5.23 2.4 1.76 9.1477e-41
5.27 2.4 1.77 9.1477e-41
5.3 2.4 1.78 9.1477e-41
5.34 2.4 1.78 9.1477e-41
5.38 2.4 1.78 9.1477e-41
5.42 2.4 1.76 9.1477e-41
5.46 2.4 1.76 9.1477e-41
5.5 2.4 1.76 9.1477e-41
5.54 2.4 1.76 9.1477e-41
5.58 2.4 1.76 9.1477e-41
5.62 2.4 1.77 9.1477e-41
5.66 2.4 1.75 9.1477e-41
5.7 2.4 1.78 9.1477e-41
5.74 2.4 1.76 9.1477e-41
5.79 2.4 1.75 9.1477e-41
5.83 2.4 1.76 9.1477e-41
5.88 2.4 1.74 9.1477e-41
5.92 2.4 1.74 9.1477e-41
5.96 2.4 1.75 9.1477e-41
6.01 2.4 1.74 9.1477e-41
6.06 2.4 1.72 9.1477e-41
4.48 2.45 0.72 9.1477e-41
4.51 2.45 0.93 9.1477e-41
4.54 2.45 1.11 9.1477e-41
4.57 2.45 1.11 3.57e-43
4.59 2.45 1.11 3.57e-43
4.62 2.45 1.11 3.57e-43
4.65 2.45 1.5 9.1477e-41
4.67 2.45 1.62 9.1477e-41
4.7 2.45 1.65 9.1477e-41
4.73 2.45 1.68 9.1477e-41
4.76 2.45 1.72 9.1477e-41
4.79 2.45 1.75 9.1477e-41
4.83 2.45 1.73 9.1477e-41
4.87 2.45 1.74 9.1477e-41
4.9 2.45 1.76 9.1477e-41
4.93 2.45 1.75 9.1477e-41
4.97 2.45 1.75 9.1477e-41
5 2.45 1.77 9.1477e-41
5.04 2.45 1.76 9.1477e-41
5.08 2.45 1.78 9.1477e-41
5.11 2.45 1.78 9.1477e-41
5.15 2.45 1.77 9.1477e-41
5.19 2.45 1.78 9.1477e-41
5.22 2.45 1.79 9.1477e-41
5.26 2.45 1.78 9.1477e-41
5.3 2.45 1.78 9.1477e-41
5.34 2.45 1.78 9.1477e-41
5.38 2.45 1.78 9.1477e-41
5.42 2.45 1.77 9.1477e-41
5.46 2.45 1.77 9.1477e-41
5.5 2.45 1.78 9.1477e-41
5.53 2.45 1.78 9.1477e-41
5.57 2.45 1.78 9.1477e-41
5.62 2.45 1.77 9.1477e-41
5.66 2.45 1.77 9.1477e-41
5.7 2.45 1.77 9.1477e-41
5.74 2.45 1.76 9.1477e-41
5.78 2.45 1.77 9.1477e-41
5.83 2.45 1.76 9.1477e-41
5.87 2.45 1.75 9.1477e-41
5.92 2.45 1.76 9.1477e-41
5.96 2.45 1.75 9.1477e-41
6.01 2.45 1.74 9.1477e-41
6.06 2.45 1.73 9.1477e-41
4.48 2.5 0.72 9.1477e-41
4.51 2.5 0.96 9.1477e-41
4.54 2.5 0.96 3.57e-43
4.57 2.5 0.96 3.57e-43
4.59 2.5 0.96 3.57e-43
4.62 2.5 0.96 3.57e-43
4.65 2.5 0.96 3.57e-43
4.67 2.5 1.62 9.1477e-41
4.7 2.5 1.66 9.1477e-41
4.73 2.5 1.68 9.1477e-41
4.76 2.5 1.73 9.1477e-41
4.79 2.5 1.75 9.1477e-41
4.83 2.5 1.73 9.1477e-41
4.86 2.5 1.76 9.1477e-41
4.9 2.5 1.77 9.1477e-41
4.93 2.5 1.76 9.1477e-41
4.97 2.5 1.77 9.1477e-41
5.01 2.5 1.76 9.1477e-41
5.04 2.5 1.77 9.1477e-41
5.08 2.5 1.77 9.1477e-41
5.11 2.5 1.77 9.1477e-41
5.15 2.5 1.77 9.1477e-41
5.19 2.5 1.78 9.1477e-41
5.23 2.5 1.78 9.1477e-41
5.26 2.5 1.78 9.1477e-41
5.3 2.5 1.79 9.1477e-41
5.34 2.5 1.78 9.1477e-41
5.38 2.5 1.78 9.1477e-41
5.42 2.5 1.77 9.1477e-41
5.45 2.5 1.78 9.1477e-41
5.49 2.5 1.79 9.1477e-41
5.54 2.5 1.77 9.1477e-41
5.57 2.5 1.79 9.1477e-41
5.61 2.5 1.78 9.1477e-41
5.66 2.5 1.77 9.1477e-41
5.69 2.5 1.79 9.1477e-41
5.74 2.5 1.77 9.1477e-41
5.78 2.5 1.77 9.1477e-41
5.83 2.5 1.76 9.1477e-41
5.86 2.5 1.77 9.1477e-41
5.92 2.5 1.75 9.1477e-41
5.96 2.5 1.76 9.1477e-41
6.01 2.5 1.74 9.1477e-41
6.05 2.5 1.74 9.1477e-41
4.48 2.55 0.73 9.1477e-41
4.51 2.55 0.97 9.1477e-41
4.54 2.55 0.97 3.57e-43
4.57 2.55 0.97 3.57e-43
4.59 2.55 0.97 3.57e-43
4.62 2.55 0.97 3.57e-43
4.65 2.55 0.97 3.57e-43
4.67 2.55 1.62 9.1477e-41
4.7 2.55 1.67 9.1477e-41
4.73 2.55 1.68 9.1477e-41
4.76 2.55 1.73 9.1477e-41
4.79 2.55 1.75 9.1477e-41
4.83 2.55 1.74 9.1477e-41
4.86 2.55 1.75 9.1477e-41
4.9 2.55 1.77 9.1477e-41
4.93 2.55 1.76 9.1477e-41
4.97 2.55 1.77 9.1477e-41
5 2.55 1.78 9.1477e-41
5.04 2.55 1.77 9.1477e-41
5.08 2.55 1.78 9.1477e-41
5.11 2.55 1.77 9.1477e-41
5.15 2.55 1.77 9.1477e-41
5.19 2.55 1.78 9.1477e-41
5.22 2.55 1.79 9.1477e-41
5.26 2.55 1.78 9.1477e-41
5.3 2.55 1.79 9.1477e-41
5.34 2.55 1.79 9.1477e-41
5.38 2.55 1.78 9.1477e-41
5.41 2.55 1.78 9.1477e-41
5.46 2.55 1.78 9.1477e-41
5.49 2.55 1.79 9.1477e-41
5.53 2.55 1.79 9.1477e-41
5.57 2.55 1.78 9.1477e-41
5.61 2.55 1.78 9.1477e-41
5.66 2.55 1.77 9.1477e-41
5.69 2.55 1.79 9.1477e-41
5.74 2.55 1.77 9.1477e-41
5.78 2.55 1.77 9.1477e-41
5.82 2.55 1.77 9.1477e-41
5.86 2.55 1.77 9.1477e-41
5.92 2.55 1.75 9.1477e-41
5.96 2.55 1.76 9.1477e-41
6.01 2.55 1.75 9.1477e-41
6.05 2.55 1.74 9.1477e-41
4.48 2.6 0.73 9.1477e-41
4.51 2.6 0.97 9.1477e-41
4.54 2.6 0.97 3.57e-43
4.57 2.6 0.97 3.57e-43
4.59 2.6 0.97 3.57e-43
4.62 2.6 0.97 3.57e-43
4.65 2.6 0.97 3.57e-43
4.67 2.6 1.62 9.1477e-41
4.7 2.6 1.67 9.1477e-41
4.73 2.6 1.69 9.1477e-41
4.76 2.6 1.73 9.1477e-41
4.79 2.6 1.76 9.1477e-41
4.83 2.6 1.74 9.1477e-41
4.86 2.6 1.76 9.1477e-41
4.9 2.6 1.77 9.1477e-41
4.93 2.6 1.77 9.1477e-41
4.97 2.6 1.77 9.1477e-41
5 2.6 1.78 9.1477e-41
5.04 2.6 1.78 9.1477e-41
5.07 2.6 1.79 9.1477e-41
5.11 2.6 1.79 9.1477e-41
5.15 2.6 1.79 9.1477e-41
5.19 2.6 1.78 9.1477e-41
5.22 2.6 1.79 9.1477e-41
5.26 2.6 1.8 9.1477e-41
5.3 2.6 1.79 9.1477e-41
5.34 2.6 1.79 9.1477e-41
5.37 2.6 1.8 9.1477e-41
5.41 2.6 1.79 9.1477e-41
5.45 2.6 1.78 9.1477e-41
5.49 2.6 1.79 9.1477e-41
5.53 2.6 1.79 9.1477e-41
5.57 2.6 1.78 9.1477e-41
5.61 2.6 1.79 9.1477e-41
5.65 2.6 1.78 9.1477e-41
5.69 2.6 1.79 9.1477e-41
5.74 2.6 1.77 9.1477e-41
5.78 2.6 1.78 9.1477e-41
5.82 2.6 1.77 9.1477e-41
5.87 2.6 1.76 9.1477e-41
5.91 2.6 1.77 9.1477e-41
5.96 2.6 1.76 9.1477e-41
6.01 2.6 1.75 9.1477e-41
6.05 2.6 1.75 9.1477e-41
4.48 2.65 0.72 9.1477e-41
4.51 2.65 0.96 9.1477e-41
4.54 2.65 0.96 3.57e-43
4.57 2.65 0.96 3.57e-43
4.59 2.65 0.96 3.57e-43
4.62 2.65 0.96 3.57e-43
4.65 2.65 0.96 3.57e-43
4.67 2.65 1.62 9.1477e-41
4.7 2.65 1.68 9.1477e-41
4.73 2.65 1.68 9.1477e-41
4.76 2.65 1.73 9.1477e-41
4.79 2.65 1.76 9.1477e-41
